# .PCD v0.7 - Point Cloud Data file format
VERSION 0.7
FIELDS x y z rgb label
SIZE 4 4 4 4 4
TYPE F F F F U
COUNT 1 1 1 1 1
WIDTH 777
HEIGHT 1
VIEWPOINT 0 0 0 1 0 0 0
POINTS 777
DATA ascii
2.257084 40.779518 9.351348 1.880790849211783e-38 1768976227
2.593944 46.865696 7.753443 1.880790849211783e-38 1768976227
2.792259 50.448715 7.902101 1.880790849211783e-38 1768976227
2.341634 42.307110 9.294559 1.880790849211783e-38 1768976227
2.484181 44.882561 9.529572 1.880790849211783e-38 1768976227
3.492405 59.827946 7.479934 1.880790849211783e-38 1768976227
3.497946 59.922867 7.185051 1.880790849211783e-38 1768976227
3.536667 60.586189 6.904817 1.880790849211783e-38 1768976227
2.694869 46.165462 4.939931 1.880790849211783e-38 1768976227
2.957649 50.667103 7.610704 1.880790849211783e-38 1768976227
3.077148 52.714230 7.572796 1.880790849211783e-38 1768976227
3.366503 57.671131 7.966053 1.880790849211783e-38 1768976227
3.456003 59.204350 7.838393 1.880790849211783e-38 1768976227
2.378538 40.746426 17.004581 1.880790849211783e-38 1768976227
2.411959 41.318958 16.905090 1.880790849211783e-38 1768976227
2.663603 45.629841 9.176017 1.880790849211783e-38 1768976227
2.911697 49.879902 9.509797 1.880790849211783e-38 1768976227
2.406163 41.219673 16.467773 1.880790849211783e-38 1768976227
2.539457 43.503117 16.899015 1.880790849211783e-38 1768976227
2.291036 39.247448 17.721100 1.880790849211783e-38 1768976227
2.420855 41.471359 15.668196 1.880790849211783e-38 1768976227
2.509339 42.987164 15.686337 1.880790849211783e-38 1768976227
2.354180 40.329151 17.771845 1.880790849211783e-38 1768976227
2.359817 40.425716 17.243237 1.880790849211783e-38 1768976227
2.387888 40.906612 12.070855 1.880790849211783e-38 1768976227
2.450280 41.975437 12.068231 1.880790849211783e-38 1768976227
2.306469 39.511826 13.956998 1.880790849211783e-38 1768976227
2.359288 40.416653 14.020063 1.880790849211783e-38 1768976227
2.401479 41.139439 11.423529 1.880790849211783e-38 1768976227
2.367256 40.553162 10.895366 1.880790849211783e-38 1768976227
2.409913 41.283905 13.957409 1.880790849211783e-38 1768976227
2.429426 41.618183 13.669892 1.880790849211783e-38 1768976227
2.510256 43.002869 11.113255 1.880790849211783e-38 1768976227
2.629558 45.046612 11.106436 1.880790849211783e-38 1768976227
2.489021 42.639095 13.542483 1.880790849211783e-38 1768976227
2.462505 42.184856 12.914490 1.880790849211783e-38 1768976227
2.590989 44.385910 8.107890 1.880790849211783e-38 1768976227
2.718072 46.562943 8.086052 1.880790849211783e-38 1768976227
2.520041 43.170506 10.166526 1.880790849211783e-38 1768976227
2.430809 41.641888 9.550739 1.880790849211783e-38 1768976227
2.947544 50.493992 8.355140 1.880790849211783e-38 1768976227
2.894693 49.588615 7.768710 1.880790849211783e-38 1768976227
2.461158 42.161785 9.264221 1.880790849211783e-38 1768976227
2.499763 42.823132 9.093869 1.880790849211783e-38 1768976227
3.642654 59.325748 7.418487 1.880790849211783e-38 1768976227
3.666634 59.716293 7.161576 1.880790849211783e-38 1768976227
2.719392 44.289124 5.048404 1.880790849211783e-38 1768976227
2.848405 46.390293 4.964885 1.880790849211783e-38 1768976227
3.131766 51.005219 7.662877 1.880790849211783e-38 1768976227
3.258028 53.061562 7.624070 1.880790849211783e-38 1768976227
3.533814 57.553135 7.951190 1.880790849211783e-38 1768976227
3.602002 58.663677 7.768213 1.880790849211783e-38 1768976227
3.042444 49.550476 4.389785 1.880790849211783e-38 1768976227
2.544881 41.446972 17.300062 1.880790849211783e-38 1768976227
2.509832 40.876156 16.726944 1.880790849211783e-38 1768976227
2.796062 45.537807 9.159163 1.880790849211783e-38 1768976227
3.068105 49.968399 9.528390 1.880790849211783e-38 1768976227
2.532710 41.248749 16.482368 1.880790849211783e-38 1768976227
2.544600 41.442390 16.101425 1.880790849211783e-38 1768976227
2.457989 40.031803 18.078520 1.880790849211783e-38 1768976227
2.542471 41.407726 15.646979 1.880790849211783e-38 1768976227
2.553603 41.589024 15.178887 1.880790849211783e-38 1768976227
2.481334 40.412018 17.811579 1.880790849211783e-38 1768976227
2.510937 40.894138 17.446188 1.880790849211783e-38 1768976227
2.483982 40.455147 11.939791 1.880790849211783e-38 1768976227
2.557286 41.649006 11.976542 1.880790849211783e-38 1768976227
2.430940 39.591270 13.987587 1.880790849211783e-38 1768976227
2.460811 40.077766 13.905020 1.880790849211783e-38 1768976227
2.529938 41.203606 11.443414 1.880790849211783e-38 1768976227
2.497596 40.676861 10.930573 1.880790849211783e-38 1768976227
2.531287 41.225582 13.940207 1.880790849211783e-38 1768976227
2.552218 41.566467 13.655372 1.880790849211783e-38 1768976227
2.656199 43.259941 11.181708 1.880790849211783e-38 1768976227
2.761624 44.976940 11.091260 1.880790849211783e-38 1768976227
2.628242 42.804626 13.597512 1.880790849211783e-38 1768976227
2.596236 42.283360 12.946983 1.880790849211783e-38 1768976227
2.740229 44.628483 8.153673 1.880790849211783e-38 1768976227
2.878483 46.880146 8.142608 1.880790849211783e-38 1768976227
2.592846 42.228149 9.946401 1.880790849211783e-38 1768976227
2.520152 41.044231 9.415364 1.880790849211783e-38 1768976227
2.944359 47.953022 7.936124 1.880790849211783e-38 1768976227
3.130155 50.978977 7.987971 1.880790849211783e-38 1768976227
2.608876 42.489223 9.337856 1.880790849211783e-38 1768976227
2.594147 42.249340 8.973640 1.880790849211783e-38 1768976227
3.802131 59.012951 7.380773 1.880790849211783e-38 1768976227
2.904861 45.086414 5.408089 1.880790849211783e-38 1768976227
2.824534 43.839649 4.998118 1.880790849211783e-38 1768976227
3.010509 46.726170 5.001782 1.880790849211783e-38 1768976227
3.291694 51.090446 7.677138 1.880790849211783e-38 1768976227
3.445353 53.475388 7.684988 1.880790849211783e-38 1768976227
3.737551 58.010605 8.015911 1.880790849211783e-38 1768976227
3.789662 58.819416 7.790315 1.880790849211783e-38 1768976227
2.670671 41.451538 17.305250 1.880790849211783e-38 1768976227
2.686818 41.702156 17.068190 1.880790849211783e-38 1768976227
2.915644 45.253769 9.103761 1.880790849211783e-38 1768976227
3.234196 50.198029 9.573994 1.880790849211783e-38 1768976227
2.662819 41.329666 16.517834 1.880790849211783e-38 1768976227
2.665431 41.370213 16.076431 1.880790849211783e-38 1768976227
2.569190 39.876442 18.011776 1.880790849211783e-38 1768976227
2.659758 41.282158 15.602491 1.880790849211783e-38 1768976227
2.671613 41.466156 15.136916 1.880790849211783e-38 1768976227
2.582646 40.085297 17.670929 1.880790849211783e-38 1768976227
2.650206 41.133904 17.551805 1.880790849211783e-38 1768976227
2.592521 40.238575 11.878126 1.880790849211783e-38 1768976227
2.791525 43.327316 12.461521 1.880790849211783e-38 1768976227
2.514274 39.024094 13.789821 1.880790849211783e-38 1768976227
2.522202 39.147137 13.584714 1.880790849211783e-38 1768976227
2.668781 41.422195 11.506306 1.880790849211783e-38 1768976227
2.615152 40.589817 10.909253 1.880790849211783e-38 1768976227
2.693201 41.801228 14.137542 1.880790849211783e-38 1768976227
2.660298 41.290531 13.567296 1.880790849211783e-38 1768976227
2.814732 43.687504 11.294368 1.880790849211783e-38 1768976227
2.907756 45.131332 11.131446 1.880790849211783e-38 1768976227
2.787992 43.272476 13.748740 1.880790849211783e-38 1768976227
2.761253 42.857468 13.125263 1.880790849211783e-38 1768976227
2.839773 44.076164 8.054293 1.880790849211783e-38 1768976227
3.007288 46.676174 8.108718 1.880790849211783e-38 1768976227
2.534407 39.336578 9.267079 1.880790849211783e-38 1768976227
2.677702 41.560669 9.535643 1.880790849211783e-38 1768976227
3.190592 49.521236 8.197215 1.880790849211783e-38 1768976227
3.258204 50.570652 7.925494 1.880790849211783e-38 1768976227
2.731706 42.398857 9.319765 1.880790849211783e-38 1768976227
2.697414 41.866615 8.894038 1.880790849211783e-38 1768976227
3.989050 59.133999 7.397384 1.880790849211783e-38 1768976227
2.981399 44.196495 5.302398 1.880790849211783e-38 1768976227
2.938722 43.563858 4.967663 1.880790849211783e-38 1768976227
3.455454 51.223927 7.698726 1.880790849211783e-38 1768976227
3.642314 53.993961 7.761056 1.880790849211783e-38 1768976227
3.368559 49.935791 4.793952 1.880790849211783e-38 1768976227
4.002182 59.328674 8.199674 1.880790849211783e-38 1768976227
3.973213 58.899227 7.802436 1.880790849211783e-38 1768976227
2.762624 40.953358 17.100670 1.880790849211783e-38 1768976227
2.752326 40.800697 16.702555 1.880790849211783e-38 1768976227
3.062202 45.394329 9.133854 1.880790849211783e-38 1768976227
3.357505 49.771919 9.494614 1.880790849211783e-38 1768976227
2.825300 41.882477 16.742100 1.880790849211783e-38 1768976227
2.786658 41.309643 16.056087 1.880790849211783e-38 1768976227
2.689136 39.863964 18.009722 1.880790849211783e-38 1768976227
2.845158 42.176857 15.943810 1.880790849211783e-38 1768976227
2.801950 41.536331 15.165549 1.880790849211783e-38 1768976227
2.730524 40.477509 17.847378 1.880790849211783e-38 1768976227
2.739579 40.611744 17.332449 1.880790849211783e-38 1768976227
2.742040 40.648220 12.001437 1.880790849211783e-38 1768976227
2.822252 41.837280 12.035359 1.880790849211783e-38 1768976227
2.663774 39.487995 13.956523 1.880790849211783e-38 1768976227
2.643812 39.192074 13.603013 1.880790849211783e-38 1768976227
2.779670 41.206055 11.448542 1.880790849211783e-38 1768976227
2.724210 40.383900 10.856069 1.880790849211783e-38 1768976227
2.759376 40.905212 13.837254 1.880790849211783e-38 1768976227
2.780779 41.222485 13.547631 1.880790849211783e-38 1768976227
2.881310 42.712757 11.044566 1.880790849211783e-38 1768976227
3.006658 44.570946 10.995416 1.880790849211783e-38 1768976227
2.904851 43.061749 13.684507 1.880790849211783e-38 1768976227
2.903687 43.044487 13.185162 1.880790849211783e-38 1768976227
3.010570 44.628922 8.156922 1.880790849211783e-38 1768976227
3.105856 46.041458 8.000045 1.880790849211783e-38 1768976227
2.639797 39.132572 9.220851 1.880790849211783e-38 1768976227
2.776708 41.162140 9.446083 1.880790849211783e-38 1768976227
3.379178 50.093204 8.293542 1.880790849211783e-38 1768976227
3.435175 50.923309 7.982350 1.880790849211783e-38 1768976227
2.887743 42.808136 9.411600 1.880790849211783e-38 1768976227
2.804227 41.570084 8.832799 1.880790849211783e-38 1768976227
3.161417 44.850372 5.611737 1.880790849211783e-38 1768976227
3.055779 43.351704 5.202128 1.880790849211783e-38 1768976227
3.281995 46.560989 5.310536 1.880790849211783e-38 1768976227
3.611569 51.236584 7.702230 1.880790849211783e-38 1768976227
3.741616 53.081539 7.631492 1.880790849211783e-38 1768976227
3.427773 48.629105 4.669478 1.880790849211783e-38 1768976227
4.144710 58.800140 8.128317 1.880790849211783e-38 1768976227
4.127358 58.553974 7.758314 1.880790849211783e-38 1768976227
2.885514 40.936184 17.097055 1.880790849211783e-38 1768976227
2.895499 41.077847 16.819511 1.880790849211783e-38 1768976227
3.248630 46.087646 9.275286 1.880790849211783e-38 1768976227
3.499683 49.649281 9.473188 1.880790849211783e-38 1768976227
2.905800 41.223980 16.482302 1.880790849211783e-38 1768976227
2.948488 41.829594 16.261562 1.880790849211783e-38 1768976227
2.793147 39.625793 17.905846 1.880790849211783e-38 1768976227
3.099356 43.969925 16.625090 1.880790849211783e-38 1768976227
2.926771 41.521492 15.163284 1.880790849211783e-38 1768976227
2.724588 38.653172 17.046535 1.880790849211783e-38 1768976227
2.855243 40.506756 17.291237 1.880790849211783e-38 1768976227
2.816490 39.956963 11.799797 1.880790849211783e-38 1768976227
3.050907 43.282593 12.453723 1.880790849211783e-38 1768976227
2.774354 39.359184 13.913890 1.880790849211783e-38 1768976227
2.789389 39.572487 13.737906 1.880790849211783e-38 1768976227
2.893958 41.055984 11.409221 1.880790849211783e-38 1768976227
3.074439 43.616432 11.727483 1.880790849211783e-38 1768976227
2.829880 40.146927 13.583569 1.880790849211783e-38 1768976227
2.933761 41.620670 13.681339 1.880790849211783e-38 1768976227
3.064442 43.474613 11.243903 1.880790849211783e-38 1768976227
3.155029 44.759758 11.044291 1.880790849211783e-38 1768976227
3.046508 43.220177 13.737710 1.880790849211783e-38 1768976227
3.041006 43.142128 13.217819 1.880790849211783e-38 1768976227
3.156223 44.776688 8.185633 1.880790849211783e-38 1768976227
3.288165 46.648518 8.107212 1.880790849211783e-38 1768976227
2.782719 39.477856 9.304147 1.880790849211783e-38 1768976227
2.930534 41.574875 9.542785 1.880790849211783e-38 1768976227
3.518232 49.912430 8.265332 1.880790849211783e-38 1768976227
3.566397 50.595741 7.932652 1.880790849211783e-38 1768976227
2.987010 42.376083 9.318549 1.880790849211783e-38 1768976227
2.932927 41.608829 8.842873 1.880790849211783e-38 1768976227
3.262883 44.381092 5.554226 1.880790849211783e-38 1768976227
3.204086 43.581356 5.230822 1.880790849211783e-38 1768976227
3.419244 46.507893 5.305632 1.880790849211783e-38 1768976227
3.773677 51.328815 7.717771 1.880790849211783e-38 1768976227
3.637613 49.478104 5.076557 1.880790849211783e-38 1768976227
3.575402 48.631920 4.670763 1.880790849211783e-38 1768976227
4.296885 58.445381 7.745608 1.880790849211783e-38 1768976227
2.999341 40.796452 17.042398 1.880790849211783e-38 1768976227
3.043527 41.397453 16.954056 1.880790849211783e-38 1768976227
3.309300 45.012455 9.060868 1.880790849211783e-38 1768976227
3.623308 49.283524 9.405443 1.880790849211783e-38 1768976227
3.028796 41.197090 16.475126 1.880790849211783e-38 1768976227
3.041993 41.376591 16.088947 1.880790849211783e-38 1768976227
2.807354 38.185081 17.258574 1.880790849211783e-38 1768976227
3.210684 43.671093 16.515686 1.880790849211783e-38 1768976227
3.057046 41.581345 15.188440 1.880790849211783e-38 1768976227
2.868783 39.020634 17.212328 1.880790849211783e-38 1768976227
2.984882 40.599777 17.334709 1.880790849211783e-38 1768976227
2.950456 40.131531 11.853923 1.880790849211783e-38 1768976227
3.163824 43.033714 12.384804 1.880790849211783e-38 1768976227
3.150687 42.855034 15.152999 1.880790849211783e-38 1768976227
2.944526 40.050869 13.907000 1.880790849211783e-38 1768976227
3.042448 41.382782 11.502533 1.880790849211783e-38 1768976227
3.274452 44.538460 11.977996 1.880790849211783e-38 1768976227
2.976573 40.486755 13.701524 1.880790849211783e-38 1768976227
3.089923 42.028530 13.818409 1.880790849211783e-38 1768976227
3.213621 43.711048 11.307508 1.880790849211783e-38 1768976227
3.307843 44.992638 11.104165 1.880790849211783e-38 1768976227
3.191348 43.408085 13.800436 1.880790849211783e-38 1768976227
3.143368 42.755478 13.102203 1.880790849211783e-38 1768976227
3.308048 44.995415 8.227406 1.880790849211783e-38 1768976227
3.406053 46.328472 8.053338 1.880790849211783e-38 1768976227
2.884198 39.230305 9.247812 1.880790849211783e-38 1768976227
2.897978 39.417725 9.049614 1.880790849211783e-38 1768976227
3.687017 50.150082 8.306490 1.880790849211783e-38 1768976227
3.741881 50.896336 7.981514 1.880790849211783e-38 1768976227
3.105391 42.238914 9.290403 1.880790849211783e-38 1768976227
3.052108 41.514172 8.824671 1.880790849211783e-38 1768976227
3.309690 43.234207 5.411919 1.880790849211783e-38 1768976227
3.313807 43.287998 5.196788 1.880790849211783e-38 1768976227
3.562490 46.536526 5.310100 1.880790849211783e-38 1768976227
3.824247 49.955830 5.352047 1.880790849211783e-38 1768976227
3.902096 50.972759 7.665969 1.880790849211783e-38 1768976227
3.768372 49.225945 5.051828 1.880790849211783e-38 1768976227
3.723282 48.636929 4.672301 1.880790849211783e-38 1768976227
3.396680 44.370560 5.881641 1.880790849211783e-38 1768976227
3.091197 40.380054 16.872269 1.880790849211783e-38 1768976227
3.183537 41.586292 17.035248 1.880790849211783e-38 1768976227
3.499321 45.711353 9.203636 1.880790849211783e-38 1768976227
3.736277 48.806683 9.316549 1.880790849211783e-38 1768976227
3.171813 41.433132 16.573273 1.880790849211783e-38 1768976227
3.139295 41.008358 15.949372 1.880790849211783e-38 1768976227
3.044946 39.775883 17.981638 1.880790849211783e-38 1768976227
3.381362 44.170456 16.708317 1.880790849211783e-38 1768976227
3.192955 41.709320 15.238634 1.880790849211783e-38 1768976227
2.998083 39.163723 17.279356 1.880790849211783e-38 1768976227
3.044226 39.766476 16.982761 1.880790849211783e-38 1768976227
3.682237 48.100761 14.211064 1.880790849211783e-38 1768976227
3.342678 43.665142 12.569368 1.880790849211783e-38 1768976227
3.242811 42.360573 14.981555 1.880790849211783e-38 1768976227
3.221119 42.077221 14.613924 1.880790849211783e-38 1768976227
3.183370 41.584103 11.561108 1.880790849211783e-38 1768976227
3.347709 43.730858 11.763464 1.880790849211783e-38 1768976227
3.192719 41.706234 14.117414 1.880790849211783e-38 1768976227
3.175411 41.480129 13.641190 1.880790849211783e-38 1768976227
3.359411 43.883709 11.354743 1.880790849211783e-38 1768976227
2.973105 38.837433 9.587232 1.880790849211783e-38 1768976227
3.330080 43.500565 13.832966 1.880790849211783e-38 1768976227
3.321342 43.386417 13.298561 1.880790849211783e-38 1768976227
3.402902 44.451836 8.129851 1.880790849211783e-38 1768976227
3.524695 46.042809 8.005493 1.880790849211783e-38 1768976227
3.034698 39.642025 9.346982 1.880790849211783e-38 1768976227
3.056397 39.925468 9.168257 1.880790849211783e-38 1768976227
3.824606 49.960518 8.276965 1.880790849211783e-38 1768976227
3.844622 50.221985 7.877546 1.880790849211783e-38 1768976227
3.082558 40.267212 8.858733 1.880790849211783e-38 1768976227
3.436411 44.889557 9.544337 1.880790849211783e-38 1768976227
3.508656 44.085861 5.519826 1.880790849211783e-38 1768976227
3.442371 43.252995 5.193808 1.880790849211783e-38 1768976227
3.743587 47.037746 5.368556 1.880790849211783e-38 1768976227
3.902606 49.035797 5.254717 1.880790849211783e-38 1768976227
4.100194 51.518456 7.749863 1.880790849211783e-38 1768976227
3.809600 47.867188 4.913542 1.880790849211783e-38 1768976227
3.548902 44.591545 5.912326 1.880790849211783e-38 1768976227
3.917388 49.221531 2.387892 1.880790849211783e-38 1768976227
3.186200 40.034237 16.731712 1.880790849211783e-38 1768976227
3.260469 40.967422 16.785686 1.880790849211783e-38 1768976227
3.608874 45.345089 9.132042 1.880790849211783e-38 1768976227
3.877576 48.721291 9.302439 1.880790849211783e-38 1768976227
3.307878 41.563110 16.629179 1.880790849211783e-38 1768976227
3.340234 41.969658 16.327093 1.880790849211783e-38 1768976227
3.074977 38.636734 17.470772 1.880790849211783e-38 1768976227
3.699881 46.488575 17.589333 1.880790849211783e-38 1768976227
3.305100 41.528210 15.176038 1.880790849211783e-38 1768976227
3.127682 39.298965 17.343109 1.880790849211783e-38 1768976227
3.154762 39.639221 16.932402 1.880790849211783e-38 1768976227
3.844658 48.307690 14.275561 1.880790849211783e-38 1768976227
3.410753 42.855717 12.339273 1.880790849211783e-38 1768976227
3.275919 41.161541 14.560925 1.880790849211783e-38 1768976227
3.483612 43.771187 15.205838 1.880790849211783e-38 1768976227
3.302330 41.493404 11.538607 1.880790849211783e-38 1768976227
3.540396 44.484665 11.969054 1.880790849211783e-38 1768976227
3.355466 42.161041 14.274725 1.880790849211783e-38 1768976227
3.468737 43.584282 14.336538 1.880790849211783e-38 1768976227
2.989733 37.565643 9.722256 1.880790849211783e-38 1768976227
3.124773 39.262413 9.694424 1.880790849211783e-38 1768976227
3.473261 43.641125 13.880932 1.880790849211783e-38 1768976227
3.461437 43.492558 13.334232 1.880790849211783e-38 1768976227
3.583794 45.029964 8.237525 1.880790849211783e-38 1768976227
3.635866 45.684238 7.945018 1.880790849211783e-38 1768976227
3.118666 39.185684 9.241560 1.880790849211783e-38 1768976227
3.172824 39.866169 9.156796 1.880790849211783e-38 1768976227
4.012510 50.416725 8.354511 1.880790849211783e-38 1768976227
4.048954 50.874653 7.981799 1.880790849211783e-38 1768976227
3.164248 39.758415 8.748858 1.880790849211783e-38 1768976227
3.633504 45.654564 9.709276 1.880790849211783e-38 1768976227
3.608084 43.669430 5.469024 1.880790849211783e-38 1768976227
3.872575 46.870621 5.629589 1.880790849211783e-38 1768976227
4.100084 49.624218 5.665143 1.880790849211783e-38 1768976227
4.087881 49.476521 5.303242 1.880790849211783e-38 1768976227
4.206614 50.913570 7.660744 1.880790849211783e-38 1768976227
3.957730 47.901268 4.918243 1.880790849211783e-38 1768976227
4.324074 52.335220 7.241314 1.880790849211783e-38 1768976227
3.634175 43.985214 5.833360 1.880790849211783e-38 1768976227
4.072751 49.293396 2.634620 1.880790849211783e-38 1768976227
3.354112 40.595547 16.970455 1.880790849211783e-38 1768976227
3.334145 40.353886 16.538347 1.880790849211783e-38 1768976227
3.768820 45.614849 9.188616 1.880790849211783e-38 1768976227
4.098090 49.600079 9.472545 1.880790849211783e-38 1768976227
3.395494 41.096409 16.446476 1.880790849211783e-38 1768976227
3.433971 41.562096 16.172499 1.880790849211783e-38 1768976227
3.202143 38.756237 17.529097 1.880790849211783e-38 1768976227
3.859051 46.706936 17.676273 1.880790849211783e-38 1768976227
3.551786 42.988045 15.713361 1.880790849211783e-38 1768976227
3.219790 38.969818 17.202059 1.880790849211783e-38 1768976227
3.301731 39.961571 17.074274 1.880790849211783e-38 1768976227
3.990204 48.294312 14.275100 1.880790849211783e-38 1768976227
3.991130 48.305527 13.911817 1.880790849211783e-38 1768976227
3.459924 41.876217 14.817367 1.880790849211783e-38 1768976227
3.626539 43.892799 15.251817 1.880790849211783e-38 1768976227
3.919092 47.433628 13.193709 1.880790849211783e-38 1768976227
3.620347 43.817852 11.792526 1.880790849211783e-38 1768976227
3.415456 41.338017 13.999492 1.880790849211783e-38 1768976227
3.654030 44.225529 14.551028 1.880790849211783e-38 1768976227
3.166131 38.320374 9.920012 1.880790849211783e-38 1768976227
3.228675 39.077354 9.651091 1.880790849211783e-38 1768976227
3.581924 43.352810 13.792602 1.880790849211783e-38 1768976227
3.561044 43.100086 13.217139 1.880790849211783e-38 1768976227
3.645372 44.120731 8.073170 1.880790849211783e-38 1768976227
3.815510 46.179958 8.033195 1.880790849211783e-38 1768976227
3.290840 39.829754 9.395755 1.880790849211783e-38 1768976227
3.276796 39.659775 9.111617 1.880790849211783e-38 1768976227
4.168760 50.455414 8.362968 1.880790849211783e-38 1768976227
4.202569 50.864605 7.982175 1.880790849211783e-38 1768976227
3.303895 39.987762 8.801479 1.880790849211783e-38 1768976227
3.702548 44.812752 9.532582 1.880790849211783e-38 1768976227
3.773348 44.050323 5.518126 1.880790849211783e-38 1768976227
4.008442 46.794830 5.621912 1.880790849211783e-38 1768976227
4.235637 49.447117 5.646357 1.880790849211783e-38 1768976227
4.128202 48.192924 5.166968 1.880790849211783e-38 1768976227
4.340705 50.673698 7.626587 1.880790849211783e-38 1768976227
4.130935 48.224823 4.952721 1.880790849211783e-38 1768976227
3.846491 44.904194 6.214705 1.880790849211783e-38 1768976227
3.793914 44.290417 5.875327 1.880790849211783e-38 1768976227
4.208121 49.125900 2.626334 1.880790849211783e-38 1768976227
3.437235 40.126526 16.778641 1.880790849211783e-38 1768976227
3.419940 39.924614 16.366571 1.880790849211783e-38 1768976227
3.871925 45.201115 9.107584 1.880790849211783e-38 1768976227
3.620166 42.262070 8.073192 1.880790849211783e-38 1768976227
3.511739 40.996284 16.410570 1.880790849211783e-38 1768976227
3.535595 41.274780 16.064775 1.880790849211783e-38 1768976227
3.302090 38.548832 17.439713 1.880790849211783e-38 1768976227
3.544738 41.381516 15.664840 1.880790849211783e-38 1768976227
3.598036 42.003716 15.357459 1.880790849211783e-38 1768976227
3.385401 39.521400 17.449966 1.880790849211783e-38 1768976227
3.397562 39.663368 16.951162 1.880790849211783e-38 1768976227
4.138833 48.317017 14.285436 1.880790849211783e-38 1768976227
4.162491 48.593208 13.998221 1.880790849211783e-38 1768976227
3.612412 42.171555 14.925654 1.880790849211783e-38 1768976227
3.644214 42.542805 14.786474 1.880790849211783e-38 1768976227
4.095058 47.806000 13.300660 1.880790849211783e-38 1768976227
3.755376 43.840519 11.801620 1.880790849211783e-38 1768976227
3.827666 44.684441 15.136630 1.880790849211783e-38 1768976227
3.778052 44.105240 14.515134 1.880790849211783e-38 1768976227
3.275280 38.235844 9.900641 1.880790849211783e-38 1768976227
3.312275 38.667736 9.552348 1.880790849211783e-38 1768976227
3.749637 43.773525 13.929985 1.880790849211783e-38 1768976227
4.227828 49.355957 15.139416 1.880790849211783e-38 1768976227
3.852854 44.978489 8.232210 1.880790849211783e-38 1768976227
4.070115 47.514805 8.267494 1.880790849211783e-38 1768976227
3.375814 39.409489 9.298975 1.880790849211783e-38 1768976227
3.477737 40.599342 9.329845 1.880790849211783e-38 1768976227
4.300912 50.209156 8.324263 1.880790849211783e-38 1768976227
4.332808 50.581505 7.939763 1.880790849211783e-38 1768976227
3.465622 40.457909 8.907221 1.880790849211783e-38 1768976227
3.873214 45.216167 9.620837 1.880790849211783e-38 1768976227
3.838797 43.279026 5.422932 1.880790849211783e-38 1768976227
4.173081 47.047783 5.653788 1.880790849211783e-38 1768976227
4.362855 49.187321 5.618168 1.880790849211783e-38 1768976227
4.309662 48.587612 5.210654 1.880790849211783e-38 1768976227
4.526922 51.037025 7.683289 1.880790849211783e-38 1768976227
4.620149 52.088074 7.499455 1.880790849211783e-38 1768976227
4.259247 48.019226 4.932903 1.880790849211783e-38 1768976227
4.028469 45.417404 6.287385 1.880790849211783e-38 1768976227
3.890207 43.858631 5.819578 1.880790849211783e-38 1768976227
4.414918 49.774281 2.988563 1.880790849211783e-38 1768976227
3.598208 40.566601 16.967117 1.880790849211783e-38 1768976227
3.602879 40.619251 16.655708 1.880790849211783e-38 1768976227
3.707169 41.795033 8.423506 1.880790849211783e-38 1768976227
3.724397 41.989262 8.023188 1.880790849211783e-38 1768976227
3.637389 41.008324 16.419708 1.880790849211783e-38 1768976227
3.656656 41.225544 16.049831 1.880790849211783e-38 1768976227
3.447759 38.870415 17.589823 1.880790849211783e-38 1768976227
4.161397 46.916050 17.764591 1.880790849211783e-38 1768976227
3.633702 40.966755 14.982262 1.880790849211783e-38 1768976227
3.483447 39.272766 17.344748 1.880790849211783e-38 1768976227
3.543596 39.950890 17.078531 1.880790849211783e-38 1768976227
4.323722 48.746120 14.416095 1.880790849211783e-38 1768976227
4.313494 48.630810 14.012737 1.880790849211783e-38 1768976227
3.656773 41.226868 14.595141 1.880790849211783e-38 1768976227
3.772603 42.532749 14.786865 1.880790849211783e-38 1768976227
3.713120 41.862118 11.650007 1.880790849211783e-38 1768976227
3.833653 43.221035 11.637918 1.880790849211783e-38 1768976227
4.003524 45.136177 15.293675 1.880790849211783e-38 1768976227
3.715340 41.887154 13.788781 1.880790849211783e-38 1768976227
3.383172 38.142254 9.879005 1.880790849211783e-38 1768976227
3.382016 38.129223 9.421792 1.880790849211783e-38 1768976227
3.721960 41.961788 13.356950 1.880790849211783e-38 1768976227
4.330873 48.826736 14.981022 1.880790849211783e-38 1768976227
3.816845 43.031532 7.877938 1.880790849211783e-38 1768976227
4.272789 48.171902 8.384032 1.880790849211783e-38 1768976227
3.493714 39.388515 9.296471 1.880790849211783e-38 1768976227
3.575054 40.305553 9.264768 1.880790849211783e-38 1768976227
4.435632 50.007805 8.293060 1.880790849211783e-38 1768976227
4.534742 51.125179 8.027214 1.880790849211783e-38 1768976227
3.587887 40.450233 8.907872 1.880790849211783e-38 1768976227
4.462564 50.311447 10.707797 1.880790849211783e-38 1768976227
4.236973 46.184940 5.788623 1.880790849211783e-38 1768976227
4.374781 47.687115 5.732177 1.880790849211783e-38 1768976227
4.504743 49.103760 5.610151 1.880790849211783e-38 1768976227
4.355433 47.476212 5.092850 1.880790849211783e-38 1768976227
4.649774 50.684658 7.632319 1.880790849211783e-38 1768976227
4.766334 51.955212 7.482363 1.880790849211783e-38 1768976227
4.450141 48.508575 4.984529 1.880790849211783e-38 1768976227
4.098248 44.672775 6.185985 1.880790849211783e-38 1768976227
4.032428 43.955315 5.833994 1.880790849211783e-38 1768976227
4.271247 46.558552 2.796244 1.880790849211783e-38 1768976227
3.703922 40.374439 16.891342 1.880790849211783e-38 1768976227
3.691121 40.234905 16.502598 1.880790849211783e-38 1768976227
3.865542 42.136169 8.494572 1.880790849211783e-38 1768976227
3.913722 42.661362 8.153828 1.880790849211783e-38 1768976227
3.711159 40.453335 16.201899 1.880790849211783e-38 1768976227
3.796196 41.380276 16.114456 1.880790849211783e-38 1768976227
3.559351 38.798550 17.562080 1.880790849211783e-38 1768976227
3.762178 41.009464 15.532309 1.880790849211783e-38 1768976227
3.821234 41.653206 15.237455 1.880790849211783e-38 1768976227
3.661781 39.915085 17.633223 1.880790849211783e-38 1768976227
3.709214 40.432133 17.288961 1.880790849211783e-38 1768976227
4.456555 48.578487 14.370429 1.880790849211783e-38 1768976227
4.488960 48.931721 14.103279 1.880790849211783e-38 1768976227
3.955539 43.117188 15.268507 1.880790849211783e-38 1768976227
3.916999 42.697083 14.848037 1.880790849211783e-38 1768976227
4.415549 48.131508 13.398390 1.880790849211783e-38 1768976227
3.813226 41.565899 11.195293 1.880790849211783e-38 1768976227
4.074393 44.412754 15.052649 1.880790849211783e-38 1768976227
4.081082 44.485657 14.648165 1.880790849211783e-38 1768976227
3.490735 38.050606 9.857949 1.880790849211783e-38 1768976227
3.410762 37.178864 9.189458 1.880790849211783e-38 1768976227
4.030326 43.932396 13.988025 1.880790849211783e-38 1768976227
3.793127 41.346825 12.689487 1.880790849211783e-38 1768976227
3.891567 42.419865 7.768072 1.880790849211783e-38 1768976227
4.389122 47.843441 8.329132 1.880790849211783e-38 1768976227
3.646900 39.752876 9.385020 1.880790849211783e-38 1768976227
3.653189 39.821430 9.155976 1.880790849211783e-38 1768976227
4.254441 46.375355 7.692765 1.880790849211783e-38 1768976227
4.679107 51.004406 8.010430 1.880790849211783e-38 1768976227
3.688405 40.205299 8.856343 1.880790849211783e-38 1768976227
4.949217 53.948730 11.485045 1.880790849211783e-38 1768976227
4.395698 46.377205 5.814356 1.880790849211783e-38 1768976227
4.533543 47.831551 5.751156 1.880790849211783e-38 1768976227
4.635935 48.911854 5.589797 1.880790849211783e-38 1768976227
4.455196 47.004944 5.043715 1.880790849211783e-38 1768976227
4.831168 50.971668 7.677697 1.880790849211783e-38 1768976227
4.940981 52.130264 7.509685 1.880790849211783e-38 1768976227
4.572562 48.243225 4.958657 1.880790849211783e-38 1768976227
4.206433 44.380348 6.147220 1.880790849211783e-38 1768976227
4.184197 44.145752 5.860919 1.880790849211783e-38 1768976227
4.667974 49.249878 3.272203 1.880790849211783e-38 1768976227
4.303104 45.400288 2.727448 1.880790849211783e-38 1768976227
3.838941 40.503090 16.949930 1.880790849211783e-38 1768976227
3.842556 40.541237 16.632917 1.880790849211783e-38 1768976227
3.961215 41.793156 8.427791 1.880790849211783e-38 1768976227
4.082436 43.072105 8.234649 1.880790849211783e-38 1768976227
3.947320 41.646564 16.684488 1.880790849211783e-38 1768976227
3.940291 41.572395 16.193825 1.880790849211783e-38 1768976227
3.598619 37.967556 17.697504 1.880790849211783e-38 1768976227
3.707562 39.116959 17.711191 1.880790849211783e-38 1768976227
3.900658 41.154240 15.591527 1.880790849211783e-38 1768976227
4.501861 47.497288 17.380207 1.880790849211783e-38 1768976227
3.777390 39.853687 17.611053 1.880790849211783e-38 1768976227
3.803726 40.131557 17.165260 1.880790849211783e-38 1768976227
3.957003 41.748722 12.353530 1.880790849211783e-38 1768976227
4.636042 48.912983 14.101844 1.880790849211783e-38 1768976227
4.026680 42.483845 15.048461 1.880790849211783e-38 1768976227
4.159179 43.881790 15.264316 1.880790849211783e-38 1768976227
4.516779 47.654690 13.269389 1.880790849211783e-38 1768976227
3.994466 42.143974 11.354184 1.880790849211783e-38 1768976227
4.138168 43.660114 14.801721 1.880790849211783e-38 1768976227
4.250004 44.840050 14.769012 1.880790849211783e-38 1768976227
3.624935 38.245201 9.911152 1.880790849211783e-38 1768976227
3.574777 37.716007 9.324844 1.880790849211783e-38 1768976227
4.222830 44.553341 14.189724 1.880790849211783e-38 1768976227
4.456750 47.021343 14.435076 1.880790849211783e-38 1768976227
4.069277 42.933273 7.864301 1.880790849211783e-38 1768976227
4.538575 47.884651 8.338651 1.880790849211783e-38 1768976227
3.687539 38.905712 9.187602 1.880790849211783e-38 1768976227
3.798529 40.076725 9.217267 1.880790849211783e-38 1768976227
4.460268 47.058456 7.808274 1.880790849211783e-38 1768976227
4.779303 50.424465 7.921576 1.880790849211783e-38 1768976227
3.828835 40.396473 8.900957 1.880790849211783e-38 1768976227
3.926706 41.429062 8.822237 1.880790849211783e-38 1768976227
4.514302 46.146557 5.787120 1.880790849211783e-38 1768976227
4.682950 47.870529 5.757514 1.880790849211783e-38 1768976227
4.763600 48.694954 5.566626 1.880790849211783e-38 1768976227
4.496873 45.968391 4.933925 1.880790849211783e-38 1768976227
5.161847 52.765961 7.950274 1.880790849211783e-38 1768976227
4.411444 45.095112 6.498115 1.880790849211783e-38 1768976227
4.752619 48.582699 4.995000 1.880790849211783e-38 1768976227
4.347568 44.442142 6.157568 1.880790849211783e-38 1768976227
4.319613 44.156391 5.864034 1.880790849211783e-38 1768976227
4.820743 49.279087 3.275095 1.880790849211783e-38 1768976227
4.698156 48.025967 2.886025 1.880790849211783e-38 1768976227
3.921670 40.088493 16.781301 1.880790849211783e-38 1768976227
3.989446 40.781319 16.736279 1.880790849211783e-38 1768976227
4.134702 42.266167 8.525652 1.880790849211783e-38 1768976227
4.172690 42.654495 8.157178 1.880790849211783e-38 1768976227
4.019217 41.085644 16.464554 1.880790849211783e-38 1768976227
3.949393 40.371880 15.730754 1.880790849211783e-38 1768976227
3.742405 38.255993 17.837132 1.880790849211783e-38 1768976227
3.797148 38.815590 17.579842 1.880790849211783e-38 1768976227
4.072174 41.626991 15.775211 1.880790849211783e-38 1768976227
4.274074 43.690865 15.992005 1.880790849211783e-38 1768976227
3.828184 39.132858 17.297544 1.880790849211783e-38 1768976227
3.921108 40.082745 17.149364 1.880790849211783e-38 1768976227
4.695648 48.000324 14.207519 1.880790849211783e-38 1768976227
4.767916 48.739075 14.055788 1.880790849211783e-38 1768976227
4.454758 45.537880 16.134935 1.880790849211783e-38 1768976227
4.208502 43.020573 14.969088 1.880790849211783e-38 1768976227
4.692116 47.964230 13.359460 1.880790849211783e-38 1768976227
4.129536 42.213364 11.376182 1.880790849211783e-38 1768976227
4.226623 43.205818 14.651961 1.880790849211783e-38 1768976227
4.410870 45.089233 14.855400 1.880790849211783e-38 1768976227
3.781916 38.659882 10.021525 1.880790849211783e-38 1768976227
3.697126 37.793137 9.346628 1.880790849211783e-38 1768976227
4.369683 44.668221 14.230443 1.880790849211783e-38 1768976227
4.600226 47.024895 14.440359 1.880790849211783e-38 1768976227
4.197973 42.912941 7.862860 1.880790849211783e-38 1768976227
4.623270 47.260452 8.232345 1.880790849211783e-38 1768976227
3.854661 39.403511 9.307860 1.880790849211783e-38 1768976227
3.953019 40.408951 9.296375 1.880790849211783e-38 1768976227
4.608115 47.105541 7.818357 1.880790849211783e-38 1768976227
4.918604 50.279453 7.901089 1.880790849211783e-38 1768976227
4.014051 41.032837 9.043800 1.880790849211783e-38 1768976227
4.078030 41.686848 8.879711 1.880790849211783e-38 1768976227
4.816596 47.750038 5.990003 1.880790849211783e-38 1768976227
4.976092 49.331230 5.934975 1.880790849211783e-38 1768976227
4.860031 48.180649 5.509483 1.880790849211783e-38 1768976227
4.650132 46.099777 4.949509 1.880790849211783e-38 1768976227
5.326729 52.807323 7.958891 1.880790849211783e-38 1768976227
4.482975 44.442638 6.406013 1.880790849211783e-38 1768976227
4.916327 48.738739 5.012545 1.880790849211783e-38 1768976227
4.528525 44.894215 6.222067 1.880790849211783e-38 1768976227
4.469119 44.305283 5.885570 1.880790849211783e-38 1768976227
5.045279 50.017124 3.582045 1.880790849211783e-38 1768976227
4.718235 46.774929 3.109600 1.880790849211783e-38 1768976227
4.864583 48.225769 2.898900 1.880790849211783e-38 1768976227
4.052718 40.177231 16.823488 1.880790849211783e-38 1768976227
4.134931 40.992256 16.827887 1.880790849211783e-38 1768976227
4.309022 42.718132 8.619400 1.880790849211783e-38 1768976227
4.339914 43.024387 8.230382 1.880790849211783e-38 1768976227
3.986185 39.517639 15.840940 1.880790849211783e-38 1768976227
4.081724 40.464783 15.771677 1.880790849211783e-38 1768976227
3.875304 38.418404 17.918224 1.880790849211783e-38 1768976227
3.986682 39.522568 17.905401 1.880790849211783e-38 1768976227
4.158262 41.223557 15.627006 1.880790849211783e-38 1768976227
4.371092 43.333473 15.865944 1.880790849211783e-38 1768976227
3.948888 39.147896 17.309378 1.880790849211783e-38 1768976227
4.009213 39.745937 17.010355 1.880790849211783e-38 1768976227
4.831760 47.900375 14.182182 1.880790849211783e-38 1768976227
4.893199 48.509460 13.993762 1.880790849211783e-38 1768976227
4.578753 45.392143 16.088118 1.880790849211783e-38 1768976227
4.267761 42.309090 14.725937 1.880790849211783e-38 1768976227
4.832448 47.907188 13.347571 1.880790849211783e-38 1768976227
4.272824 42.359283 11.418927 1.880790849211783e-38 1768976227
4.438230 43.999054 14.925436 1.880790849211783e-38 1768976227
4.474725 44.360855 14.619803 1.880790849211783e-38 1768976227
3.911559 38.777821 10.055110 1.880790849211783e-38 1768976227
3.745441 37.130993 9.185625 1.880790849211783e-38 1768976227
4.526323 44.872379 14.299769 1.880790849211783e-38 1768976227
4.724561 46.837646 14.387169 1.880790849211783e-38 1768976227
4.349310 43.117538 7.902715 1.880790849211783e-38 1768976227
4.815684 47.741001 8.318543 1.880790849211783e-38 1768976227
3.981055 39.466782 9.325600 1.880790849211783e-38 1768976227
4.051199 40.162170 9.242371 1.880790849211783e-38 1768976227
4.703869 46.632507 7.742165 1.880790849211783e-38 1768976227
5.090522 50.465649 7.932725 1.880790849211783e-38 1768976227
4.126996 40.913589 9.020220 1.880790849211783e-38 1768976227
4.189159 41.529854 8.848921 1.880790849211783e-38 1768976227
4.992749 48.044807 6.028842 1.880790849211783e-38 1768976227
5.059124 48.683533 5.858860 1.880790849211783e-38 1768976227
5.033773 48.439587 5.540803 1.880790849211783e-38 1768976227
4.823452 46.415691 4.984966 1.880790849211783e-38 1768976227
5.488797 52.818249 7.962996 1.880790849211783e-38 1768976227
4.598843 44.254292 6.380835 1.880790849211783e-38 1768976227
5.054866 48.642559 5.004199 1.880790849211783e-38 1768976227
4.587544 44.145565 6.120198 1.880790849211783e-38 1768976227
4.509696 43.396435 5.766618 1.880790849211783e-38 1768976227
5.088544 48.966648 3.507897 1.880790849211783e-38 1768976227
4.792869 46.121384 3.067099 1.880790849211783e-38 1768976227
4.242313 40.823433 17.099354 1.880790849211783e-38 1768976227
4.058166 39.051395 16.036087 1.880790849211783e-38 1768976227
4.404768 42.386726 8.555173 1.880790849211783e-38 1768976227
4.430136 42.630836 8.157616 1.880790849211783e-38 1768976227
4.150470 39.939632 16.015043 1.880790849211783e-38 1768976227
4.329858 41.665871 16.244833 1.880790849211783e-38 1768976227
4.012874 38.615559 18.015741 1.880790849211783e-38 1768976227
4.120471 39.650955 17.969112 1.880790849211783e-38 1768976227
4.365414 42.008022 15.929299 1.880790849211783e-38 1768976227
4.514970 43.447186 15.912493 1.880790849211783e-38 1768976227
4.130055 39.743183 17.578014 1.880790849211783e-38 1768976227
4.167936 40.107700 17.170485 1.880790849211783e-38 1768976227
4.962432 47.753078 14.142939 1.880790849211783e-38 1768976227
5.048477 48.581081 14.018751 1.880790849211783e-38 1768976227
4.777077 45.969421 16.297752 1.880790849211783e-38 1768976227
4.529238 43.584488 15.174533 1.880790849211783e-38 1768976227
4.888396 47.040642 13.110188 1.880790849211783e-38 1768976227
4.408147 42.419243 11.438622 1.880790849211783e-38 1768976227
4.490974 43.216274 14.664427 1.880790849211783e-38 1768976227
4.613454 44.394894 14.635539 1.880790849211783e-38 1768976227
4.010508 38.592789 10.010222 1.880790849211783e-38 1768976227
3.903813 37.566074 9.296128 1.880790849211783e-38 1768976227
4.719779 45.418041 14.478128 1.880790849211783e-38 1768976227
4.730921 45.525269 13.988364 1.880790849211783e-38 1768976227
4.433941 42.667458 7.822638 1.880790849211783e-38 1768976227
4.901031 47.162216 8.220232 1.880790849211783e-38 1768976227
4.133910 39.780281 9.402579 1.880790849211783e-38 1768976227
4.189655 40.316715 9.280801 1.880790849211783e-38 1768976227
4.893962 47.094200 7.821232 1.880790849211783e-38 1768976227
5.219626 50.228043 7.897814 1.880790849211783e-38 1768976227
4.263556 41.027843 9.048203 1.880790849211783e-38 1768976227
4.331936 41.685867 8.884907 1.880790849211783e-38 1768976227
5.143808 48.087334 6.036097 1.880790849211783e-38 1768976227
5.237685 48.964951 5.894602 1.880790849211783e-38 1768976227
5.183429 48.457733 5.544642 1.880790849211783e-38 1768976227
4.897543 45.785103 4.918807 1.880790849211783e-38 1768976227
5.605771 52.406029 7.903362 1.880790849211783e-38 1768976227
4.739824 44.310658 6.390995 1.880790849211783e-38 1768976227
5.207410 48.681927 5.009841 1.880790849211783e-38 1768976227
4.714698 44.075764 6.112465 1.880790849211783e-38 1768976227
4.923576 46.028477 6.118316 1.880790849211783e-38 1768976227
5.284890 49.406250 3.855383 1.880790849211783e-38 1768976227
5.257948 49.154388 3.522466 1.880790849211783e-38 1768976227
4.857049 45.406548 3.020523 1.880790849211783e-38 1768976227
4.346075 40.629654 17.023600 1.880790849211783e-38 1768976227
4.174526 39.025913 16.030720 1.880790849211783e-38 1768976227
4.490685 41.981552 8.476089 1.880790849211783e-38 1768976227
4.534694 42.392982 8.114681 1.880790849211783e-38 1768976227
4.444221 41.547188 16.664944 1.880790849211783e-38 1768976227
4.390460 41.044594 16.007696 1.880790849211783e-38 1768976227
4.136287 38.668438 18.046146 1.880790849211783e-38 1768976227
4.248410 39.716633 18.004602 1.880790849211783e-38 1768976227
4.488348 41.959713 15.916041 1.880790849211783e-38 1768976227
4.710136 44.033119 16.132217 1.880790849211783e-38 1768976227
4.209599 39.353802 17.411333 1.880790849211783e-38 1768976227
4.357853 40.739769 17.446627 1.880790849211783e-38 1768976227
5.167443 48.308285 14.311923 1.880790849211783e-38 1768976227
5.156336 48.204456 13.914495 1.880790849211783e-38 1768976227
4.703922 43.975025 15.595628 1.880790849211783e-38 1768976227
4.578639 42.803799 14.907465 1.880790849211783e-38 1768976227
5.098470 47.663486 13.288000 1.880790849211783e-38 1768976227
4.745839 44.366890 11.967624 1.880790849211783e-38 1768976227
4.528091 42.331249 14.368682 1.880790849211783e-38 1768976227
4.846591 45.308777 14.941566 1.880790849211783e-38 1768976227
4.005906 37.449558 9.716780 1.880790849211783e-38 1768976227
3.974322 37.154289 9.197153 1.880790849211783e-38 1768976227
4.797699 44.851704 14.302142 1.880790849211783e-38 1768976227
4.835877 45.208614 13.895486 1.880790849211783e-38 1768976227
4.528076 42.331116 7.763442 1.880790849211783e-38 1768976227
4.627937 43.264668 7.543299 1.880790849211783e-38 1768976227
4.226233 39.509304 9.341501 1.880790849211783e-38 1768976227
4.365856 40.814583 9.398397 1.880790849211783e-38 1768976227
5.063624 47.337727 7.864177 1.880790849211783e-38 1768976227
5.367376 50.177383 7.892358 1.880790849211783e-38 1768976227
4.350446 40.670517 8.972252 1.880790849211783e-38 1768976227
4.529829 42.347500 9.028797 1.880790849211783e-38 1768976227
5.249168 47.711262 5.990851 1.880790849211783e-38 1768976227
5.342408 48.558750 5.847615 1.880790849211783e-38 1768976227
5.292904 48.108791 5.506517 1.880790849211783e-38 1768976227
5.017482 45.605396 4.901103 1.880790849211783e-38 1768976227
5.897300 53.602325 8.086422 1.880790849211783e-38 1768976227
4.944530 44.942314 6.484221 1.880790849211783e-38 1768976227
5.307935 48.245415 4.966545 1.880790849211783e-38 1768976227
4.856194 44.139397 6.123293 1.880790849211783e-38 1768976227
5.080664 46.179672 6.140423 1.880790849211783e-38 1768976227
5.436414 49.413193 3.857187 1.880790849211783e-38 1768976227
5.101383 46.367996 3.323877 1.880790849211783e-38 1768976227
4.903883 44.572865 2.966035 1.880790849211783e-38 1768976227
4.230316 38.450607 16.115864 1.880790849211783e-38 1768976227
4.299537 39.079784 16.058102 1.880790849211783e-38 1768976227
4.644738 42.217411 8.526500 1.880790849211783e-38 1768976227
4.681046 42.547428 8.146910 1.880790849211783e-38 1768976227
4.510463 40.996948 16.449619 1.880790849211783e-38 1768976227
4.590193 41.721638 16.277075 1.880790849211783e-38 1768976227
4.284213 38.940495 18.179062 1.880790849211783e-38 1768976227
4.384913 39.855785 18.073599 1.880790849211783e-38 1768976227
4.565757 41.499535 15.746639 1.880790849211783e-38 1768976227
4.802649 43.652718 15.998085 1.880790849211783e-38 1768976227
4.394621 39.944031 17.678251 1.880790849211783e-38 1768976227
4.451614 40.462055 17.333368 1.880790849211783e-38 1768976227
5.303294 48.203236 14.285474 1.880790849211783e-38 1768976227
5.204650 47.306629 13.659801 1.880790849211783e-38 1768976227
4.777902 43.427784 15.406590 1.880790849211783e-38 1768976227
4.683134 42.566410 14.829640 1.880790849211783e-38 1768976227
4.734455 43.032883 12.000970 1.880790849211783e-38 1768976227
4.896577 44.506462 12.009201 1.880790849211783e-38 1768976227
4.881222 44.366894 15.064578 1.880790849211783e-38 1768976227
4.812566 43.742855 14.429891 1.880790849211783e-38 1768976227
4.152456 37.742916 9.796101 1.880790849211783e-38 1768976227
4.164218 37.849831 9.372392 1.880790849211783e-38 1768976227
4.950629 44.997749 14.353408 1.880790849211783e-38 1768976227
4.947328 44.967747 13.825975 1.880790849211783e-38 1768976227
4.700647 42.725597 7.838353 1.880790849211783e-38 1768976227
4.724239 42.940025 7.489147 1.880790849211783e-38 1768976227
4.491913 40.828346 9.656532 1.880790849211783e-38 1768976227
4.461437 40.551338 9.340836 1.880790849211783e-38 1768976227
5.238639 47.615559 7.912921 1.880790849211783e-38 1768976227
5.180160 47.084026 7.408230 1.880790849211783e-38 1768976227
4.525421 41.132908 9.077229 1.880790849211783e-38 1768976227
4.579875 41.627857 8.878268 1.880790849211783e-38 1768976227
5.438819 48.100101 6.041708 1.880790849211783e-38 1768976227
5.505156 48.686771 5.865005 1.880790849211783e-38 1768976227
5.236861 46.314011 5.302871 1.880790849211783e-38 1768976227
5.213123 46.104073 4.956362 1.880790849211783e-38 1768976227
5.052134 44.680305 6.448588 1.880790849211783e-38 1768976227
5.470726 48.382278 4.982310 1.880790849211783e-38 1768976227
4.993251 44.159561 6.128152 1.880790849211783e-38 1768976227
5.324496 47.089039 6.263446 1.880790849211783e-38 1768976227
5.589247 49.430458 4.175063 1.880790849211783e-38 1768976227
5.565720 49.222389 3.843585 1.880790849211783e-38 1768976227
5.214917 46.119938 3.307208 1.880790849211783e-38 1768976227
5.088872 45.005222 2.995813 1.880790849211783e-38 1768976227
4.449248 39.348476 16.497738 1.880790849211783e-38 1768976227
4.567557 40.394791 16.604029 1.880790849211783e-38 1768976227
4.757299 42.072838 8.500159 1.880790849211783e-38 1768976227
4.828275 42.700531 8.178977 1.880790849211783e-38 1768976227
4.153768 36.735298 14.744634 1.880790849211783e-38 1768976227
4.726989 41.804779 16.314999 1.880790849211783e-38 1768976227
4.373238 38.676254 18.061779 1.880790849211783e-38 1768976227
4.458523 39.430508 17.886761 1.880790849211783e-38 1768976227
4.719391 41.737583 15.842295 1.880790849211783e-38 1768976227
4.760554 42.101627 15.434825 1.880790849211783e-38 1768976227
4.532642 40.086002 17.747053 1.880790849211783e-38 1768976227
4.630737 40.953541 17.549814 1.880790849211783e-38 1768976227
5.375383 47.539078 14.093386 1.880790849211783e-38 1768976227
5.307573 46.939373 13.558315 1.880790849211783e-38 1768976227
4.822868 42.652714 15.136716 1.880790849211783e-38 1768976227
5.102908 45.129353 15.727830 1.880790849211783e-38 1768976227
4.822171 42.646553 11.897231 1.880790849211783e-38 1768976227
4.156838 36.762447 9.922967 1.880790849211783e-38 1768976227
5.042065 44.591263 15.145857 1.880790849211783e-38 1768976227
5.081092 44.936413 14.828609 1.880790849211783e-38 1768976227
4.319032 38.196869 9.917258 1.880790849211783e-38 1768976227
4.165071 36.835255 9.124232 1.880790849211783e-38 1768976227
5.105443 45.151772 14.407384 1.880790849211783e-38 1768976227
5.149292 45.539566 14.006499 1.880790849211783e-38 1768976227
4.910350 43.426395 7.969601 1.880790849211783e-38 1768976227
