# .PCD v0.7 - Point Cloud Data file format
VERSION 0.7
FIELDS x y z rgb label
SIZE 4 4 4 4 4
TYPE F F F F U
COUNT 1 1 1 1 1
WIDTH 753
HEIGHT 1
VIEWPOINT 0 0 0 1 0 0 0
POINTS 753
DATA ascii
51.303715 -59.718555 -1.406920 1.880790849211783e-38 1768976227
50.793121 -59.124218 -1.823120 1.880790849211783e-38 1768976227
50.426430 -58.697376 -2.284509 1.880790849211783e-38 1768976227
50.218239 -58.455040 -2.653152 1.880790849211783e-38 1768976227
51.282646 -60.059544 -1.847184 1.880790849211783e-38 1768976227
50.579239 -59.235752 -2.299515 1.880790849211783e-38 1768976227
50.283684 -58.889618 -2.665981 1.880790849211783e-38 1768976227
51.042397 -60.144566 -2.328809 1.880790849211783e-38 1768976227
50.439697 -59.434387 -2.683744 1.880790849211783e-38 1768976227
35.022587 -73.561157 -2.804938 1.880790849211783e-38 1768976227
34.735153 -73.527969 -2.400713 1.880790849211783e-38 1768976227
34.509640 -73.050606 -2.781489 1.880790849211783e-38 1768976227
34.530308 -73.668785 -1.902963 1.880790849211783e-38 1768976227
34.267433 -73.107948 -2.383614 1.880790849211783e-38 1768976227
34.093906 -72.737732 -2.765649 1.880790849211783e-38 1768976227
34.284634 -73.722404 -1.452931 1.880790849211783e-38 1768976227
34.072147 -73.265503 -1.889883 1.880790849211783e-38 1768976227
33.875893 -72.843491 -2.371650 1.880790849211783e-38 1768976227
33.742081 -72.555763 -2.754848 1.880790849211783e-38 1768976227
34.094906 -73.896507 -0.938617 1.880790849211783e-38 1768976227
33.853329 -73.372925 -1.444024 1.880790849211783e-38 1768976227
33.691261 -73.021667 -1.880964 1.880790849211783e-38 1768976227
33.524899 -72.661095 -2.362408 1.880790849211783e-38 1768976227
33.403759 -72.398537 -2.745040 1.880790849211783e-38 1768976227
33.882339 -74.021805 -0.472957 1.880790849211783e-38 1768976227
33.665291 -73.547630 -0.932892 1.880790849211783e-38 1768976227
33.489624 -73.163857 -1.437916 1.880790849211783e-38 1768976227
33.340637 -72.838379 -1.873644 1.880790849211783e-38 1768976227
33.204407 -72.540756 -2.355229 1.880790849211783e-38 1768976227
33.098652 -72.309715 -2.737875 1.880790849211783e-38 1768976227
33.465061 -73.696716 -0.470233 1.880790849211783e-38 1768976227
33.309784 -73.354767 -0.929167 1.880790849211783e-38 1768976227
33.150536 -73.004066 -1.432804 1.880790849211783e-38 1768976227
33.031212 -72.741280 -1.868575 1.880790849211783e-38 1768976227
32.899624 -72.451508 -2.349099 1.880790849211783e-38 1768976227
32.795097 -72.221321 -2.730771 1.880790849211783e-38 1768976227
33.700657 -74.215538 0.059629 1.880790849211783e-38 1768976227
33.113033 -73.509583 -0.468399 1.880790849211783e-38 1768976227
32.980797 -73.216026 -0.926145 1.880790849211783e-38 1768976227
32.844353 -72.913132 -1.429068 1.880790849211783e-38 1768976227
32.726429 -72.651344 -1.863721 1.880790849211783e-38 1768976227
32.607780 -72.387939 -2.343839 1.880790849211783e-38 1768976227
32.517757 -72.188095 -2.725794 1.880790849211783e-38 1768976227
33.472157 -74.306831 0.492766 1.880790849211783e-38 1768976227
33.289684 -73.901733 0.059295 1.880790849211783e-38 1768976227
32.797329 -73.399086 -0.467063 1.880790849211783e-38 1768976227
32.674591 -73.124405 -0.923736 1.880790849211783e-38 1768976227
32.548000 -72.841103 -1.425726 1.880790849211783e-38 1768976227
32.446457 -72.613846 -1.860240 1.880790849211783e-38 1768976227
33.274406 -74.466774 0.993339 1.880790849211783e-38 1768976227
32.334370 -72.363007 -2.339863 1.880790849211783e-38 1768976227
32.245251 -72.163567 -2.721183 1.880790849211783e-38 1768976227
33.080666 -74.033188 0.490287 1.880790849211783e-38 1768976227
32.938744 -73.715561 0.059066 1.880790849211783e-38 1768976227
32.495235 -73.315834 -0.465907 1.880790849211783e-38 1768976227
32.389568 -73.077423 -0.921904 1.880790849211783e-38 1768976227
32.273373 -72.815269 -1.423309 1.880790849211783e-38 1768976227
32.172859 -72.588486 -1.857096 1.880790849211783e-38 1768976227
33.038227 -74.540932 1.409667 1.880790849211783e-38 1768976227
32.893452 -74.214294 0.988644 1.880790849211783e-38 1768976227
32.061897 -72.338127 -2.335922 1.880790849211783e-38 1768976227
31.975842 -72.143974 -2.716796 1.880790849211783e-38 1768976227
32.745411 -73.880280 0.488618 1.880790849211783e-38 1768976227
32.630989 -73.622124 0.058912 1.880790849211783e-38 1768976227
32.219250 -73.289040 -0.465117 1.880790849211783e-38 1768976227
32.114658 -73.051125 -0.920346 1.880790849211783e-38 1768976227
32.908398 -74.856644 2.065648 1.880790849211783e-38 1768976227
31.999678 -72.789574 -1.420914 1.880790849211783e-38 1768976227
31.908335 -72.581795 -1.854455 1.880790849211783e-38 1768976227
32.679634 -74.336266 1.403927 1.880790849211783e-38 1768976227
32.569286 -74.085274 0.985612 1.880790849211783e-38 1768976227
31.807457 -72.352333 -2.333272 1.880790849211783e-38 1768976227
31.727209 -72.169792 -2.714152 1.880790849211783e-38 1768976227
32.438091 -73.786835 0.487351 1.880790849211783e-38 1768976227
32.339615 -73.562836 0.058786 1.880790849211783e-38 1768976227
31.948780 -73.272850 -0.464401 1.880790849211783e-38 1768976227
31.853718 -73.054825 -0.919178 1.880790849211783e-38 1768976227
32.670822 -74.928818 2.465934 1.880790849211783e-38 1768976227
32.542320 -74.634102 2.056789 1.880790849211783e-38 1768976227
31.749121 -72.814941 -1.419533 1.880790849211783e-38 1768976227
31.658581 -72.607292 -1.852658 1.880790849211783e-38 1768976227
32.370773 -74.240677 1.400271 1.880790849211783e-38 1768976227
32.273991 -74.018700 0.983427 1.880790849211783e-38 1768976227
31.558592 -72.377968 -2.331019 1.880790849211783e-38 1768976227
31.479044 -72.195534 -2.711538 1.880790849211783e-38 1768976227
32.160805 -73.759109 0.486525 1.880790849211783e-38 1768976227
32.063343 -73.535583 0.058687 1.880790849211783e-38 1768976227
31.696941 -73.297874 -0.463952 1.880790849211783e-38 1768976227
31.602716 -73.079979 -0.918291 1.880790849211783e-38 1768976227
32.498035 -75.150368 3.022300 1.880790849211783e-38 1768976227
32.338173 -74.780693 2.457838 1.880790849211783e-38 1768976227
32.238129 -74.549347 2.051765 1.880790849211783e-38 1768976227
31.499048 -72.840256 -1.418168 1.880790849211783e-38 1768976227
31.409313 -72.632744 -1.850882 1.880790849211783e-38 1768976227
32.090431 -74.207809 1.397819 1.880790849211783e-38 1768976227
31.996765 -73.991211 0.981775 1.880790849211783e-38 1768976227
31.310196 -72.403542 -2.328791 1.880790849211783e-38 1768976227
31.232641 -72.224205 -2.709064 1.880790849211783e-38 1768976227
31.893919 -73.753365 0.485851 1.880790849211783e-38 1768976227
31.805317 -73.548485 0.058621 1.880790849211783e-38 1768976227
31.447269 -73.326721 -0.463532 1.880790849211783e-38 1768976227
31.357672 -73.117798 -0.917574 1.880790849211783e-38 1768976227
32.274315 -75.255173 3.407569 1.880790849211783e-38 1768976227
32.175121 -75.023880 3.013298 1.880790849211783e-38 1768976227
32.049690 -74.731407 2.453030 1.880790849211783e-38 1768976227
31.962439 -74.527962 2.048514 1.880790849211783e-38 1768976227
31.259075 -72.887901 -1.417254 1.880790849211783e-38 1768976227
31.173700 -72.688835 -1.849907 1.880790849211783e-38 1768976227
31.828215 -74.214981 1.396140 1.880790849211783e-38 1768976227
31.742767 -74.015747 0.980826 1.880790849211783e-38 1768976227
31.079378 -72.468895 -2.327868 1.880790849211783e-38 1768976227
31.004337 -72.293922 -2.708160 1.880790849211783e-38 1768976227
31.640835 -73.778069 0.485383 1.880790849211783e-38 1768976227
31.553022 -73.573311 0.058564 1.880790849211783e-38 1768976227
31.215694 -73.397057 -0.463379 1.880790849211783e-38 1768976227
31.126785 -73.188011 -0.917273 1.880790849211783e-38 1768976227
32.246655 -75.821144 4.388799 1.880790849211783e-38 1768976227
32.108364 -75.495987 3.967491 1.880790849211783e-38 1768976227
31.983343 -75.202026 3.400779 1.880790849211783e-38 1768976227
31.903389 -75.014030 3.009023 1.880790849211783e-38 1768976227
31.789364 -74.745926 2.450348 1.880790849211783e-38 1768976227
31.707333 -74.553047 2.046566 1.880790849211783e-38 1768976227
31.028938 -72.957947 -1.416790 1.880790849211783e-38 1768976227
30.944220 -72.758751 -1.849303 1.880790849211783e-38 1768976227
31.579712 -74.252975 1.395057 1.880790849211783e-38 1768976227
31.498455 -74.061913 0.980174 1.880790849211783e-38 1768976227
30.850626 -72.538681 -2.327110 1.880790849211783e-38 1768976227
30.776163 -72.363594 -2.707280 1.880790849211783e-38 1768976227
31.401482 -73.833900 0.485125 1.880790849211783e-38 1768976227
31.317926 -73.637436 0.058540 1.880790849211783e-38 1768976227
30.984261 -73.467339 -0.463231 1.880790849211783e-38 1768976227
30.896040 -73.258163 -0.916980 1.880790849211783e-38 1768976227
31.925148 -75.698288 4.376095 1.880790849211783e-38 1768976227
31.844839 -75.507866 3.963050 1.880790849211783e-38 1768976227
31.735077 -75.247604 3.398497 1.880790849211783e-38 1768976227
31.659021 -75.067268 3.007316 1.880790849211783e-38 1768976227
31.550529 -74.810028 2.449319 1.880790849211783e-38 1768976227
31.472095 -74.624054 2.045900 1.880790849211783e-38 1768976227
30.798950 -73.027946 -1.416339 1.880790849211783e-38 1768976227
30.714882 -72.828613 -1.848716 1.880790849211783e-38 1768976227
31.345476 -74.323822 1.394605 1.880790849211783e-38 1768976227
31.264830 -74.132599 0.979857 1.880790849211783e-38 1768976227
30.622019 -72.608421 -2.326374 1.880790849211783e-38 1768976227
30.548130 -72.433220 -2.706426 1.880790849211783e-38 1768976227
31.168613 -73.904457 0.484968 1.880790849211783e-38 1768976227
31.085703 -73.707870 0.058521 1.880790849211783e-38 1768976227
30.768883 -73.575562 -0.463326 1.880790849211783e-38 1768976227
30.681355 -73.366272 -0.917171 1.880790849211783e-38 1768976227
31.724558 -75.860794 4.379939 1.880790849211783e-38 1768976227
31.631161 -75.637466 3.964828 1.880790849211783e-38 1768976227
31.517517 -75.365723 3.399523 1.880790849211783e-38 1768976227
31.439037 -75.178062 3.007942 1.880790849211783e-38 1768976227
31.330656 -74.918900 2.449779 1.880790849211783e-38 1768976227
31.252848 -74.732841 2.046289 1.880790849211783e-38 1768976227
30.585039 -73.135948 -1.416638 1.880790849211783e-38 1768976227
30.501642 -72.936531 -1.849112 1.880790849211783e-38 1768976227
31.127226 -74.432449 1.394876 1.880790849211783e-38 1768976227
31.047230 -74.241158 0.980050 1.880790849211783e-38 1768976227
30.409508 -72.716209 -2.326878 1.880790849211783e-38 1768976227
30.336199 -72.540916 -2.707019 1.880790849211783e-38 1768976227
30.951778 -74.012909 0.485065 1.880790849211783e-38 1768976227
30.869524 -73.816216 0.058533 1.880790849211783e-38 1768976227
30.555716 -73.689430 -0.463461 1.880790849211783e-38 1768976227
30.468775 -73.479759 -0.917437 1.880790849211783e-38 1768976227
31.493036 -75.949913 3.976208 1.880790849211783e-38 1768976227
31.332859 -75.563629 3.404172 1.880790849211783e-38 1768976227
31.247316 -75.357323 3.011330 1.880790849211783e-38 1768976227
31.129780 -75.073875 2.451765 1.880790849211783e-38 1768976227
31.049313 -74.879807 2.047740 1.880790849211783e-38 1768976227
30.373087 -73.249001 -1.417047 1.880790849211783e-38 1768976227
30.290251 -73.049217 -1.849644 1.880790849211783e-38 1768976227
30.919453 -74.566635 1.395637 1.880790849211783e-38 1768976227
30.836773 -74.367241 0.980483 1.880790849211783e-38 1768976227
30.198725 -72.828499 -2.327546 1.880790849211783e-38 1768976227
30.125904 -72.652878 -2.707794 1.880790849211783e-38 1768976227
30.738142 -74.129379 0.485219 1.880790849211783e-38 1768976227
30.655680 -73.930519 0.058550 1.880790849211783e-38 1768976227
30.354685 -73.833199 -0.463787 1.880790849211783e-38 1768976227
30.264809 -73.614586 -0.917976 1.880790849211783e-38 1768976227
31.215361 -75.926659 3.416270 1.880790849211783e-38 1768976227
31.087322 -75.615227 3.017875 1.880790849211783e-38 1768976227
30.950672 -75.282852 2.455530 1.880790849211783e-38 1768976227
30.863632 -75.071136 2.050417 1.880790849211783e-38 1768976227
30.165926 -73.374069 -1.417700 1.880790849211783e-38 1768976227
30.080326 -73.165855 -1.850292 1.880790849211783e-38 1768976227
30.723244 -74.729652 1.396947 1.880790849211783e-38 1768976227
30.640659 -74.528786 0.981390 1.880790849211783e-38 1768976227
29.987816 -72.940842 -2.328236 1.880790849211783e-38 1768976227
29.915485 -72.764908 -2.708595 1.880790849211783e-38 1768976227
30.542566 -74.290184 0.485666 1.880790849211783e-38 1768976227
30.458057 -74.084633 0.058599 1.880790849211783e-38 1768976227
30.159773 -73.992882 -0.464217 1.880790849211783e-38 1768976227
30.070398 -73.773598 -0.918824 1.880790849211783e-38 1768976227
31.029844 -76.127472 3.034571 1.880790849211783e-38 1768976227
30.807331 -75.581573 2.462232 1.880790849211783e-38 1768976227
30.701139 -75.321045 2.054705 1.880790849211783e-38 1768976227
29.972054 -73.532326 -1.419005 1.880790849211783e-38 1768976227
29.886921 -73.323479 -1.851990 1.880790849211783e-38 1768976227
30.547903 -74.945099 1.399246 1.880790849211783e-38 1768976227
30.458942 -74.726837 0.982783 1.880790849211783e-38 1768976227
29.792904 -73.092812 -2.330208 1.880790849211783e-38 1768976227
29.718113 -72.909317 -2.710622 1.880790849211783e-38 1768976227
30.352865 -74.466599 0.486219 1.880790849211783e-38 1768976227
30.262579 -74.245094 0.058653 1.880790849211783e-38 1768976227
29.975626 -74.180336 -0.464823 1.880790849211783e-38 1768976227
29.879000 -73.941216 -0.919785 1.880790849211783e-38 1768976227
30.746525 -76.088066 2.475700 1.880790849211783e-38 1768976227
30.574474 -75.662300 2.061489 1.880790849211783e-38 1768976227
29.777840 -73.690872 -1.420325 1.880790849211783e-38 1768976227
29.693186 -73.481377 -1.853708 1.880790849211783e-38 1768976227
30.392042 -75.210838 1.402490 1.880790849211783e-38 1768976227
30.290546 -74.959663 0.984640 1.880790849211783e-38 1768976227
29.599686 -73.250008 -2.332363 1.880790849211783e-38 1768976227
29.525309 -73.065941 -2.713122 1.880790849211783e-38 1768976227
30.177778 -74.680595 0.487020 1.880790849211783e-38 1768976227
30.086823 -74.455513 0.058748 1.880790849211783e-38 1768976227
29.800781 -74.392776 -0.465589 1.880790849211783e-38 1768976227
29.704561 -74.152580 -0.921296 1.880790849211783e-38 1768976227
30.593519 -76.371704 2.078294 1.880790849211783e-38 1768976227
29.598757 -73.888451 -1.422406 1.880790849211783e-38 1768976227
29.507217 -73.659943 -1.855959 1.880790849211783e-38 1768976227
30.266609 -75.555626 1.407210 1.880790849211783e-38 1768976227
30.142324 -75.245377 0.987194 1.880790849211783e-38 1768976227
29.406166 -73.407684 -2.334549 1.880790849211783e-38 1768976227
29.332123 -73.222847 -2.715651 1.880790849211783e-38 1768976227
30.020388 -74.940994 0.488125 1.880790849211783e-38 1768976227
29.916632 -74.681976 0.058855 1.880790849211783e-38 1768976227
29.640472 -74.643974 -0.466600 1.880790849211783e-38 1768976227
29.530745 -74.367645 -0.922857 1.880790849211783e-38 1768976227
29.424196 -74.099319 -1.424751 1.880790849211783e-38 1768976227
29.333042 -73.869766 -1.859008 1.880790849211783e-38 1768976227
30.217308 -76.096634 1.415583 1.880790849211783e-38 1768976227
30.031977 -75.629906 0.991046 1.880790849211783e-38 1768976227
29.232424 -73.616379 -2.338371 1.880790849211783e-38 1768976227
29.152422 -73.414917 -2.719501 1.880790849211783e-38 1768976227
29.881704 -75.251480 0.489558 1.880790849211783e-38 1768976227
29.766876 -74.962303 0.059005 1.880790849211783e-38 1768976227
29.490286 -74.923706 -0.467790 1.880790849211783e-38 1768976227
29.380835 -74.645638 -0.925203 1.880790849211783e-38 1768976227
29.260601 -74.340172 -1.427679 1.880790849211783e-38 1768976227
29.158310 -74.080276 -1.862085 1.880790849211783e-38 1768976227
30.027725 -76.289139 0.998493 1.880790849211783e-38 1768976227
29.058123 -73.825752 -2.342227 1.880790849211783e-38 1768976227
28.978466 -73.623367 -2.723973 1.880790849211783e-38 1768976227
29.779457 -75.658386 0.491619 1.880790849211783e-38 1768976227
29.641119 -75.306923 0.059205 1.880790849211783e-38 1768976227
29.371847 -75.288284 -0.469511 1.880790849211783e-38 1768976227
29.237783 -74.944649 -0.927812 1.880790849211783e-38 1768976227
29.110222 -74.617676 -1.431315 1.880790849211783e-38 1768976227
29.006582 -74.352005 -1.866707 1.880790849211783e-38 1768976227
28.892282 -74.059029 -2.346853 1.880790849211783e-38 1768976227
28.803917 -73.832520 -2.728485 1.880790849211783e-38 1768976227
29.780891 -76.336784 0.495441 1.880790849211783e-38 1768976227
29.553886 -75.754906 0.059487 1.880790849211783e-38 1768976227
29.288778 -75.749306 -0.471833 1.880790849211783e-38 1768976227
29.122393 -75.318985 -0.931355 1.880790849211783e-38 1768976227
28.975403 -74.938820 -1.435793 1.880790849211783e-38 1768976227
28.855701 -74.629242 -1.871474 1.880790849211783e-38 1768976227
28.741705 -74.334412 -2.352822 1.880790849211783e-38 1768976227
28.651155 -74.100227 -2.735172 1.880790849211783e-38 1768976227
29.597328 -76.547302 0.060039 1.880790849211783e-38 1768976227
29.310320 -76.490059 -0.475894 1.880790849211783e-38 1768976227
29.050367 -75.811676 -0.936359 1.880790849211783e-38 1768976227
28.859150 -75.312653 -1.441281 1.880790849211783e-38 1768976227
28.732367 -74.981789 -1.878134 1.880790849211783e-38 1768976227
28.592787 -74.617538 -2.359043 1.880790849211783e-38 1768976227
28.500057 -74.375549 -2.742149 1.880790849211783e-38 1768976227
29.101030 -76.634773 -0.945437 1.880790849211783e-38 1768976227
28.792749 -75.822945 -1.449378 1.880790849211783e-38 1768976227
28.619555 -75.366852 -1.885608 1.880790849211783e-38 1768976227
28.475718 -74.988075 -2.368032 1.880790849211783e-38 1768976227
28.365065 -74.696678 -2.750823 1.880790849211783e-38 1768976227
28.829058 -76.613998 -1.462831 1.880790849211783e-38 1768976227
28.561216 -75.902214 -1.896838 1.880790849211783e-38 1768976227
28.370470 -75.395294 -2.378179 1.880790849211783e-38 1768976227
28.247116 -75.067482 -2.761328 1.880790849211783e-38 1768976227
28.684568 -76.933167 -1.920432 1.880790849211783e-38 1768976227
28.310680 -75.930374 -2.392352 1.880790849211783e-38 1768976227
28.159338 -75.524467 -2.775001 1.880790849211783e-38 1768976227
28.436619 -76.976585 -2.422602 1.880790849211783e-38 1768976227
28.113489 -76.101883 -2.793089 1.880790849211783e-38 1768976227
29.943743 -92.000000 -0.562092 1.880790849211783e-38 1768976227
29.943745 -92.000000 -1.115857 1.880790849211783e-38 1768976227
29.943745 -91.999992 4.678879 1.880790849211783e-38 1768976227
29.943743 -92.000000 4.026230 1.880790849211783e-38 1768976227
29.943743 -92.000000 3.571354 1.880790849211783e-38 1768976227
29.943741 -91.999992 2.918704 1.880790849211783e-38 1768976227
29.943745 -92.000008 2.444050 1.880790849211783e-38 1768976227
29.943747 -92.000000 -1.728951 1.880790849211783e-38 1768976227
29.943741 -92.000000 -2.262937 1.880790849211783e-38 1768976227
29.943747 -92.000008 1.672738 1.880790849211783e-38 1768976227
29.943741 -91.999992 1.178306 1.880790849211783e-38 1768976227
29.943747 -92.000000 -2.856255 1.880790849211783e-38 1768976227
29.943743 -92.000000 -3.330909 1.880790849211783e-38 1768976227
29.943747 -92.000000 0.584989 1.880790849211783e-38 1768976227
29.943745 -91.999992 0.070779 1.880790849211783e-38 1768976227
29.637175 -92.000000 -0.561544 1.880790849211783e-38 1768976227
29.637178 -92.000000 -1.114767 1.880790849211783e-38 1768976227
29.637177 -92.000000 4.674312 1.880790849211783e-38 1768976227
29.637177 -91.999992 4.022300 1.880790849211783e-38 1768976227
29.637180 -92.000000 3.567868 1.880790849211783e-38 1768976227
29.637184 -92.000015 2.915855 1.880790849211783e-38 1768976227
29.637178 -92.000008 2.441664 1.880790849211783e-38 1768976227
29.637180 -92.000000 -1.727263 1.880790849211783e-38 1768976227
29.637178 -92.000000 -2.260729 1.880790849211783e-38 1768976227
29.637178 -92.000000 1.671105 1.880790849211783e-38 1768976227
29.637178 -92.000000 1.177156 1.880790849211783e-38 1768976227
29.637175 -91.999992 -2.853466 1.880790849211783e-38 1768976227
29.637178 -92.000000 -3.327658 1.880790849211783e-38 1768976227
29.637177 -92.000000 0.584417 1.880790849211783e-38 1768976227
29.637180 -92.000000 0.070710 1.880790849211783e-38 1768976227
29.331230 -91.999992 -0.561001 1.880790849211783e-38 1768976227
29.331232 -92.000000 -1.113690 1.880790849211783e-38 1768976227
29.331234 -92.000000 4.669796 1.880790849211783e-38 1768976227
29.331234 -92.000000 4.018415 1.880790849211783e-38 1768976227
29.331234 -92.000008 3.564421 1.880790849211783e-38 1768976227
29.331234 -92.000000 2.913038 1.880790849211783e-38 1768976227
29.331232 -92.000000 2.439306 1.880790849211783e-38 1768976227
29.331232 -91.999992 -1.725594 1.880790849211783e-38 1768976227
29.331232 -92.000000 -2.258545 1.880790849211783e-38 1768976227
29.331232 -92.000000 1.669490 1.880790849211783e-38 1768976227
29.331234 -92.000008 1.176019 1.880790849211783e-38 1768976227
29.331232 -92.000000 -2.850710 1.880790849211783e-38 1768976227
29.331232 -91.999992 -3.324443 1.880790849211783e-38 1768976227
29.331232 -91.999992 0.583853 1.880790849211783e-38 1768976227
29.331230 -91.999992 0.070641 1.880790849211783e-38 1768976227
29.025850 -91.999992 -0.560465 1.880790849211783e-38 1768976227
29.025850 -92.000000 -1.112625 1.880790849211783e-38 1768976227
29.025852 -92.000000 4.665332 1.880790849211783e-38 1768976227
29.025848 -91.999992 4.014573 1.880790849211783e-38 1768976227
29.025848 -91.999992 3.561013 1.880790849211783e-38 1768976227
29.025848 -92.000000 2.910253 1.880790849211783e-38 1768976227
29.025850 -92.000000 2.436973 1.880790849211783e-38 1768976227
29.025852 -92.000000 -1.723944 1.880790849211783e-38 1768976227
29.025848 -91.999992 -2.256385 1.880790849211783e-38 1768976227
29.025850 -92.000000 1.667894 1.880790849211783e-38 1768976227
29.025848 -91.999992 1.174895 1.880790849211783e-38 1768976227
29.025854 -92.000008 -2.847985 1.880790849211783e-38 1768976227
29.025848 -92.000000 -3.321265 1.880790849211783e-38 1768976227
29.025850 -91.999992 0.583295 1.880790849211783e-38 1768976227
29.025850 -92.000000 0.070574 1.880790849211783e-38 1768976227
28.721046 -91.999992 -0.559934 1.880790849211783e-38 1768976227
28.721048 -91.999992 -1.111573 1.880790849211783e-38 1768976227
28.721046 -91.999992 4.660918 1.880790849211783e-38 1768976227
28.721045 -91.999992 4.010774 1.880790849211783e-38 1768976227
28.721048 -92.000008 3.557644 1.880790849211783e-38 1768976227
28.721048 -92.000008 2.907500 1.880790849211783e-38 1768976227
28.721048 -92.000000 2.434668 1.880790849211783e-38 1768976227
28.721050 -92.000000 -1.722313 1.880790849211783e-38 1768976227
28.721048 -92.000000 -2.254250 1.880790849211783e-38 1768976227
28.721050 -92.000008 1.666316 1.880790849211783e-38 1768976227
28.721048 -92.000008 1.173783 1.880790849211783e-38 1768976227
28.721045 -91.999992 -2.845290 1.880790849211783e-38 1768976227
28.721050 -92.000000 -3.318123 1.880790849211783e-38 1768976227
28.721048 -92.000008 0.582743 1.880790849211783e-38 1768976227
28.721045 -91.999992 0.070507 1.880790849211783e-38 1768976227
28.416819 -91.999992 -0.559410 1.880790849211783e-38 1768976227
28.416822 -92.000000 -1.110532 1.880790849211783e-38 1768976227
28.416821 -92.000000 4.656554 1.880790849211783e-38 1768976227
28.416821 -92.000000 4.007020 1.880790849211783e-38 1768976227
28.416821 -92.000000 3.554313 1.880790849211783e-38 1768976227
28.416826 -92.000008 2.904778 1.880790849211783e-38 1768976227
28.416822 -92.000008 2.432389 1.880790849211783e-38 1768976227
28.416822 -92.000008 -1.720701 1.880790849211783e-38 1768976227
28.416822 -92.000000 -2.252140 1.880790849211783e-38 1768976227
28.416821 -92.000000 1.664756 1.880790849211783e-38 1768976227
28.416817 -91.999992 1.172684 1.880790849211783e-38 1768976227
28.416822 -92.000008 -2.842627 1.880790849211783e-38 1768976227
28.416819 -91.999992 -3.315016 1.880790849211783e-38 1768976227
28.416819 -92.000000 0.582197 1.880790849211783e-38 1768976227
28.416819 -91.999992 0.070441 1.880790849211783e-38 1768976227
28.113180 -92.000000 -0.558892 1.880790849211783e-38 1768976227
28.113180 -91.999992 -1.109504 1.880790849211783e-38 1768976227
28.113178 -91.999992 4.652242 1.880790849211783e-38 1768976227
28.113182 -92.000000 4.003309 1.880790849211783e-38 1768976227
28.113178 -91.999992 3.551022 1.880790849211783e-38 1768976227
28.113184 -92.000000 2.902088 1.880790849211783e-38 1768976227
28.113182 -92.000000 2.430136 1.880790849211783e-38 1768976227
28.113178 -91.999992 -1.719107 1.880790849211783e-38 1768976227
28.113184 -92.000000 -2.250054 1.880790849211783e-38 1768976227
28.113182 -92.000000 1.663215 1.880790849211783e-38 1768976227
28.113182 -91.999992 1.171598 1.880790849211783e-38 1768976227
28.113182 -92.000008 -2.839994 1.880790849211783e-38 1768976227
28.113180 -92.000000 -3.311946 1.880790849211783e-38 1768976227
28.113178 -91.999992 0.581658 1.880790849211783e-38 1768976227
28.113180 -92.000000 0.070376 1.880790849211783e-38 1768976227
27.810078 -91.999992 -0.558380 1.880790849211783e-38 1768976227
27.810078 -91.999992 -1.108487 1.880790849211783e-38 1768976227
27.810080 -92.000000 4.647979 1.880790849211783e-38 1768976227
27.810080 -92.000000 3.999642 1.880790849211783e-38 1768976227
27.810080 -91.999992 3.547769 1.880790849211783e-38 1768976227
27.810074 -91.999985 2.899428 1.880790849211783e-38 1768976227
27.810080 -92.000000 2.427909 1.880790849211783e-38 1768976227
27.810080 -92.000008 -1.717532 1.880790849211783e-38 1768976227
27.810078 -92.000000 -2.247993 1.880790849211783e-38 1768976227
27.810078 -92.000000 1.661691 1.880790849211783e-38 1768976227
27.810080 -92.000000 1.170525 1.880790849211783e-38 1768976227
27.810085 -92.000008 -2.837392 1.880790849211783e-38 1768976227
27.810078 -92.000000 -3.308912 1.880790849211783e-38 1768976227
27.810081 -92.000008 0.581125 1.880790849211783e-38 1768976227
27.810080 -92.000008 0.070311 1.880790849211783e-38 1768976227
27.507530 -92.000008 -0.557874 1.880790849211783e-38 1768976227
27.507528 -91.999992 -1.107483 1.880790849211783e-38 1768976227
27.507530 -92.000008 4.643767 1.880790849211783e-38 1768976227
27.507526 -92.000000 3.996017 1.880790849211783e-38 1768976227
27.507528 -92.000000 3.544553 1.880790849211783e-38 1768976227
27.507528 -92.000008 2.896801 1.880790849211783e-38 1768976227
27.507526 -91.999992 2.425709 1.880790849211783e-38 1768976227
27.507530 -92.000000 -1.715976 1.880790849211783e-38 1768976227
27.507528 -92.000000 -2.245955 1.880790849211783e-38 1768976227
27.507526 -91.999985 1.660184 1.880790849211783e-38 1768976227
27.507528 -92.000000 1.169464 1.880790849211783e-38 1768976227
27.507528 -92.000000 -2.834820 1.880790849211783e-38 1768976227
27.507534 -92.000008 -3.305913 1.880790849211783e-38 1768976227
27.507526 -91.999992 0.580599 1.880790849211783e-38 1768976227
27.507530 -92.000000 0.070248 1.880790849211783e-38 1768976227
27.205549 -92.000008 -0.557374 1.880790849211783e-38 1768976227
27.205547 -91.999985 -1.106490 1.880790849211783e-38 1768976227
27.205547 -92.000008 4.639605 1.880790849211783e-38 1768976227
27.205545 -91.999992 3.992435 1.880790849211783e-38 1768976227
27.205551 -92.000008 3.541376 1.880790849211783e-38 1768976227
27.205549 -92.000008 2.894205 1.880790849211783e-38 1768976227
27.205549 -92.000000 2.423535 1.880790849211783e-38 1768976227
27.205544 -91.999992 -1.714438 1.880790849211783e-38 1768976227
27.205549 -92.000000 -2.243942 1.880790849211783e-38 1768976227
27.205549 -92.000000 1.658697 1.880790849211783e-38 1768976227
27.205551 -92.000008 1.168416 1.880790849211783e-38 1768976227
27.205549 -92.000000 -2.832279 1.880790849211783e-38 1768976227
27.205547 -92.000008 -3.302950 1.880790849211783e-38 1768976227
27.205549 -92.000000 0.580078 1.880790849211783e-38 1768976227
27.205545 -91.999992 0.070185 1.880790849211783e-38 1768976227
26.904081 -92.000000 -0.556880 1.880790849211783e-38 1768976227
26.904081 -92.000008 -1.105509 1.880790849211783e-38 1768976227
26.904079 -92.000000 4.635491 1.880790849211783e-38 1768976227
26.904078 -92.000000 3.988895 1.880790849211783e-38 1768976227
26.904081 -91.999992 3.538236 1.880790849211783e-38 1768976227
26.904079 -92.000000 2.891639 1.880790849211783e-38 1768976227
26.904083 -92.000008 2.421386 1.880790849211783e-38 1768976227
26.904078 -91.999992 -1.712918 1.880790849211783e-38 1768976227
26.904079 -92.000000 -2.241953 1.880790849211783e-38 1768976227
26.904078 -92.000000 1.657226 1.880790849211783e-38 1768976227
26.904078 -91.999992 1.167380 1.880790849211783e-38 1768976227
26.904078 -92.000000 -2.829768 1.880790849211783e-38 1768976227
26.904081 -92.000000 -3.300022 1.880790849211783e-38 1768976227
26.904078 -91.999992 0.579564 1.880790849211783e-38 1768976227
26.904081 -92.000008 0.070123 1.880790849211783e-38 1768976227
26.603144 -92.000000 -0.556392 1.880790849211783e-38 1768976227
26.603144 -92.000000 -1.104540 1.880790849211783e-38 1768976227
26.603140 -91.999992 4.631427 1.880790849211783e-38 1768976227
26.603144 -91.999992 3.985398 1.880790849211783e-38 1768976227
26.603144 -92.000008 3.535135 1.880790849211783e-38 1768976227
26.603146 -92.000000 2.889104 1.880790849211783e-38 1768976227
26.603136 -91.999985 2.419263 1.880790849211783e-38 1768976227
26.603146 -92.000000 -1.711416 1.880790849211783e-38 1768976227
26.603142 -92.000000 -2.239988 1.880790849211783e-38 1768976227
26.603144 -92.000000 1.655773 1.880790849211783e-38 1768976227
26.603144 -91.999992 1.166356 1.880790849211783e-38 1768976227
26.603144 -92.000000 -2.827288 1.880790849211783e-38 1768976227
26.603140 -91.999992 -3.297128 1.880790849211783e-38 1768976227
26.603146 -92.000000 0.579056 1.880790849211783e-38 1768976227
26.603144 -92.000000 0.070061 1.880790849211783e-38 1768976227
26.302731 -91.999985 -0.555909 1.880790849211783e-38 1768976227
26.302734 -92.000008 -1.103583 1.880790849211783e-38 1768976227
26.302734 -92.000000 4.627413 1.880790849211783e-38 1768976227
26.302734 -92.000008 3.981944 1.880790849211783e-38 1768976227
26.302736 -92.000008 3.532071 1.880790849211783e-38 1768976227
26.302731 -92.000000 2.886600 1.880790849211783e-38 1768976227
26.302734 -92.000008 2.417166 1.880790849211783e-38 1768976227
26.302731 -91.999992 -1.709933 1.880790849211783e-38 1768976227
26.302734 -92.000008 -2.238046 1.880790849211783e-38 1768976227
26.302729 -92.000000 1.654338 1.880790849211783e-38 1768976227
26.302738 -92.000015 1.165346 1.880790849211783e-38 1768976227
26.302729 -91.999992 -2.824836 1.880790849211783e-38 1768976227
26.302734 -92.000000 -3.294271 1.880790849211783e-38 1768976227
26.302731 -92.000000 0.578554 1.880790849211783e-38 1768976227
26.302731 -92.000000 0.070000 1.880790849211783e-38 1768976227
26.002857 -91.999992 -0.555433 1.880790849211783e-38 1768976227
26.002863 -92.000008 -1.102637 1.880790849211783e-38 1768976227
26.002861 -92.000000 4.623448 1.880790849211783e-38 1768976227
26.002863 -92.000000 3.978532 1.880790849211783e-38 1768976227
26.002863 -92.000000 3.529044 1.880790849211783e-38 1768976227
26.002861 -91.999992 2.884126 1.880790849211783e-38 1768976227
26.002863 -92.000000 2.415095 1.880790849211783e-38 1768976227
26.002863 -92.000000 -1.708467 1.880790849211783e-38 1768976227
26.002865 -92.000008 -2.236128 1.880790849211783e-38 1768976227
26.002863 -92.000000 1.652920 1.880790849211783e-38 1768976227
26.002863 -92.000008 1.164347 1.880790849211783e-38 1768976227
26.002865 -92.000000 -2.822416 1.880790849211783e-38 1768976227
26.002859 -92.000000 -3.291448 1.880790849211783e-38 1768976227
26.002859 -91.999992 0.578058 1.880790849211783e-38 1768976227
26.002863 -92.000000 0.069940 1.880790849211783e-38 1768976227
25.703476 -92.000000 -0.554962 1.880790849211783e-38 1768976227
25.703476 -91.999992 -1.101703 1.880790849211783e-38 1768976227
25.703480 -92.000000 4.619531 1.880790849211783e-38 1768976227
25.703482 -92.000000 3.975161 1.880790849211783e-38 1768976227
25.703480 -92.000000 3.526054 1.880790849211783e-38 1768976227
25.703476 -91.999992 2.881682 1.880790849211783e-38 1768976227
25.703480 -92.000008 2.413049 1.880790849211783e-38 1768976227
25.703478 -92.000000 -1.707020 1.880790849211783e-38 1768976227
25.703476 -91.999992 -2.234234 1.880790849211783e-38 1768976227
25.703480 -92.000000 1.651520 1.880790849211783e-38 1768976227
25.703478 -91.999992 1.163360 1.880790849211783e-38 1768976227
25.703482 -92.000000 -2.820025 1.880790849211783e-38 1768976227
25.703480 -92.000000 -3.288659 1.880790849211783e-38 1768976227
25.703478 -92.000000 0.577568 1.880790849211783e-38 1768976227
25.703478 -92.000000 0.069881 1.880790849211783e-38 1768976227
25.404602 -92.000000 -0.554498 1.880790849211783e-38 1768976227
25.404594 -91.999985 -1.100780 1.880790849211783e-38 1768976227
25.404600 -92.000000 4.615663 1.880790849211783e-38 1768976227
25.404600 -92.000000 3.971832 1.880790849211783e-38 1768976227
25.404602 -92.000008 3.523102 1.880790849211783e-38 1768976227
25.404600 -91.999992 2.879269 1.880790849211783e-38 1768976227
25.404600 -92.000000 2.411028 1.880790849211783e-38 1768976227
25.404596 -91.999985 -1.705590 1.880790849211783e-38 1768976227
25.404596 -91.999985 -2.232363 1.880790849211783e-38 1768976227
25.404596 -91.999992 1.650137 1.880790849211783e-38 1768976227
25.404596 -91.999992 1.162386 1.880790849211783e-38 1768976227
25.404598 -92.000000 -2.817663 1.880790849211783e-38 1768976227
25.404594 -91.999985 -3.285905 1.880790849211783e-38 1768976227
25.404602 -92.000008 0.577085 1.880790849211783e-38 1768976227
25.404604 -92.000015 0.069823 1.880790849211783e-38 1768976227
25.106218 -91.999992 -0.554039 1.880790849211783e-38 1768976227
25.106216 -92.000000 -1.099869 1.880790849211783e-38 1768976227
25.106218 -91.999992 4.611843 1.880790849211783e-38 1768976227
25.106216 -91.999992 3.968545 1.880790849211783e-38 1768976227
25.106215 -92.000000 3.520185 1.880790849211783e-38 1768976227
25.106218 -92.000000 2.876887 1.880790849211783e-38 1768976227
25.106213 -91.999985 2.409033 1.880790849211783e-38 1768976227
25.106216 -92.000000 -1.704179 1.880790849211783e-38 1768976227
25.106216 -92.000000 -2.230515 1.880790849211783e-38 1768976227
25.106216 -91.999992 1.648771 1.880790849211783e-38 1768976227
25.106222 -92.000008 1.161425 1.880790849211783e-38 1768976227
25.106218 -92.000000 -2.815332 1.880790849211783e-38 1768976227
25.106216 -92.000000 -3.283186 1.880790849211783e-38 1768976227
25.106220 -92.000008 0.576607 1.880790849211783e-38 1768976227
25.106215 -91.999992 0.069765 1.880790849211783e-38 1768976227
24.808352 -92.000000 -0.553586 1.880790849211783e-38 1768976227
24.808346 -91.999992 -1.098969 1.880790849211783e-38 1768976227
24.808348 -91.999985 4.608071 1.880790849211783e-38 1768976227
24.808348 -91.999985 3.965300 1.880790849211783e-38 1768976227
24.808350 -91.999992 3.517307 1.880790849211783e-38 1768976227
24.808348 -91.999985 2.874534 1.880790849211783e-38 1768976227
24.808346 -91.999992 2.407063 1.880790849211783e-38 1768976227
24.808352 -92.000000 -1.702785 1.880790849211783e-38 1768976227
24.808352 -92.000000 -2.228691 1.880790849211783e-38 1768976227
24.808350 -92.000000 1.647423 1.880790849211783e-38 1768976227
24.808350 -91.999992 1.160475 1.880790849211783e-38 1768976227
24.808352 -92.000008 -2.813030 1.880790849211783e-38 1768976227
24.808350 -91.999992 -3.280501 1.880790849211783e-38 1768976227
24.808352 -92.000000 0.576136 1.880790849211783e-38 1768976227
24.808350 -91.999992 0.069708 1.880790849211783e-38 1768976227
24.510942 -92.000000 -0.553138 1.880790849211783e-38 1768976227
24.510944 -92.000008 -1.098082 1.880790849211783e-38 1768976227
24.510941 -91.999992 4.604347 1.880790849211783e-38 1768976227
24.510944 -92.000000 3.962096 1.880790849211783e-38 1768976227
24.510946 -92.000008 3.514465 1.880790849211783e-38 1768976227
24.510942 -91.999992 2.872211 1.880790849211783e-38 1768976227
24.510944 -92.000000 2.405118 1.880790849211783e-38 1768976227
24.510944 -92.000000 -1.701409 1.880790849211783e-38 1768976227
24.510944 -91.999992 -2.226890 1.880790849211783e-38 1768976227
24.510942 -91.999992 1.646092 1.880790849211783e-38 1768976227
24.510942 -91.999992 1.159537 1.880790849211783e-38 1768976227
24.510944 -91.999992 -2.810756 1.880790849211783e-38 1768976227
24.510942 -91.999992 -3.277850 1.880790849211783e-38 1768976227
24.510944 -92.000000 0.575670 1.880790849211783e-38 1768976227
24.510944 -91.999992 0.069651 1.880790849211783e-38 1768976227
24.214012 -91.999985 -0.552697 1.880790849211783e-38 1768976227
24.214012 -91.999992 -1.097205 1.880790849211783e-38 1768976227
24.214010 -91.999992 4.600671 1.880790849211783e-38 1768976227
24.214012 -91.999992 3.958932 1.880790849211783e-38 1768976227
24.214012 -91.999992 3.511659 1.880790849211783e-38 1768976227
24.214012 -91.999992 2.869918 1.880790849211783e-38 1768976227
24.214014 -92.000000 2.403198 1.880790849211783e-38 1768976227
24.214014 -91.999992 -1.700051 1.880790849211783e-38 1768976227
24.214014 -92.000000 -2.225112 1.880790849211783e-38 1768976227
24.214014 -92.000000 1.644778 1.880790849211783e-38 1768976227
24.214016 -92.000000 1.158611 1.880790849211783e-38 1768976227
24.214016 -92.000000 -2.808512 1.880790849211783e-38 1768976227
24.214016 -92.000008 -3.275234 1.880790849211783e-38 1768976227
24.214016 -92.000000 0.575211 1.880790849211783e-38 1768976227
24.214016 -92.000008 0.069596 1.880790849211783e-38 1768976227
23.917582 -92.000008 -0.552261 1.880790849211783e-38 1768976227
23.917580 -92.000000 -1.096340 1.880790849211783e-38 1768976227
23.917580 -92.000000 4.597044 1.880790849211783e-38 1768976227
23.917580 -92.000000 3.955811 1.880790849211783e-38 1768976227
23.917580 -91.999992 3.508890 1.880790849211783e-38 1768976227
23.917580 -92.000000 2.867655 1.880790849211783e-38 1768976227
23.917582 -92.000008 2.401303 1.880790849211783e-38 1768976227
23.917580 -92.000000 -1.698711 1.880790849211783e-38 1768976227
23.917578 -91.999985 -2.223357 1.880790849211783e-38 1768976227
23.917578 -91.999992 1.643481 1.880790849211783e-38 1768976227
23.917582 -92.000000 1.157698 1.880790849211783e-38 1768976227
23.917578 -91.999992 -2.806297 1.880790849211783e-38 1768976227
23.917580 -92.000000 -3.272651 1.880790849211783e-38 1768976227
23.917582 -92.000000 0.574757 1.880790849211783e-38 1768976227
23.917578 -91.999992 0.069541 1.880790849211783e-38 1768976227
23.621586 -92.000000 -0.551831 1.880790849211783e-38 1768976227
23.621588 -92.000000 -1.095486 1.880790849211783e-38 1768976227
23.621590 -92.000008 4.593464 1.880790849211783e-38 1768976227
23.621584 -91.999992 3.952729 1.880790849211783e-38 1768976227
23.621588 -92.000000 3.506157 1.880790849211783e-38 1768976227
23.621586 -92.000000 2.865421 1.880790849211783e-38 1768976227
23.621588 -92.000000 2.399432 1.880790849211783e-38 1768976227
23.621582 -91.999985 -1.697387 1.880790849211783e-38 1768976227
23.621588 -92.000008 -2.221626 1.880790849211783e-38 1768976227
23.621586 -92.000000 1.642201 1.880790849211783e-38 1768976227
23.621586 -92.000000 1.156796 1.880790849211783e-38 1768976227
23.621586 -91.999992 -2.804112 1.880790849211783e-38 1768976227
23.621586 -91.999992 -3.270101 1.880790849211783e-38 1768976227
23.621586 -92.000000 0.574309 1.880790849211783e-38 1768976227
23.621584 -91.999992 0.069487 1.880790849211783e-38 1768976227
23.326052 -92.000000 -0.551406 1.880790849211783e-38 1768976227
23.326050 -91.999992 -1.094643 1.880790849211783e-38 1768976227
23.326052 -92.000000 4.589930 1.880790849211783e-38 1768976227
23.326052 -92.000000 3.949689 1.880790849211783e-38 1768976227
23.326054 -92.000008 3.503460 1.880790849211783e-38 1768976227
23.326052 -92.000000 2.863217 1.880790849211783e-38 1768976227
23.326052 -92.000000 2.397587 1.880790849211783e-38 1768976227
23.326048 -91.999992 -1.696081 1.880790849211783e-38 1768976227
23.326052 -92.000000 -2.219917 1.880790849211783e-38 1768976227
23.326046 -91.999992 1.640937 1.880790849211783e-38 1768976227
23.326050 -91.999992 1.155906 1.880790849211783e-38 1768976227
23.326052 -92.000008 -2.801955 1.880790849211783e-38 1768976227
23.326050 -91.999992 -3.267586 1.880790849211783e-38 1768976227
23.326052 -92.000000 0.573867 1.880790849211783e-38 1768976227
23.326054 -92.000000 0.069433 1.880790849211783e-38 1768976227
23.030968 -92.000008 -0.550988 1.880790849211783e-38 1768976227
23.030968 -92.000000 -1.093812 1.880790849211783e-38 1768976227
23.030968 -92.000000 4.586444 1.880790849211783e-38 1768976227
23.030966 -91.999992 3.946689 1.880790849211783e-38 1768976227
23.030966 -92.000000 3.500798 1.880790849211783e-38 1768976227
23.030964 -91.999992 2.861042 1.880790849211783e-38 1768976227
23.030966 -91.999992 2.395765 1.880790849211783e-38 1768976227
23.030968 -91.999992 -1.694793 1.880790849211783e-38 1768976227
23.030970 -92.000015 -2.218231 1.880790849211783e-38 1768976227
23.030970 -92.000008 1.639691 1.880790849211783e-38 1768976227
23.030966 -92.000000 1.155028 1.880790849211783e-38 1768976227
23.030970 -92.000008 -2.799827 1.880790849211783e-38 1768976227
23.030964 -91.999992 -3.265104 1.880790849211783e-38 1768976227
23.030970 -92.000008 0.573432 1.880790849211783e-38 1768976227
23.030968 -92.000000 0.069381 1.880790849211783e-38 1768976227
22.736353 -92.000000 -0.550574 1.880790849211783e-38 1768976227
22.736353 -92.000000 -1.092991 1.880790849211783e-38 1768976227
22.736351 -91.999992 4.583004 1.880790849211783e-38 1768976227
22.736351 -92.000000 3.943730 1.880790849211783e-38 1768976227
22.736353 -92.000000 3.498173 1.880790849211783e-38 1768976227
22.736351 -91.999992 2.858897 1.880790849211783e-38 1768976227
22.736353 -92.000000 2.393969 1.880790849211783e-38 1768976227
22.736351 -92.000000 -1.693523 1.880790849211783e-38 1768976227
22.736349 -91.999992 -2.216567 1.880790849211783e-38 1768976227
22.736349 -91.999992 1.638461 1.880790849211783e-38 1768976227
22.736349 -91.999992 1.154162 1.880790849211783e-38 1768976227
22.736353 -92.000000 -2.797727 1.880790849211783e-38 1768976227
22.736353 -92.000008 -3.262656 1.880790849211783e-38 1768976227
22.736351 -92.000008 0.573002 1.880790849211783e-38 1768976227
22.736353 -92.000008 0.069329 1.880790849211783e-38 1768976227
22.442150 -91.999992 -0.550167 1.880790849211783e-38 1768976227
22.442150 -92.000000 -1.092182 1.880790849211783e-38 1768976227
22.442152 -92.000000 4.579612 1.880790849211783e-38 1768976227
22.442152 -92.000000 3.940810 1.880790849211783e-38 1768976227
22.442148 -91.999985 3.495583 1.880790849211783e-38 1768976227
22.442152 -91.999992 2.856781 1.880790849211783e-38 1768976227
22.442150 -91.999992 2.392197 1.880790849211783e-38 1768976227
22.442150 -91.999992 -1.692269 1.880790849211783e-38 1768976227
22.442152 -92.000000 -2.214927 1.880790849211783e-38 1768976227
22.442152 -91.999992 1.637249 1.880790849211783e-38 1768976227
22.442152 -91.999992 1.153307 1.880790849211783e-38 1768976227
22.442148 -91.999985 -2.795655 1.880790849211783e-38 1768976227
22.442152 -91.999992 -3.260240 1.880790849211783e-38 1768976227
22.442152 -92.000000 0.572577 1.880790849211783e-38 1768976227
22.442152 -92.000000 0.069277 1.880790849211783e-38 1768976227
22.148384 -91.999985 -0.549765 1.880790849211783e-38 1768976227
22.148382 -92.000000 -1.091384 1.880790849211783e-38 1768976227
22.148386 -92.000000 4.576266 1.880790849211783e-38 1768976227
22.148384 -92.000000 3.937931 1.880790849211783e-38 1768976227
22.148384 -91.999992 3.493030 1.880790849211783e-38 1768976227
22.148384 -91.999992 2.854693 1.880790849211783e-38 1768976227
22.148382 -91.999992 2.390449 1.880790849211783e-38 1768976227
22.148384 -92.000000 -1.691033 1.880790849211783e-38 1768976227
22.148386 -92.000000 -2.213308 1.880790849211783e-38 1768976227
22.148384 -92.000000 1.636052 1.880790849211783e-38 1768976227
22.148384 -92.000000 1.152465 1.880790849211783e-38 1768976227
22.148384 -92.000000 -2.793613 1.880790849211783e-38 1768976227
22.148382 -91.999992 -3.257858 1.880790849211783e-38 1768976227
22.148386 -92.000008 0.572159 1.880790849211783e-38 1768976227
22.148386 -92.000000 0.069227 1.880790849211783e-38 1768976227
21.855068 -92.000008 -0.549368 1.880790849211783e-38 1768976227
21.855066 -91.999992 -1.090597 1.880790849211783e-38 1768976227
21.855066 -92.000000 4.572966 1.880790849211783e-38 1768976227
21.855066 -91.999992 3.935092 1.880790849211783e-38 1768976227
21.855066 -92.000000 3.490511 1.880790849211783e-38 1768976227
21.855066 -92.000000 2.852635 1.880790849211783e-38 1768976227
21.855066 -92.000000 2.388726 1.880790849211783e-38 1768976227
21.855064 -91.999992 -1.689813 1.880790849211783e-38 1768976227
21.855066 -92.000000 -2.211713 1.880790849211783e-38 1768976227
21.855068 -91.999992 1.634873 1.880790849211783e-38 1768976227
21.855068 -92.000008 1.151634 1.880790849211783e-38 1768976227
21.855066 -92.000000 -2.791599 1.880790849211783e-38 1768976227
21.855068 -92.000008 -3.255510 1.880790849211783e-38 1768976227
21.855066 -91.999992 0.571747 1.880790849211783e-38 1768976227
21.855066 -91.999992 0.069177 1.880790849211783e-38 1768976227
21.562147 -92.000000 -0.548978 1.880790849211783e-38 1768976227
21.562147 -92.000000 -1.089822 1.880790849211783e-38 1768976227
21.562151 -92.000023 4.569714 1.880790849211783e-38 1768976227
21.562147 -92.000000 3.932292 1.880790849211783e-38 1768976227
21.562143 -91.999992 3.488028 1.880790849211783e-38 1768976227
21.562143 -91.999992 2.850606 1.880790849211783e-38 1768976227
21.562143 -91.999992 2.387026 1.880790849211783e-38 1768976227
21.562145 -91.999992 -1.688611 1.880790849211783e-38 1768976227
21.562143 -91.999992 -2.210139 1.880790849211783e-38 1768976227
21.562147 -92.000000 1.633710 1.880790849211783e-38 1768976227
21.562145 -92.000000 1.150815 1.880790849211783e-38 1768976227
21.562141 -91.999985 -2.789613 1.880790849211783e-38 1768976227
21.562145 -91.999992 -3.253194 1.880790849211783e-38 1768976227
21.562143 -91.999992 0.571340 1.880790849211783e-38 1768976227
21.562145 -92.000000 0.069128 1.880790849211783e-38 1768976227
21.269640 -92.000000 -0.548592 1.880790849211783e-38 1768976227
21.269636 -91.999985 -1.089057 1.880790849211783e-38 1768976227
21.269636 -91.999985 4.566505 1.880790849211783e-38 1768976227
21.269640 -92.000000 3.929533 1.880790849211783e-38 1768976227
21.269644 -92.000015 3.485581 1.880790849211783e-38 1768976227
21.269638 -92.000000 2.848605 1.880790849211783e-38 1768976227
21.269638 -91.999992 2.385351 1.880790849211783e-38 1768976227
21.269638 -91.999992 -1.687426 1.880790849211783e-38 1768976227
21.269636 -92.000000 -2.208588 1.880790849211783e-38 1768976227
21.269638 -92.000000 1.632563 1.880790849211783e-38 1768976227
21.269640 -92.000000 1.150007 1.880790849211783e-38 1768976227
21.269640 -92.000000 -2.787656 1.880790849211783e-38 1768976227
21.269638 -91.999992 -3.250910 1.880790849211783e-38 1768976227
21.269638 -91.999992 0.570939 1.880790849211783e-38 1768976227
21.269638 -91.999992 0.069079 1.880790849211783e-38 1768976227
20.977541 -92.000000 -0.548213 1.880790849211783e-38 1768976227
20.977537 -92.000000 -1.088303 1.880790849211783e-38 1768976227
20.977539 -92.000000 4.563345 1.880790849211783e-38 1768976227
20.977539 -92.000000 3.926813 1.880790849211783e-38 1768976227
20.977541 -92.000008 3.483168 1.880790849211783e-38 1768976227
20.977541 -92.000000 2.846634 1.880790849211783e-38 1768976227
20.977535 -91.999992 2.383699 1.880790849211783e-38 1768976227
20.977539 -91.999992 -1.686258 1.880790849211783e-38 1768976227
20.977539 -92.000000 -2.207059 1.880790849211783e-38 1768976227
20.977537 -91.999992 1.631433 1.880790849211783e-38 1768976227
20.977539 -92.000000 1.149211 1.880790849211783e-38 1768976227
20.977539 -92.000000 -2.785726 1.880790849211783e-38 1768976227
20.977539 -91.999992 -3.248660 1.880790849211783e-38 1768976227
20.977541 -92.000000 0.570544 1.880790849211783e-38 1768976227
20.977539 -92.000000 0.069031 1.880790849211783e-38 1768976227
20.685863 -92.000000 -0.547838 1.880790849211783e-38 1768976227
20.685865 -91.999992 -1.087560 1.880790849211783e-38 1768976227
20.685863 -92.000000 4.560230 1.880790849211783e-38 1768976227
20.685863 -92.000000 3.924132 1.880790849211783e-38 1768976227
20.685863 -92.000000 3.480790 1.880790849211783e-38 1768976227
20.685862 -91.999992 2.844690 1.880790849211783e-38 1768976227
20.685865 -92.000008 2.382073 1.880790849211783e-38 1768976227
