# .PCD v0.7 - Point Cloud Data file format
VERSION 0.7
FIELDS x y z rgb label
SIZE 4 4 4 4 4
TYPE F F F F U
COUNT 1 1 1 1 1
WIDTH 758
HEIGHT 1
VIEWPOINT 0 0 0 1 0 0 0
POINTS 758
DATA ascii
-37.642235 -36.395401 4.394497 1.880790849211783e-38 1768976227
-41.700836 -40.319569 2.413874 1.880790849211783e-38 1768976227
-40.550774 -39.207600 4.376616 1.880790849211783e-38 1768976227
-40.656502 -39.309826 4.029658 1.880790849211783e-38 1768976227
-40.742165 -39.392651 3.748533 1.880790849211783e-38 1768976227
-41.592724 -40.215034 3.460169 1.880790849211783e-38 1768976227
-4.625137 -4.471938 2.680317 1.880790849211783e-38 1768976227
-4.633365 -4.479893 2.632387 1.880790849211783e-38 1768976227
-36.302704 -35.100243 10.137465 1.880790849211783e-38 1768976227
-36.208931 -35.009571 9.586202 1.880790849211783e-38 1768976227
-4.643070 -4.489277 2.575851 1.880790849211783e-38 1768976227
-4.654272 -4.500107 2.510602 1.880790849211783e-38 1768976227
-4.577985 -4.426347 2.954987 1.880790849211783e-38 1768976227
-4.591099 -4.439026 2.878598 1.880790849211783e-38 1768976227
-4.665110 -4.510586 2.447472 1.880790849211783e-38 1768976227
-4.678307 -4.523346 2.370591 1.880790849211783e-38 1768976227
-4.601847 -4.449418 2.815987 1.880790849211783e-38 1768976227
-4.615916 -4.463022 2.734035 1.880790849211783e-38 1768976227
-4.751061 -4.593690 1.946795 1.880790849211783e-38 1768976227
-4.759092 -4.601455 1.900018 1.880790849211783e-38 1768976227
-4.690313 -4.534955 2.300657 1.880790849211783e-38 1768976227
-4.696869 -4.541293 2.262472 1.880790849211783e-38 1768976227
-4.769549 -4.611567 1.839096 1.880790849211783e-38 1768976227
-4.775263 -4.617091 1.781556 1.880790849211783e-38 1768976227
-4.705992 -4.550114 2.209329 1.880790849211783e-38 1768976227
-4.716004 -4.559794 2.151005 1.880790849211783e-38 1768976227
-4.780611 -4.622261 1.715586 1.880790849211783e-38 1768976227
-4.786830 -4.628274 1.638875 1.880790849211783e-38 1768976227
-4.727346 -4.570761 2.084937 1.880790849211783e-38 1768976227
-4.739389 -4.582405 2.014783 1.880790849211783e-38 1768976227
-36.146046 -34.948772 9.168721 1.880790849211783e-38 1768976227
-35.506065 -34.329990 8.562171 1.880790849211783e-38 1768976227
-4.792634 -4.633886 1.567274 1.880790849211783e-38 1768976227
-4.795864 -4.637009 1.527421 1.880790849211783e-38 1768976227
-35.100830 -33.938175 8.065228 1.880790849211783e-38 1768976227
-34.556515 -33.411888 7.517650 1.880790849211783e-38 1768976227
-4.800935 -4.641912 1.464876 1.880790849211783e-38 1768976227
-4.804825 -4.645674 1.416880 1.880790849211783e-38 1768976227
-37.885490 -36.410160 6.558269 1.880790849211783e-38 1768976227
-38.166054 -36.679798 6.336322 1.880790849211783e-38 1768976227
-38.341969 -36.848862 6.050282 1.880790849211783e-38 1768976227
-38.428322 -36.931854 5.693480 1.880790849211783e-38 1768976227
-34.399891 -33.060295 7.154487 1.880790849211783e-38 1768976227
-36.550087 -35.126762 7.270085 1.880790849211783e-38 1768976227
-38.068069 -36.585629 5.402663 1.880790849211783e-38 1768976227
-39.412380 -37.877590 5.235882 1.880790849211783e-38 1768976227
-37.641361 -36.175537 7.199008 1.880790849211783e-38 1768976227
-37.463093 -36.004208 6.867516 1.880790849211783e-38 1768976227
-41.787209 -40.159935 3.087145 1.880790849211783e-38 1768976227
-41.812336 -40.184086 2.804495 1.880790849211783e-38 1768976227
-39.510128 -37.971531 4.845607 1.880790849211783e-38 1768976227
-38.018585 -36.538074 4.425548 1.880790849211783e-38 1768976227
-41.846939 -40.217342 2.415298 1.880790849211783e-38 1768976227
-41.871086 -40.240547 2.143658 1.880790849211783e-38 1768976227
-40.561222 -38.981689 4.365034 1.880790849211783e-38 1768976227
-40.666691 -39.083061 4.018967 1.880790849211783e-38 1768976227
-40.752148 -39.165184 3.738567 1.880790849211783e-38 1768976227
-41.744259 -40.118660 3.462694 1.880790849211783e-38 1768976227
-4.633163 -4.452740 2.677174 1.880790849211783e-38 1768976227
-4.641396 -4.460652 2.629295 1.880790849211783e-38 1768976227
-36.365925 -34.949768 10.125638 1.880790849211783e-38 1768976227
-36.326538 -34.911915 9.589417 1.880790849211783e-38 1768976227
-4.651108 -4.469985 2.572819 1.880790849211783e-38 1768976227
-4.662314 -4.480755 2.507639 1.880790849211783e-38 1768976227
-4.585984 -4.407397 2.951556 1.880790849211783e-38 1768976227
-4.599105 -4.420008 2.875247 1.880790849211783e-38 1768976227
-4.673158 -4.491177 2.444577 1.880790849211783e-38 1768976227
-4.686364 -4.503868 2.367779 1.880790849211783e-38 1768976227
-4.609860 -4.430344 2.812702 1.880790849211783e-38 1768976227
-4.623937 -4.443872 2.730834 1.880790849211783e-38 1768976227
-4.759154 -4.573824 1.944450 1.880790849211783e-38 1768976227
-4.767188 -4.581545 1.897725 1.880790849211783e-38 1768976227
-4.698376 -4.515412 2.297921 1.880790849211783e-38 1768976227
-4.704935 -4.521716 2.259778 1.880790849211783e-38 1768976227
-4.777652 -4.591601 1.836872 1.880790849211783e-38 1768976227
-4.787283 -4.600858 1.780856 1.880790849211783e-38 1768976227
-4.714062 -4.530487 2.206692 1.880790849211783e-38 1768976227
-4.724079 -4.540115 2.148432 1.880790849211783e-38 1768976227
-4.796731 -4.609937 1.716373 1.880790849211783e-38 1768976227
-4.802972 -4.615936 1.639628 1.880790849211783e-38 1768976227
-4.735427 -4.551020 2.082437 1.880790849211783e-38 1768976227
-4.747477 -4.562602 2.012362 1.880790849211783e-38 1768976227
-36.314568 -34.900414 9.184727 1.880790849211783e-38 1768976227
-36.112137 -34.705860 8.683042 1.880790849211783e-38 1768976227
-4.808800 -4.621536 1.567995 1.880790849211783e-38 1768976227
-4.812043 -4.624653 1.528124 1.880790849211783e-38 1768976227
-35.334003 -33.958035 8.095236 1.880790849211783e-38 1768976227
-34.723492 -33.371300 7.532046 1.880790849211783e-38 1768976227
-4.817132 -4.629544 1.465551 1.880790849211783e-38 1768976227
-4.821038 -4.633298 1.417534 1.880790849211783e-38 1768976227
-37.444405 -35.769653 6.463211 1.880790849211783e-38 1768976227
-38.182709 -36.474941 6.320796 1.880790849211783e-38 1768976227
-38.358265 -36.642643 6.035389 1.880790849211783e-38 1768976227
-38.518246 -36.795467 5.690336 1.880790849211783e-38 1768976227
-34.565388 -33.019409 7.168164 1.880790849211783e-38 1768976227
-36.598461 -34.961548 7.258701 1.880790849211783e-38 1768976227
-38.564789 -36.839928 5.457366 1.880790849211783e-38 1768976227
-38.132149 -36.426640 5.051189 1.880790849211783e-38 1768976227
-36.721069 -35.078671 7.002736 1.880790849211783e-38 1768976227
-36.469124 -34.837997 6.666018 1.880790849211783e-38 1768976227
-41.933216 -40.057697 3.088993 1.880790849211783e-38 1768976227
-41.958443 -40.081795 2.806175 1.880790849211783e-38 1768976227
-39.598461 -37.827366 4.842428 1.880790849211783e-38 1768976227
-39.658516 -37.884739 4.603124 1.880790849211783e-38 1768976227
-41.993191 -40.114990 2.416746 1.880790849211783e-38 1768976227
-42.017433 -40.138149 2.144944 1.880790849211783e-38 1768976227
-38.075359 -36.372387 4.085692 1.880790849211783e-38 1768976227
-40.676819 -38.857494 4.008368 1.880790849211783e-38 1768976227
-40.762070 -38.938934 3.728687 1.880790849211783e-38 1768976227
-41.543934 -39.685829 3.436134 1.880790849211783e-38 1768976227
-4.641167 -4.433585 2.674060 1.880790849211783e-38 1768976227
-4.649404 -4.441453 2.626231 1.880790849211783e-38 1768976227
-36.395992 -34.768135 10.104770 1.880790849211783e-38 1768976227
-36.444172 -34.814156 9.592710 1.880790849211783e-38 1768976227
-4.659120 -4.450735 2.569815 1.880790849211783e-38 1768976227
-4.670334 -4.461447 2.504705 1.880790849211783e-38 1768976227
-4.593960 -4.388490 2.948159 1.880790849211783e-38 1768976227
-4.607089 -4.401031 2.871927 1.880790849211783e-38 1768976227
-4.681183 -4.471812 2.441709 1.880790849211783e-38 1768976227
-4.694396 -4.484433 2.364994 1.880790849211783e-38 1768976227
-4.617850 -4.411311 2.809447 1.880790849211783e-38 1768976227
-4.631934 -4.424766 2.727665 1.880790849211783e-38 1768976227
-4.767223 -4.554003 1.942127 1.880790849211783e-38 1768976227
-4.775261 -4.561682 1.895454 1.880790849211783e-38 1768976227
-4.706413 -4.495913 2.295211 1.880790849211783e-38 1768976227
-4.712976 -4.502182 2.257108 1.880790849211783e-38 1768976227
-4.785730 -4.571682 1.834669 1.880790849211783e-38 1768976227
-4.795367 -4.580888 1.778716 1.880790849211783e-38 1768976227
-4.722108 -4.510906 2.204081 1.880790849211783e-38 1768976227
-4.732131 -4.520481 2.145885 1.880790849211783e-38 1768976227
-4.806365 -4.591394 1.714858 1.880790849211783e-38 1768976227
-4.819129 -4.603587 1.640396 1.880790849211783e-38 1768976227
-4.743485 -4.531326 2.079962 1.880790849211783e-38 1768976227
-4.755540 -4.542843 2.009963 1.880790849211783e-38 1768976227
-36.483711 -34.851933 9.200881 1.880790849211783e-38 1768976227
-36.279976 -34.657307 8.698228 1.880790849211783e-38 1768976227
-4.824977 -4.609173 1.568730 1.880790849211783e-38 1768976227
-4.828233 -4.612284 1.528841 1.880790849211783e-38 1768976227
-35.460094 -33.874096 8.100682 1.880790849211783e-38 1768976227
-34.891171 -33.330620 7.546579 1.880790849211783e-38 1768976227
-4.833342 -4.617165 1.466240 1.880790849211783e-38 1768976227
-4.837262 -4.620910 1.418200 1.880790849211783e-38 1768976227
-37.863182 -35.951923 6.516749 1.880790849211783e-38 1768976227
-37.836308 -35.926411 6.245487 1.880790849211783e-38 1768976227
-38.374447 -36.437386 6.020617 1.880790849211783e-38 1768976227
-38.540295 -36.594860 5.677262 1.880790849211783e-38 1768976227
-34.731598 -32.978416 7.181973 1.880790849211783e-38 1768976227
-34.404785 -32.668098 6.804049 1.880790849211783e-38 1768976227
-38.586750 -36.638969 5.444812 1.880790849211783e-38 1768976227
-38.722969 -36.768311 5.114739 1.880790849211783e-38 1768976227
-36.753693 -34.898438 6.988853 1.880790849211783e-38 1768976227
-37.971355 -36.054638 6.920695 1.880790849211783e-38 1768976227
-42.079399 -39.955318 3.090870 1.880790849211783e-38 1768976227
-42.104740 -39.979378 2.807882 1.880790849211783e-38 1768976227
-39.554447 -37.557816 4.823171 1.880790849211783e-38 1768976227
-39.728172 -37.722771 4.597982 1.880790849211783e-38 1768976227
-42.138023 -40.010983 2.418126 1.880790849211783e-38 1768976227
-42.160294 -40.032127 2.146063 1.880790849211783e-38 1768976227
-39.831913 -37.821285 4.261920 1.880790849211783e-38 1768976227
-40.477116 -38.433910 3.977248 1.880790849211783e-38 1768976227
-40.734249 -38.678066 3.715455 1.880790849211783e-38 1768976227
-41.532852 -39.436359 3.425364 1.880790849211783e-38 1768976227
-4.649148 -4.414468 2.670975 1.880790849211783e-38 1768976227
-4.657391 -4.422295 2.623197 1.880790849211783e-38 1768976227
-4.859529 -4.614230 1.345301 1.880790849211783e-38 1768976227
-36.561844 -34.716274 9.596081 1.880790849211783e-38 1768976227
-4.667112 -4.431525 2.566839 1.880790849211783e-38 1768976227
-4.678331 -4.442179 2.501797 1.880790849211783e-38 1768976227
-4.601914 -4.369619 2.944792 1.880790849211783e-38 1768976227
-4.615051 -4.382092 2.868639 1.880790849211783e-38 1768976227
-4.689187 -4.452486 2.438868 1.880790849211783e-38 1768976227
-4.702406 -4.465038 2.362234 1.880790849211783e-38 1768976227
-4.625817 -4.392316 2.806222 1.880790849211783e-38 1768976227
-4.639910 -4.405697 2.724524 1.880790849211783e-38 1768976227
-4.775272 -4.534226 1.939826 1.880790849211783e-38 1768976227
-4.783314 -4.541862 1.893204 1.880790849211783e-38 1768976227
-4.714431 -4.476456 2.292526 1.880790849211783e-38 1768976227
-4.720997 -4.482690 2.254465 1.880790849211783e-38 1768976227
-4.793788 -4.551807 1.832487 1.880790849211783e-38 1768976227
-4.803430 -4.560962 1.776596 1.880790849211783e-38 1768976227
-4.730134 -4.491367 2.201495 1.880790849211783e-38 1768976227
-4.740162 -4.500889 2.143361 1.880790849211783e-38 1768976227
-4.814433 -4.571410 1.712810 1.880790849211783e-38 1768976227
-4.827260 -4.583590 1.638451 1.880790849211783e-38 1768976227
-4.751522 -4.511674 2.077510 1.880790849211783e-38 1768976227
-4.763583 -4.523128 2.007588 1.880790849211783e-38 1768976227
-36.794258 -34.936958 9.252583 1.880790849211783e-38 1768976227
-36.448456 -34.608608 8.713556 1.880790849211783e-38 1768976227
-4.839264 -4.594987 1.568862 1.880790849211783e-38 1768976227
-4.844439 -4.599902 1.529573 1.880790849211783e-38 1768976227
-35.586506 -33.790173 8.106243 1.880790849211783e-38 1768976227
-35.059582 -33.289845 7.561255 1.880790849211783e-38 1768976227
-4.849568 -4.604772 1.466943 1.880790849211783e-38 1768976227
-4.853504 -4.608509 1.418880 1.880790849211783e-38 1768976227
-37.817039 -35.691845 6.490251 1.880790849211783e-38 1768976227
-38.132427 -35.989506 6.276421 1.880790849211783e-38 1768976227
-38.134083 -35.991066 5.965847 1.880790849211783e-38 1768976227
-38.467487 -36.305740 5.650382 1.880790849211783e-38 1768976227
-34.898510 -32.937332 7.195914 1.880790849211783e-38 1768976227
-34.569508 -32.626812 6.817134 1.880790849211783e-38 1768976227
-38.608616 -36.438934 5.432365 1.880790849211783e-38 1768976227
-39.749046 -37.515274 5.235300 1.880790849211783e-38 1768976227
-36.795147 -34.727375 6.976787 1.880790849211783e-38 1768976227
-38.047237 -35.909107 6.914755 1.880790849211783e-38 1768976227
-41.636696 -39.296848 3.049633 1.880790849211783e-38 1768976227
-42.247494 -39.873322 2.809370 1.880790849211783e-38 1768976227
-38.730618 -36.554081 4.709251 1.880790849211783e-38 1768976227
-39.569057 -37.345402 4.566510 1.880790849211783e-38 1768976227
-42.279537 -39.903564 2.419329 1.880790849211783e-38 1768976227
-42.301907 -39.924671 2.147133 1.880790849211783e-38 1768976227
-39.813786 -37.576378 4.247835 1.880790849211783e-38 1768976227
-41.322292 -39.000114 4.048719 1.880790849211783e-38 1768976227
-41.411125 -39.083954 3.766425 1.880790849211783e-38 1768976227
-41.521824 -39.188423 3.414691 1.880790849211783e-38 1768976227
-4.657107 -4.395392 2.667920 1.880790849211783e-38 1768976227
-4.665354 -4.403176 2.620190 1.880790849211783e-38 1768976227
-4.875807 -4.601803 1.345959 1.880790849211783e-38 1768976227
-36.647282 -34.587822 9.591083 1.880790849211783e-38 1768976227
-4.675081 -4.412356 2.563891 1.880790849211783e-38 1768976227
-4.686307 -4.422952 2.498918 1.880790849211783e-38 1768976227
-4.609847 -4.350788 2.941458 1.880790849211783e-38 1768976227
-4.622990 -4.363193 2.865381 1.880790849211783e-38 1768976227
-4.697168 -4.433202 2.436054 1.880790849211783e-38 1768976227
-4.710395 -4.445687 2.359502 1.880790849211783e-38 1768976227
-4.633763 -4.373361 2.803028 1.880790849211783e-38 1768976227
-4.647865 -4.386670 2.721414 1.880790849211783e-38 1768976227
-4.783299 -4.514493 1.937547 1.880790849211783e-38 1768976227
-4.791345 -4.522087 1.890976 1.880790849211783e-38 1768976227
-4.722426 -4.457041 2.289867 1.880790849211783e-38 1768976227
-4.728995 -4.463241 2.251846 1.880790849211783e-38 1768976227
-4.801824 -4.531976 1.830325 1.880790849211783e-38 1768976227
-4.811471 -4.541081 1.774496 1.880790849211783e-38 1768976227
-4.738137 -4.471869 2.198932 1.880790849211783e-38 1768976227
-4.748171 -4.481339 2.140861 1.880790849211783e-38 1768976227
-4.822479 -4.551471 1.710781 1.880790849211783e-38 1768976227
-4.835312 -4.563583 1.636505 1.880790849211783e-38 1768976227
-4.759536 -4.492065 2.075081 1.880790849211783e-38 1768976227
-4.771605 -4.503456 2.005235 1.880790849211783e-38 1768976227
-36.912796 -34.838417 9.255927 1.880790849211783e-38 1768976227
-36.617569 -34.559776 8.729028 1.880790849211783e-38 1768976227
-4.847322 -4.574918 1.566995 1.880790849211783e-38 1768976227
-4.854019 -4.581239 1.528228 1.880790849211783e-38 1768976227
-35.713238 -33.706264 8.111917 1.880790849211783e-38 1768976227
-35.228733 -33.248989 7.576074 1.880790849211783e-38 1768976227
-4.864550 -4.591178 1.467279 1.880790849211783e-38 1768976227
-4.869759 -4.596094 1.419574 1.880790849211783e-38 1768976227
-38.340981 -35.968319 6.561523 1.880790849211783e-38 1768976227
-38.055622 -35.700615 6.246027 1.880790849211783e-38 1768976227
-38.331333 -35.959267 5.979712 1.880790849211783e-38 1768976227
-38.550922 -36.165268 5.646591 1.880790849211783e-38 1768976227
-35.074909 -32.904362 7.211790 1.880790849211783e-38 1768976227
-34.741623 -32.591702 6.831661 1.880790849211783e-38 1768976227
-38.694363 -36.299831 5.429001 1.880790849211783e-38 1768976227
-39.227551 -36.800026 5.151973 1.880790849211783e-38 1768976227
-36.791626 -34.514843 6.956350 1.880790849211783e-38 1768976227
-38.122963 -35.763790 6.908883 1.880790849211783e-38 1768976227
-41.613514 -39.038338 3.039297 1.880790849211783e-38 1768976227
-42.389030 -39.765862 2.810793 1.880790849211783e-38 1768976227
-39.137699 -36.715733 4.745262 1.880790849211783e-38 1768976227
-39.132423 -36.710785 4.503322 1.880790849211783e-38 1768976227
-42.421204 -39.796043 2.420557 1.880790849211783e-38 1768976227
-42.443657 -39.817108 2.148222 1.880790849211783e-38 1768976227
-39.654163 -37.200241 4.218815 1.880790849211783e-38 1768976227
-41.302238 -38.746326 4.035286 1.880790849211783e-38 1768976227
-42.475910 -39.847366 1.756978 1.880790849211783e-38 1768976227
-41.169182 -38.621498 3.733808 1.880790849211783e-38 1768976227
-41.499786 -38.931644 3.403207 1.880790849211783e-38 1768976227
-4.665044 -4.376357 2.664893 1.880790849211783e-38 1768976227
-4.673296 -4.384097 2.617213 1.880790849211783e-38 1768976227
-4.892101 -4.589363 1.346630 1.880790849211783e-38 1768976227
-36.726807 -34.454037 9.584657 1.880790849211783e-38 1768976227
-4.683028 -4.393227 2.560971 1.880790849211783e-38 1768976227
-4.694260 -4.403764 2.496065 1.880790849211783e-38 1768976227
-4.617757 -4.331995 2.938155 1.880790849211783e-38 1768976227
-4.630908 -4.344333 2.862155 1.880790849211783e-38 1768976227
-4.705128 -4.413960 2.433267 1.880790849211783e-38 1768976227
-4.718361 -4.426374 2.356794 1.880790849211783e-38 1768976227
-4.641687 -4.354445 2.799864 1.880790849211783e-38 1768976227
-4.655797 -4.367681 2.718333 1.880790849211783e-38 1768976227
-4.791304 -4.494803 1.935289 1.880790849211783e-38 1768976227
-4.799354 -4.502355 1.888769 1.880790849211783e-38 1768976227
-4.730399 -4.437667 2.287232 1.880790849211783e-38 1768976227
-4.736972 -4.443834 2.249252 1.880790849211783e-38 1768976227
-4.809838 -4.512190 1.828185 1.880790849211783e-38 1768976227
-4.819489 -4.521244 1.772416 1.880790849211783e-38 1768976227
-4.746119 -4.452414 2.196394 1.880790849211783e-38 1768976227
-4.756158 -4.461832 2.138385 1.880790849211783e-38 1768976227
-4.830503 -4.531576 1.708771 1.880790849211783e-38 1768976227
-4.843342 -4.543621 1.634577 1.880790849211783e-38 1768976227
-4.767529 -4.472499 2.072675 1.880790849211783e-38 1768976227
-4.779603 -4.483825 2.002904 1.880790849211783e-38 1768976227
-37.017464 -34.726704 9.255867 1.880790849211783e-38 1768976227
-36.787312 -34.510796 8.744639 1.880790849211783e-38 1768976227
-4.855358 -4.554893 1.565144 1.880790849211783e-38 1768976227
-4.862060 -4.561179 1.526422 1.880790849211783e-38 1768976227
-36.580315 -34.316608 8.285318 1.880790849211783e-38 1768976227
-35.409458 -33.218208 7.593359 1.880790849211783e-38 1768976227
-4.872595 -4.571063 1.465541 1.880790849211783e-38 1768976227
-4.880695 -4.578662 1.418730 1.880790849211783e-38 1768976227
-38.416779 -35.822224 6.555977 1.880790849211783e-38 1768976227
-37.171059 -34.660637 6.083662 1.880790849211783e-38 1768976227
-38.157711 -35.580654 5.935861 1.880790849211783e-38 1768976227
-38.527523 -35.925488 5.627267 1.880790849211783e-38 1768976227
-35.279366 -32.896702 7.233397 1.880790849211783e-38 1768976227
-34.943142 -32.583191 6.851934 1.880790849211783e-38 1768976227
-38.670376 -36.058693 5.410353 1.880790849211783e-38 1768976227
-39.393219 -36.732719 5.159159 1.880790849211783e-38 1768976227
-36.714249 -34.234680 6.922168 1.880790849211783e-38 1768976227
-36.976040 -34.478790 6.682156 1.880790849211783e-38 1768976227
-41.586323 -38.777710 3.028756 1.880790849211783e-38 1768976227
-41.671684 -38.857307 2.755444 1.880790849211783e-38 1768976227
-39.313969 -36.658821 4.753208 1.880790849211783e-38 1768976227
-39.258919 -36.607491 4.505154 1.880790849211783e-38 1768976227
-42.563004 -39.688427 2.421807 1.880790849211783e-38 1768976227
-42.585537 -39.709438 2.149333 1.880790849211783e-38 1768976227
-39.181614 -36.535404 4.156799 1.880790849211783e-38 1768976227
-39.739136 -37.055271 3.871632 1.880790849211783e-38 1768976227
-42.617920 -39.739632 1.757887 1.880790849211783e-38 1768976227
-41.363926 -38.570332 3.740904 1.880790849211783e-38 1768976227
-41.318062 -38.527565 3.378762 1.880790849211783e-38 1768976227
-4.672959 -4.357361 2.661896 1.880790849211783e-38 1768976227
-4.681216 -4.365060 2.614264 1.880790849211783e-38 1768976227
-4.901156 -4.570147 1.345323 1.880790849211783e-38 1768976227
-36.806156 -34.320381 9.578310 1.880790849211783e-38 1768976227
-4.690953 -4.374140 2.558080 1.880790849211783e-38 1768976227
-4.702192 -4.384620 2.493240 1.880790849211783e-38 1768976227
-4.625643 -4.313241 2.934883 1.880790849211783e-38 1768976227
-4.638803 -4.325512 2.858959 1.880790849211783e-38 1768976227
-4.713065 -4.394759 2.430507 1.880790849211783e-38 1768976227
-4.726306 -4.407105 2.354113 1.880790849211783e-38 1768976227
-4.649589 -4.335570 2.796731 1.880790849211783e-38 1768976227
-4.663706 -4.348733 2.715281 1.880790849211783e-38 1768976227
-4.799287 -4.475157 1.933054 1.880790849211783e-38 1768976227
-4.807341 -4.482667 1.886583 1.880790849211783e-38 1768976227
-4.738351 -4.418336 2.284624 1.880790849211783e-38 1768976227
-4.744926 -4.424468 2.246683 1.880790849211783e-38 1768976227
-4.817831 -4.492449 1.826065 1.880790849211783e-38 1768976227
-4.827486 -4.501452 1.770357 1.880790849211783e-38 1768976227
-4.754078 -4.433003 2.193881 1.880790849211783e-38 1768976227
-4.764122 -4.442368 2.135932 1.880790849211783e-38 1768976227
-4.838506 -4.511728 1.706781 1.880790849211783e-38 1768976227
-4.851352 -4.523706 1.632668 1.880790849211783e-38 1768976227
-4.775499 -4.452976 2.070293 1.880790849211783e-38 1768976227
-4.787580 -4.464242 2.000596 1.880790849211783e-38 1768976227
-37.097240 -34.591805 9.249689 1.880790849211783e-38 1768976227
-36.958309 -34.462257 8.760542 1.880790849211783e-38 1768976227
-4.863373 -4.534915 1.563312 1.880790849211783e-38 1768976227
-4.870077 -4.541166 1.524632 1.880790849211783e-38 1768976227
-36.562164 -34.092861 8.257882 1.880790849211783e-38 1768976227
-35.616882 -33.211422 7.616327 1.880790849211783e-38 1768976227
-4.880618 -4.550995 1.463819 1.880790849211783e-38 1768976227
-4.888722 -4.558553 1.417060 1.880790849211783e-38 1768976227
-38.459301 -35.645638 6.544858 1.880790849211783e-38 1768976227
-38.627247 -35.801296 6.304291 1.880790849211783e-38 1768976227
-37.958450 -35.181427 5.888331 1.880790849211783e-38 1768976227
-38.504242 -35.687286 5.608121 1.880790849211783e-38 1768976227
-35.485142 -32.889065 7.255218 1.880790849211783e-38 1768976227
-35.145947 -32.574680 6.872405 1.880790849211783e-38 1768976227
-38.646523 -35.819157 5.391877 1.880790849211783e-38 1768976227
-38.855362 -36.012722 5.074470 1.880790849211783e-38 1768976227
-36.637569 -33.957180 6.888371 1.880790849211783e-38 1768976227
-37.848255 -35.079292 6.820629 1.880790849211783e-38 1768976227
-41.328293 -38.304733 3.001536 1.880790849211783e-38 1768976227
-41.644321 -38.597641 2.745924 1.880790849211783e-38 1768976227
-39.474117 -36.586208 4.759208 1.880790849211783e-38 1768976227
-39.427002 -36.542538 4.511774 1.880790849211783e-38 1768976227
-42.660473 -39.539452 2.420557 1.880790849211783e-38 1768976227
-42.707531 -39.583069 2.149455 1.880790849211783e-38 1768976227
-39.357689 -36.478294 4.163788 1.880790849211783e-38 1768976227
-39.280201 -36.406479 3.816206 1.880790849211783e-38 1768976227
-42.760082 -39.631771 1.758812 1.880790849211783e-38 1768976227
-42.783752 -39.653709 1.473601 1.880790849211783e-38 1768976227
-41.031734 -38.029869 3.700471 1.880790849211783e-38 1768976227
-41.446514 -38.414303 3.379776 1.880790849211783e-38 1768976227
-4.680853 -4.338404 2.658927 1.880790849211783e-38 1768976227
-4.689114 -4.346060 2.611343 1.880790849211783e-38 1768976227
-4.909168 -4.550016 1.343749 1.880790849211783e-38 1768976227
-36.885345 -34.186829 9.572042 1.880790849211783e-38 1768976227
-4.698858 -4.355092 2.555216 1.880790849211783e-38 1768976227
-4.710102 -4.365513 2.490442 1.880790849211783e-38 1768976227
-4.633510 -4.294523 2.931643 1.880790849211783e-38 1768976227
-4.646677 -4.306728 2.855793 1.880790849211783e-38 1768976227
-4.720982 -4.375597 2.427773 1.880790849211783e-38 1768976227
-4.734231 -4.387876 2.351458 1.880790849211783e-38 1768976227
-4.657469 -4.316730 2.793627 1.880790849211783e-38 1768976227
-4.671595 -4.329823 2.712259 1.880790849211783e-38 1768976227
-4.807250 -4.455553 1.930840 1.880790849211783e-38 1768976227
-4.815308 -4.463022 1.884419 1.880790849211783e-38 1768976227
-4.746281 -4.399045 2.282040 1.880790849211783e-38 1768976227
-4.752861 -4.405143 2.244139 1.880790849211783e-38 1768976227
-4.825803 -4.472749 1.823965 1.880790849211783e-38 1768976227
-4.835464 -4.481703 1.768317 1.880790849211783e-38 1768976227
-4.762017 -4.413630 2.191391 1.880790849211783e-38 1768976227
-4.772066 -4.422944 2.133504 1.880790849211783e-38 1768976227
-4.846488 -4.491921 1.704810 1.880790849211783e-38 1768976227
-4.859340 -4.503832 1.630778 1.880790849211783e-38 1768976227
-4.783450 -4.433495 2.067933 1.880790849211783e-38 1768976227
-4.795536 -4.444696 1.998310 1.880790849211783e-38 1768976227
-37.176868 -34.457020 9.243588 1.880790849211783e-38 1768976227
-37.511341 -34.767025 8.866736 1.880790849211783e-38 1768976227
-4.871367 -4.514979 1.561497 1.880790849211783e-38 1768976227
-4.878075 -4.521196 1.522860 1.880790849211783e-38 1768976227
-36.544067 -33.870522 8.230685 1.880790849211783e-38 1768976227
-35.829277 -33.208023 7.640294 1.880790849211783e-38 1768976227
-4.888620 -4.530971 1.462114 1.880790849211783e-38 1768976227
-4.896728 -4.538486 1.415407 1.880790849211783e-38 1768976227
-37.997360 -35.005039 6.448250 1.880790849211783e-38 1768976227
-38.664028 -35.619202 6.292732 1.880790849211783e-38 1768976227
-38.860516 -35.800220 6.011488 1.880790849211783e-38 1768976227
-38.278141 -35.263706 5.559674 1.880790849211783e-38 1768976227
-35.692242 -32.881447 7.277251 1.880790849211783e-38 1768976227
-35.350033 -32.566193 6.893075 1.880790849211783e-38 1768976227
-38.622810 -35.581230 5.373572 1.880790849211783e-38 1768976227
-38.830807 -35.772850 5.057150 1.880790849211783e-38 1768976227
-35.066364 -32.304855 6.574613 1.880790849211783e-38 1768976227
-36.911716 -34.004890 6.633343 1.880790849211783e-38 1768976227
-41.433659 -38.170727 3.000814 1.880790849211783e-38 1768976227
-41.499245 -38.231144 2.728743 1.880790849211783e-38 1768976227
-39.632355 -36.511272 4.764987 1.880790849211783e-38 1768976227
-39.584991 -36.467640 4.517247 1.880790849211783e-38 1768976227
-42.728069 -39.363201 2.417645 1.880790849211783e-38 1768976227
-42.775146 -39.406570 2.146866 1.880790849211783e-38 1768976227
-39.518452 -36.406342 4.169161 1.880790849211783e-38 1768976227
-39.452129 -36.345242 3.822241 1.880790849211783e-38 1768976227
-42.842880 -39.468971 1.757314 1.880790849211783e-38 1768976227
-42.892269 -39.514469 1.473227 1.880790849211783e-38 1768976227
-39.393757 -36.291466 3.542862 1.880790849211783e-38 1768976227
-40.937698 -37.713821 3.328994 1.880790849211783e-38 1768976227
-4.688725 -4.319485 2.655987 1.880790849211783e-38 1768976227
-4.696991 -4.327100 2.608450 1.880790849211783e-38 1768976227
-35.745476 -32.930489 9.757106 1.880790849211783e-38 1768976227
-36.877819 -33.973663 9.543455 1.880790849211783e-38 1768976227
-4.706740 -4.336081 2.552379 1.880790849211783e-38 1768976227
-4.717991 -4.346446 2.487671 1.880790849211783e-38 1768976227
-4.641355 -4.275844 2.928434 1.880790849211783e-38 1768976227
-4.654530 -4.287982 2.852658 1.880790849211783e-38 1768976227
-4.728877 -4.356474 2.425065 1.880790849211783e-38 1768976227
-4.742133 -4.368686 2.348827 1.880790849211783e-38 1768976227
-4.665329 -4.297930 2.790553 1.880790849211783e-38 1768976227
-4.679462 -4.310951 2.709266 1.880790849211783e-38 1768976227
-4.815190 -4.435990 1.928647 1.880790849211783e-38 1768976227
-4.823254 -4.443419 1.882275 1.880790849211783e-38 1768976227
-4.754191 -4.379794 2.279482 1.880790849211783e-38 1768976227
-4.760774 -4.385859 2.241619 1.880790849211783e-38 1768976227
-4.833754 -4.453092 1.821886 1.880790849211783e-38 1768976227
-4.843419 -4.461996 1.766297 1.880790849211783e-38 1768976227
-4.769935 -4.394299 2.188926 1.880790849211783e-38 1768976227
-4.779990 -4.403562 2.131099 1.880790849211783e-38 1768976227
-4.854450 -4.472157 1.702858 1.880790849211783e-38 1768976227
-4.867308 -4.484003 1.628906 1.880790849211783e-38 1768976227
-4.791378 -4.414053 2.065596 1.880790849211783e-38 1768976227
-4.803472 -4.425194 1.996046 1.880790849211783e-38 1768976227
-37.256325 -34.322361 9.237565 1.880790849211783e-38 1768976227
-37.591297 -34.630951 8.860907 1.880790849211783e-38 1768976227
-4.879341 -4.495089 1.559701 1.880790849211783e-38 1768976227
-4.886052 -4.501271 1.521106 1.880790849211783e-38 1768976227
-36.526035 -33.649578 8.203729 1.880790849211783e-38 1768976227
-36.955193 -34.044945 7.858455 1.880790849211783e-38 1768976227
-4.896601 -4.510990 1.460425 1.880790849211783e-38 1768976227
-4.904714 -4.518464 1.413770 1.880790849211783e-38 1768976227
-38.069012 -34.859390 6.442540 1.880790849211783e-38 1768976227
-38.122990 -34.908817 6.187513 1.880790849211783e-38 1768976227
-38.896957 -35.617531 6.000481 1.880790849211783e-38 1768976227
-38.839226 -35.564663 5.625565 1.880790849211783e-38 1768976227
-36.028191 -32.990635 7.325429 1.880790849211783e-38 1768976227
-35.555412 -32.557713 6.913945 1.880790849211783e-38 1768976227
-38.370964 -35.135883 5.323766 1.880790849211783e-38 1768976227
-38.806385 -35.534595 5.039990 1.880790849211783e-38 1768976227
-35.269238 -32.295666 6.594359 1.880790849211783e-38 1768976227
-37.991024 -34.787983 6.808419 1.880790849211783e-38 1768976227
-42.585365 -38.994972 3.075695 1.880790849211783e-38 1768976227
-42.728092 -39.125664 2.801774 1.880790849211783e-38 1768976227
-39.798878 -36.443409 4.771773 1.880790849211783e-38 1768976227
-39.750710 -36.399303 4.523611 1.880790849211783e-38 1768976227
-41.674076 -38.160507 2.351485 1.880790849211783e-38 1768976227
-42.842594 -39.230503 2.144304 1.880790849211783e-38 1768976227
-39.683037 -36.337337 4.174944 1.880790849211783e-38 1768976227
-39.615597 -36.275585 3.827463 1.880790849211783e-38 1768976227
-42.910347 -39.292553 1.755212 1.880790849211783e-38 1768976227
-39.561375 -36.225925 3.548095 1.880790849211783e-38 1768976227
-42.277336 -38.712910 3.428422 1.880790849211783e-38 1768976227
-4.696577 -4.300605 2.653075 1.880790849211783e-38 1768976227
-4.704847 -4.308178 2.605586 1.880790849211783e-38 1768976227
-35.604275 -32.602455 9.691680 1.880790849211783e-38 1768976227
-36.218010 -33.164448 9.346781 1.880790849211783e-38 1768976227
-4.714602 -4.317111 2.549571 1.880790849211783e-38 1768976227
-4.725859 -4.327419 2.484926 1.880790849211783e-38 1768976227
-4.649178 -4.257203 2.925256 1.880790849211783e-38 1768976227
-4.662361 -4.269274 2.849554 1.880790849211783e-38 1768976227
-4.736751 -4.337392 2.422384 1.880790849211783e-38 1768976227
-4.750013 -4.349536 2.346223 1.880790849211783e-38 1768976227
-4.673166 -4.279168 2.787509 1.880790849211783e-38 1768976227
-4.687307 -4.292117 2.706301 1.880790849211783e-38 1768976227
-4.823110 -4.416471 1.926475 1.880790849211783e-38 1768976227
-4.831178 -4.423858 1.880153 1.880790849211783e-38 1768976227
-4.762078 -4.360584 2.276948 1.880790849211783e-38 1768976227
-4.768664 -4.366615 2.239124 1.880790849211783e-38 1768976227
-4.841683 -4.433477 1.819827 1.880790849211783e-38 1768976227
-4.851354 -4.442332 1.764297 1.880790849211783e-38 1768976227
-4.777831 -4.375009 2.186485 1.880790849211783e-38 1768976227
-4.787891 -4.384221 2.128717 1.880790849211783e-38 1768976227
-4.862389 -4.452438 1.700925 1.880790849211783e-38 1768976227
-4.875254 -4.464219 1.627053 1.880790849211783e-38 1768976227
-4.799286 -4.394656 2.063282 1.880790849211783e-38 1768976227
-4.811386 -4.405735 1.993804 1.880790849211783e-38 1768976227
-36.243771 -33.188034 8.961649 1.880790849211783e-38 1768976227
-37.671074 -34.495007 8.855150 1.880790849211783e-38 1768976227
-4.887292 -4.475241 1.557921 1.880790849211783e-38 1768976227
-4.894006 -4.481390 1.519368 1.880790849211783e-38 1768976227
-36.508049 -33.430035 8.177009 1.880790849211783e-38 1768976227
-37.146927 -34.015049 7.877378 1.880790849211783e-38 1768976227
-4.904562 -4.491056 1.458754 1.880790849211783e-38 1768976227
-40.707832 -37.275730 11.701459 1.880790849211783e-38 1768976227
-38.140537 -34.713985 6.436897 1.880790849211783e-38 1768976227
-38.194569 -34.763165 6.182086 1.880790849211783e-38 1768976227
-38.933231 -35.435463 5.989563 1.880790849211783e-38 1768976227
-38.996162 -35.492741 5.632766 1.880790849211783e-38 1768976227
-37.191582 -33.850281 7.541183 1.880790849211783e-38 1768976227
-35.762115 -32.549240 6.935019 1.880790849211783e-38 1768976227
-39.299049 -35.768414 5.437541 1.880790849211783e-38 1768976227
-38.655846 -35.182999 5.006634 1.880790849211783e-38 1768976227
-35.473404 -32.286469 6.614296 1.880790849211783e-38 1768976227
-38.035488 -34.618374 6.797646 1.880790849211783e-38 1768976227
-42.362740 -38.556858 3.051203 1.880790849211783e-38 1768976227
-42.593643 -38.767021 2.785278 1.880790849211783e-38 1768976227
-39.952267 -36.362946 4.776994 1.880790849211783e-38 1768976227
-39.920135 -36.333702 4.530400 1.880790849211783e-38 1768976227
-42.862762 -39.011963 2.411908 1.880790849211783e-38 1768976227
-42.467278 -38.652008 2.119674 1.880790849211783e-38 1768976227
-39.852074 -36.271759 4.181200 1.880790849211783e-38 1768976227
-39.784824 -36.210548 3.833244 1.880790849211783e-38 1768976227
-43.069477 -39.200108 1.756878 1.880790849211783e-38 1768976227
-43.209877 -39.327896 1.475961 1.880790849211783e-38 1768976227
-39.734146 -36.164421 3.553792 1.880790849211783e-38 1768976227
-41.963226 -38.193245 3.393593 1.880790849211783e-38 1768976227
-4.704407 -4.281762 2.650192 1.880790849211783e-38 1768976227
-4.712682 -4.289294 2.602748 1.880790849211783e-38 1768976227
-36.125355 -32.879845 9.297235 1.880790849211783e-38 1768976227
-4.722443 -4.298178 2.546789 1.880790849211783e-38 1768976227
-4.733707 -4.308429 2.482209 1.880790849211783e-38 1768976227
-4.656981 -4.238596 2.922109 1.880790849211783e-38 1768976227
-4.670172 -4.250603 2.846479 1.880790849211783e-38 1768976227
-4.744605 -4.318348 2.419729 1.880790849211783e-38 1768976227
-4.757874 -4.330426 2.343644 1.880790849211783e-38 1768976227
-4.680982 -4.260442 2.784494 1.880790849211783e-38 1768976227
-4.695133 -4.273321 2.703366 1.880790849211783e-38 1768976227
-4.831011 -4.396992 1.924325 1.880790849211783e-38 1768976227
-4.839082 -4.404337 1.878051 1.880790849211783e-38 1768976227
-4.769945 -4.341412 2.274438 1.880790849211783e-38 1768976227
-4.776535 -4.347410 2.236653 1.880790849211783e-38 1768976227
-4.849592 -4.413904 1.817788 1.880790849211783e-38 1768976227
-4.859268 -4.422709 1.762316 1.880790849211783e-38 1768976227
-4.785707 -4.355759 2.184068 1.880790849211783e-38 1768976227
-4.795773 -4.364920 2.126359 1.880790849211783e-38 1768976227
-4.870309 -4.432759 1.699011 1.880790849211783e-38 1768976227
-4.883181 -4.444475 1.625217 1.880790849211783e-38 1768976227
-4.807174 -4.375297 2.060991 1.880790849211783e-38 1768976227
-4.819280 -4.386314 1.991584 1.880790849211783e-38 1768976227
-36.251884 -32.995007 8.939009 1.880790849211783e-38 1768976227
-36.274754 -33.015820 8.503479 1.880790849211783e-38 1768976227
-4.895225 -4.455437 1.556159 1.880790849211783e-38 1768976227
-4.901942 -4.461551 1.517647 1.880790849211783e-38 1768976227
-36.313957 -33.051506 8.111173 1.880790849211783e-38 1768976227
-37.169586 -33.830261 7.860509 1.880790849211783e-38 1768976227
-4.912503 -4.471163 1.457098 1.880790849211783e-38 1768976227
-40.652752 -37.000504 11.653497 1.880790849211783e-38 1768976227
-37.061218 -33.527817 6.237648 1.880790849211783e-38 1768976227
-38.260815 -34.613041 6.175883 1.880790849211783e-38 1768976227
-38.328941 -34.674679 5.880483 1.880790849211783e-38 1768976227
-39.163834 -35.429974 5.641524 1.880790849211783e-38 1768976227
-36.374706 -32.906757 7.355392 1.880790849211783e-38 1768976227
-36.211601 -32.759205 7.002993 1.880790849211783e-38 1768976227
-38.948673 -35.235325 5.374333 1.880790849211783e-38 1768976227
-39.501175 -35.735149 5.102137 1.880790849211783e-38 1768976227
-35.678883 -32.277275 6.634428 1.880790849211783e-38 1768976227
-38.079800 -34.449291 6.786965 1.880790849211783e-38 1768976227
-42.800465 -38.719887 3.074305 1.880790849211783e-38 1768976227
-42.862415 -38.775932 2.795193 1.880790849211783e-38 1768976227
-39.846073 -36.047173 4.751276 1.880790849211783e-38 1768976227
-39.990501 -36.177826 4.525982 1.880790849211783e-38 1768976227
-42.929867 -38.836948 2.409082 1.880790849211783e-38 1768976227
-40.021889 -36.206223 4.187541 1.880790849211783e-38 1768976227
-39.958496 -36.148872 3.839455 1.880790849211783e-38 1768976227
-43.092056 -38.983681 1.467914 1.880790849211783e-38 1768976227
-39.907513 -36.102753 3.559543 1.880790849211783e-38 1768976227
-42.715645 -38.643154 3.445000 1.880790849211783e-38 1768976227
-4.712217 -4.262957 2.647336 1.880790849211783e-38 1768976227
-4.720497 -4.270447 2.599939 1.880790849211783e-38 1768976227
-36.106419 -32.664047 9.266965 1.880790849211783e-38 1768976227
-4.730263 -4.279282 2.544034 1.880790849211783e-38 1768976227
-4.741533 -4.289477 2.479518 1.880790849211783e-38 1768976227
-4.664762 -4.220026 2.918992 1.880790849211783e-38 1768976227
-4.677961 -4.231966 2.843434 1.880790849211783e-38 1768976227
-4.752437 -4.299341 2.417099 1.880790849211783e-38 1768976227
-4.765715 -4.311354 2.341090 1.880790849211783e-38 1768976227
-4.688779 -4.241753 2.781510 1.880790849211783e-38 1768976227
-4.702937 -4.254561 2.700459 1.880790849211783e-38 1768976227
-4.838890 -4.377553 1.922196 1.880790849211783e-38 1768976227
-4.846966 -4.384859 1.875970 1.880790849211783e-38 1768976227
-4.777792 -4.322279 2.271954 1.880790849211783e-38 1768976227
-4.784387 -4.328245 2.234206 1.880790849211783e-38 1768976227
-4.857482 -4.394372 1.815769 1.880790849211783e-38 1768976227
-4.867162 -4.403128 1.760355 1.880790849211783e-38 1768976227
-4.793562 -4.336546 2.181674 1.880790849211783e-38 1768976227
-4.803634 -4.345657 2.124023 1.880790849211783e-38 1768976227
-4.878209 -4.413123 1.697117 1.880790849211783e-38 1768976227
-4.891087 -4.424773 1.623399 1.880790849211783e-38 1768976227
-4.815041 -4.355977 2.058722 1.880790849211783e-38 1768976227
-4.827153 -4.366934 1.989386 1.880790849211783e-38 1768976227
-36.266106 -32.808510 8.918076 1.880790849211783e-38 1768976227
-36.288132 -32.828438 8.483367 1.880790849211783e-38 1768976227
-4.903137 -4.435675 1.554415 1.880790849211783e-38 1768976227
-4.909858 -4.441754 1.515943 1.880790849211783e-38 1768976227
-36.308174 -32.846569 8.087717 1.880790849211783e-38 1768976227
-36.343800 -32.878796 7.664869 1.880790849211783e-38 1768976227
-40.597935 -36.727348 11.605977 1.880790849211783e-38 1768976227
-38.230526 -34.376549 6.416972 1.880790849211783e-38 1768976227
-38.304886 -34.443413 6.166201 1.880790849211783e-38 1768976227
-38.391510 -34.521301 5.874082 1.880790849211783e-38 1768976227
-38.949993 -35.023487 5.595479 1.880790849211783e-38 1768976227
-36.362274 -32.696629 7.332903 1.880790849211783e-38 1768976227
-36.393608 -32.724808 7.019072 1.880790849211783e-38 1768976227
-39.126293 -35.182014 5.384177 1.880790849211783e-38 1768976227
-39.509727 -35.526794 5.089379 1.880790849211783e-38 1768976227
-35.932583 -32.310253 6.663452 1.880790849211783e-38 1768976227
-35.585945 -31.998562 6.325255 1.880790849211783e-38 1768976227
-42.859413 -38.538803 3.070177 1.880790849211783e-38 1768976227
-42.923241 -38.596195 2.791556 1.880790849211783e-38 1768976227
-40.309551 -36.245987 4.793484 1.880790849211783e-38 1768976227
-39.884258 -35.863564 4.501695 1.880790849211783e-38 1768976227
-40.087921 -36.046696 4.183055 1.880790849211783e-38 1768976227
-40.132740 -36.086998 3.845722 1.880790849211783e-38 1768976227
-40.081448 -36.040882 3.565345 1.880790849211783e-38 1768976227
-42.774597 -38.462536 3.440383 1.880790849211783e-38 1768976227
-43.201870 -38.846733 1.004482 1.880790849211783e-38 1768976227
-4.720006 -4.244188 2.644509 1.880790849211783e-38 1768976227
-4.728291 -4.251637 2.597158 1.880790849211783e-38 1768976227
-35.844070 -32.230667 9.174641 1.880790849211783e-38 1768976227
-4.738062 -4.260423 2.541307 1.880790849211783e-38 1768976227
-4.749339 -4.270563 2.476853 1.880790849211783e-38 1768976227
-4.672523 -4.201491 2.915906 1.880790849211783e-38 1768976227
-4.685730 -4.213367 2.840420 1.880790849211783e-38 1768976227
-4.760249 -4.280374 2.414496 1.880790849211783e-38 1768976227
-4.773534 -4.292319 2.338562 1.880790849211783e-38 1768976227
-4.696554 -4.223099 2.778553 1.880790849211783e-38 1768976227
-4.710721 -4.235838 2.697581 1.880790849211783e-38 1768976227
-4.846749 -4.358154 1.920088 1.880790849211783e-38 1768976227
-4.854829 -4.365419 1.873909 1.880790849211783e-38 1768976227
-4.785618 -4.303185 2.269494 1.880790849211783e-38 1768976227
-4.792216 -4.309117 2.231783 1.880790849211783e-38 1768976227
-4.865351 -4.374880 1.813770 1.880790849211783e-38 1768976227
-4.875037 -4.383589 1.758414 1.880790849211783e-38 1768976227
-4.801398 -4.317374 2.179303 1.880790849211783e-38 1768976227
-4.811474 -4.326434 2.121711 1.880790849211783e-38 1768976227
-4.886088 -4.393527 1.695240 1.880790849211783e-38 1768976227
-4.898973 -4.405112 1.621600 1.880790849211783e-38 1768976227
-4.822888 -4.336698 2.056475 1.880790849211783e-38 1768976227
-4.835006 -4.347594 1.987210 1.880790849211783e-38 1768976227
-36.280258 -32.622879 8.897319 1.880790849211783e-38 1768976227
-36.302242 -32.642647 8.463610 1.880790849211783e-38 1768976227
-4.911030 -4.415954 1.552688 1.880790849211783e-38 1768976227
-5.312805 -4.777227 1.635899 1.880790849211783e-38 1768976227
-36.322247 -32.660637 8.068871 1.880790849211783e-38 1768976227
-36.343784 -32.680008 7.644045 1.880790849211783e-38 1768976227
-40.199444 -36.146980 11.460839 1.880790849211783e-38 1768976227
-38.274479 -34.207878 6.407004 1.880790849211783e-38 1768976227
-37.189808 -33.238453 5.970536 1.880790849211783e-38 1768976227
-38.435402 -34.351700 5.864919 1.880790849211783e-38 1768976227
-38.537415 -34.442875 5.521261 1.880790849211783e-38 1768976227
-36.373505 -32.508877 7.315363 1.880790849211783e-38 1768976227
-36.389530 -32.523205 6.999336 1.880790849211783e-38 1768976227
-39.081291 -34.928967 5.363464 1.880790849211783e-38 1768976227
-38.992786 -34.849865 5.009229 1.880790849211783e-38 1768976227
-36.407528 -32.539288 6.733300 1.880790849211783e-38 1768976227
-35.791409 -31.988628 6.344600 1.880790849211783e-38 1768976227
-42.918201 -38.358212 3.066087 1.880790849211783e-38 1768976227
-40.481873 -36.180744 4.800979 1.880790849211783e-38 1768976227
-40.436073 -36.139809 4.551656 1.880790849211783e-38 1768976227
-39.981171 -35.733242 4.160653 1.880790849211783e-38 1768976227
-40.307541 -36.024933 3.852044 1.880790849211783e-38 1768976227
-40.255943 -35.978813 3.571199 1.880790849211783e-38 1768976227
-42.833385 -38.282406 3.435810 1.880790849211783e-38 1768976227
-4.727774 -4.225456 2.641710 1.880790849211783e-38 1768976227
-4.736063 -4.232864 2.594404 1.880790849211783e-38 1768976227
-35.586693 -31.805660 9.084168 1.880790849211783e-38 1768976227
-4.745841 -4.241603 2.538607 1.880790849211783e-38 1768976227
-4.757124 -4.251688 2.474215 1.880790849211783e-38 1768976227
-4.668751 -4.172704 2.905686 1.880790849211783e-38 1768976227
-4.693478 -4.194803 2.837435 1.880790849211783e-38 1768976227
-4.768042 -4.261445 2.411918 1.880790849211783e-38 1768976227
-4.781333 -4.273324 2.336058 1.880790849211783e-38 1768976227
-4.704308 -4.204483 2.775627 1.880790849211783e-38 1768976227
-4.718483 -4.217153 2.694731 1.880790849211783e-38 1768976227
-4.854589 -4.338797 1.918001 1.880790849211783e-38 1768976227
-4.862672 -4.346022 1.871868 1.880790849211783e-38 1768976227
-4.793425 -4.284132 2.267058 1.880790849211783e-38 1768976227
-4.800025 -4.290030 2.229385 1.880790849211783e-38 1768976227
-4.873200 -4.355431 1.811791 1.880790849211783e-38 1768976227
-4.882890 -4.364092 1.756491 1.880790849211783e-38 1768976227
-4.809213 -4.298242 2.176957 1.880790849211783e-38 1768976227
-4.819294 -4.307252 2.119421 1.880790849211783e-38 1768976227
-4.893948 -4.373974 1.693383 1.880790849211783e-38 1768976227
-4.906838 -4.385495 1.619818 1.880790849211783e-38 1768976227
-4.830714 -4.317459 2.054251 1.880790849211783e-38 1768976227
-4.842839 -4.328296 1.985055 1.880790849211783e-38 1768976227
-36.294331 -32.438118 8.876740 1.880790849211783e-38 1768976227
-36.316273 -32.457726 8.444021 1.880790849211783e-38 1768976227
-5.283226 -4.721892 1.665853 1.880790849211783e-38 1768976227
-5.301918 -4.738597 1.628139 1.880790849211783e-38 1768976227
-36.336246 -32.475578 8.050188 1.880790849211783e-38 1768976227
-36.357735 -32.494785 7.626333 1.880790849211783e-38 1768976227
-36.977325 -32.848476 6.173253 1.880790849211783e-38 1768976227
-38.378712 -34.093380 6.144869 1.880790849211783e-38 1768976227
-38.463654 -34.168842 5.853479 1.880790849211783e-38 1768976227
-38.563725 -34.257744 5.510203 1.880790849211783e-38 1768976227
-36.384624 -32.321957 7.297961 1.880790849211783e-38 1768976227
-36.401665 -32.337093 6.982880 1.880790849211783e-38 1768976227
-38.628757 -34.315506 5.287131 1.880790849211783e-38 1768976227
-39.236603 -34.855488 5.027024 1.880790849211783e-38 1768976227
-36.416046 -32.349869 6.716800 1.880790849211783e-38 1768976227
-36.249916 -32.202286 6.408632 1.880790849211783e-38 1768976227
-40.600594 -36.067177 4.802135 1.880790849211783e-38 1768976227
-40.612259 -36.077534 4.559219 1.880790849211783e-38 1768976227
-40.547489 -36.020000 4.208262 1.880790849211783e-38 1768976227
-40.482944 -35.962662 3.858423 1.880790849211783e-38 1768976227
-40.431042 -35.916550 3.577106 1.880790849211783e-38 1768976227
-42.892014 -38.102737 3.431280 1.880790849211783e-38 1768976227
-4.735523 -4.206759 2.638938 1.880790849211783e-38 1768976227
-4.743817 -4.214128 2.591676 1.880790849211783e-38 1768976227
-35.423496 -31.468147 9.018242 1.880790849211783e-38 1768976227
-4.753600 -4.222818 2.535933 1.880790849211783e-38 1768976227
-4.764891 -4.232848 2.471603 1.880790849211783e-38 1768976227
-4.661871 -4.141331 2.893617 1.880790849211783e-38 1768976227
-4.693420 -4.169358 2.829785 1.880790849211783e-38 1768976227
-4.775813 -4.242550 2.409366 1.880790849211783e-38 1768976227
-4.789114 -4.254366 2.333580 1.880790849211783e-38 1768976227
-4.712043 -4.185902 2.772729 1.880790849211783e-38 1768976227
-4.726227 -4.198502 2.691909 1.880790849211783e-38 1768976227
-4.862409 -4.319478 1.915935 1.880790849211783e-38 1768976227
-4.870496 -4.326662 1.869848 1.880790849211783e-38 1768976227
-4.801210 -4.265112 2.264647 1.880790849211783e-38 1768976227
-4.807816 -4.270980 2.227010 1.880790849211783e-38 1768976227
-4.881029 -4.336018 1.809831 1.880790849211783e-38 1768976227
-4.890724 -4.344631 1.754588 1.880790849211783e-38 1768976227
-4.817008 -4.279145 2.174634 1.880790849211783e-38 1768976227
-4.827096 -4.288107 2.117155 1.880790849211783e-38 1768976227
-4.901788 -4.354460 1.691543 1.880790849211783e-38 1768976227
-4.914686 -4.365917 1.618055 1.880790849211783e-38 1768976227
-4.838521 -4.298256 2.052049 1.880790849211783e-38 1768976227
-4.850652 -4.309034 1.982922 1.880790849211783e-38 1768976227
-36.253334 -32.205322 8.842916 1.880790849211783e-38 1768976227
-36.323792 -32.267914 8.423102 1.880790849211783e-38 1768976227
-5.272559 -4.683830 1.658027 1.880790849211783e-38 1768976227
-5.291125 -4.700324 1.620464 1.880790849211783e-38 1768976227
-36.345016 -32.286770 8.030521 1.880790849211783e-38 1768976227
-36.367867 -32.307072 7.607985 1.880790849211783e-38 1768976227
-37.185734 -32.833492 6.191486 1.880790849211783e-38 1768976227
-36.880325 -32.563831 5.889209 1.880790849211783e-38 1768976227
