# .PCD v0.7 - Point Cloud Data file format
VERSION 0.7
FIELDS x y z rgb label
SIZE 4 4 4 4 4
TYPE F F F F U
COUNT 1 1 1 1 1
WIDTH 762
HEIGHT 1
VIEWPOINT 0 0 0 1 0 0 0
POINTS 762
DATA ascii
-47.327206 1.737385 0.818799 1.880790849211783e-38 1768976227
-47.327202 1.737385 0.576776 1.880790849211783e-38 1768976227
-47.327209 1.737385 -1.398133 1.880790849211783e-38 1768976227
-47.327202 1.737384 -1.630475 1.880790849211783e-38 1768976227
-47.327209 1.737385 0.286349 1.880790849211783e-38 1768976227
-47.327206 1.737385 0.034644 1.880790849211783e-38 1768976227
-47.371094 1.882076 -0.275432 1.880790849211783e-38 1768976227
-47.371094 1.882076 -0.546781 1.880790849211783e-38 1768976227
-47.371094 1.882076 4.851117 1.880790849211783e-38 1768976227
-47.371098 1.882076 4.541005 1.880790849211783e-38 1768976227
-47.371101 1.882076 2.525273 1.880790849211783e-38 1768976227
-47.371098 1.882076 2.292688 1.880790849211783e-38 1768976227
-47.371101 1.882076 4.192128 1.880790849211783e-38 1768976227
-47.371094 1.882076 3.978925 1.880790849211783e-38 1768976227
-47.371098 1.882076 1.972885 1.880790849211783e-38 1768976227
-47.371101 1.882076 1.749991 1.880790849211783e-38 1768976227
-47.371094 1.882076 3.678504 1.880790849211783e-38 1768976227
-47.371101 1.882076 3.378083 1.880790849211783e-38 1768976227
-47.371094 1.882076 1.430187 1.880790849211783e-38 1768976227
-47.371090 1.882075 1.197603 1.880790849211783e-38 1768976227
-47.371098 1.882076 3.135807 1.880790849211783e-38 1768976227
-47.371098 1.882076 2.835385 1.880790849211783e-38 1768976227
-47.371098 1.882076 -0.847202 1.880790849211783e-38 1768976227
-47.371098 1.882076 -1.108860 1.880790849211783e-38 1768976227
-47.371098 1.882076 0.819653 1.880790849211783e-38 1768976227
-47.371098 1.882076 0.577378 1.880790849211783e-38 1768976227
-47.371098 1.882076 -1.399591 1.880790849211783e-38 1768976227
-47.371094 1.882075 -1.632175 1.880790849211783e-38 1768976227
-47.371090 1.882075 0.286647 1.880790849211783e-38 1768976227
-47.371094 1.882075 0.034680 1.880790849211783e-38 1768976227
-47.441967 2.028220 -0.275878 1.880790849211783e-38 1768976227
-47.441959 2.028219 -0.547667 1.880790849211783e-38 1768976227
-47.441971 2.028220 4.858980 1.880790849211783e-38 1768976227
-47.441963 2.028220 4.548364 1.880790849211783e-38 1768976227
-47.441971 2.028220 2.529365 1.880790849211783e-38 1768976227
-47.441967 2.028219 2.296403 1.880790849211783e-38 1768976227
-47.441971 2.028220 4.198922 1.880790849211783e-38 1768976227
-47.441963 2.028219 3.985374 1.880790849211783e-38 1768976227
-47.441967 2.028220 1.976082 1.880790849211783e-38 1768976227
-47.441971 2.028220 1.752827 1.880790849211783e-38 1768976227
-47.441967 2.028220 3.684466 1.880790849211783e-38 1768976227
-47.441959 2.028220 3.383557 1.880790849211783e-38 1768976227
-47.441967 2.028220 1.432505 1.880790849211783e-38 1768976227
-47.441967 2.028219 1.199543 1.880790849211783e-38 1768976227
-47.441967 2.028220 3.140889 1.880790849211783e-38 1768976227
-47.441975 2.028220 2.839980 1.880790849211783e-38 1768976227
-47.441971 2.028220 -0.848575 1.880790849211783e-38 1768976227
-47.441967 2.028220 -1.110657 1.880790849211783e-38 1768976227
-47.441963 2.028219 0.820982 1.880790849211783e-38 1768976227
-47.441975 2.028220 0.578314 1.880790849211783e-38 1768976227
-47.441963 2.028219 -1.401859 1.880790849211783e-38 1768976227
-47.441963 2.028219 -1.634820 1.880790849211783e-38 1768976227
-47.441963 2.028220 0.287112 1.880790849211783e-38 1768976227
-47.441963 2.028219 0.034736 1.880790849211783e-38 1768976227
-47.520515 2.175180 -0.276372 1.880790849211783e-38 1768976227
-47.520515 2.175180 -0.548647 1.880790849211783e-38 1768976227
-47.520515 2.175180 4.867674 1.880790849211783e-38 1768976227
-47.520515 2.175180 4.556503 1.880790849211783e-38 1768976227
-47.520515 2.175180 2.533891 1.880790849211783e-38 1768976227
-47.520523 2.175180 2.300513 1.880790849211783e-38 1768976227
-47.520512 2.175180 4.206435 1.880790849211783e-38 1768976227
-47.520512 2.175180 3.992505 1.880790849211783e-38 1768976227
-47.520515 2.175180 1.979618 1.880790849211783e-38 1768976227
-47.520523 2.175181 1.755964 1.880790849211783e-38 1768976227
-47.520515 2.175180 3.691059 1.880790849211783e-38 1768976227
-47.520515 2.175181 3.389611 1.880790849211783e-38 1768976227
-47.520508 2.175180 1.435068 1.880790849211783e-38 1768976227
-47.520515 2.175180 1.201690 1.880790849211783e-38 1768976227
-47.520519 2.175181 3.146509 1.880790849211783e-38 1768976227
-47.520512 2.175180 2.845062 1.880790849211783e-38 1768976227
-47.520519 2.175180 -0.850094 1.880790849211783e-38 1768976227
-47.520519 2.175180 -1.112645 1.880790849211783e-38 1768976227
-47.520515 2.175180 0.822451 1.880790849211783e-38 1768976227
-47.520519 2.175180 0.579348 1.880790849211783e-38 1768976227
-47.520515 2.175180 -1.404367 1.880790849211783e-38 1768976227
-47.520515 2.175180 -1.637746 1.880790849211783e-38 1768976227
-47.520523 2.175181 0.287626 1.880790849211783e-38 1768976227
-47.520523 2.175181 0.034799 1.880790849211783e-38 1768976227
-47.599354 2.322669 -0.276870 1.880790849211783e-38 1768976227
-47.599358 2.322670 -0.549636 1.880790849211783e-38 1768976227
-47.599354 2.322670 4.876445 1.880790849211783e-38 1768976227
-47.599354 2.322670 4.564713 1.880790849211783e-38 1768976227
-47.599354 2.322669 2.538457 1.880790849211783e-38 1768976227
-47.599358 2.322670 2.304658 1.880790849211783e-38 1768976227
-47.599354 2.322670 4.214015 1.880790849211783e-38 1768976227
-47.599354 2.322670 3.999700 1.880790849211783e-38 1768976227
-47.599358 2.322670 1.983185 1.880790849211783e-38 1768976227
-47.599350 2.322669 1.759127 1.880790849211783e-38 1768976227
-47.599350 2.322670 3.697709 1.880790849211783e-38 1768976227
-47.599350 2.322670 3.395719 1.880790849211783e-38 1768976227
-47.599354 2.322670 1.437654 1.880790849211783e-38 1768976227
-47.599346 2.322669 1.203855 1.880790849211783e-38 1768976227
-47.599354 2.322670 3.152179 1.880790849211783e-38 1768976227
-47.599350 2.322670 2.850188 1.880790849211783e-38 1768976227
-47.599350 2.322669 -0.851625 1.880790849211783e-38 1768976227
-47.599358 2.322670 -1.114650 1.880790849211783e-38 1768976227
-47.599354 2.322670 0.823933 1.880790849211783e-38 1768976227
-47.599358 2.322670 0.580392 1.880790849211783e-38 1768976227
-47.599354 2.322670 -1.406898 1.880790849211783e-38 1768976227
-47.599350 2.322669 -1.640697 1.880790849211783e-38 1768976227
-47.599350 2.322670 0.288144 1.880790849211783e-38 1768976227
-47.599346 2.322669 0.034861 1.880790849211783e-38 1768976227
-47.678471 2.470692 -0.277372 1.880790849211783e-38 1768976227
-47.678471 2.470692 -0.550633 1.880790849211783e-38 1768976227
-47.678474 2.470692 4.885292 1.880790849211783e-38 1768976227
-47.678478 2.470693 4.572995 1.880790849211783e-38 1768976227
-47.678474 2.470692 2.543062 1.880790849211783e-38 1768976227
-47.678474 2.470692 2.308839 1.880790849211783e-38 1768976227
-47.678474 2.470692 4.221660 1.880790849211783e-38 1768976227
-47.678474 2.470693 4.006956 1.880790849211783e-38 1768976227
-47.678478 2.470692 1.986783 1.880790849211783e-38 1768976227
-47.678474 2.470692 1.762319 1.880790849211783e-38 1768976227
-47.678467 2.470692 3.704418 1.880790849211783e-38 1768976227
-47.678474 2.470693 3.401880 1.880790849211783e-38 1768976227
-47.678474 2.470692 1.440262 1.880790849211783e-38 1768976227
-47.678471 2.470692 1.206039 1.880790849211783e-38 1768976227
-47.678474 2.470693 3.157898 1.880790849211783e-38 1768976227
-47.678471 2.470692 2.855359 1.880790849211783e-38 1768976227
-47.678471 2.470692 -0.853170 1.880790849211783e-38 1768976227
-47.678471 2.470692 -1.116672 1.880790849211783e-38 1768976227
-47.678474 2.470692 0.825427 1.880790849211783e-38 1768976227
-47.678471 2.470692 0.581445 1.880790849211783e-38 1768976227
-47.678474 2.470692 -1.409450 1.880790849211783e-38 1768976227
-47.678471 2.470692 -1.643673 1.880790849211783e-38 1768976227
-47.678478 2.470693 0.288667 1.880790849211783e-38 1768976227
-47.678482 2.470693 0.034924 1.880790849211783e-38 1768976227
-47.757877 2.619254 -0.277879 1.880790849211783e-38 1768976227
-47.757881 2.619254 -0.551639 1.880790849211783e-38 1768976227
-47.757881 2.619255 4.894216 1.880790849211783e-38 1768976227
-47.757877 2.619255 4.581347 1.880790849211783e-38 1768976227
-47.757881 2.619254 2.547707 1.880790849211783e-38 1768976227
-47.757881 2.619254 2.313056 1.880790849211783e-38 1768976227
-47.757881 2.619255 4.229371 1.880790849211783e-38 1768976227
-47.757881 2.619255 4.014275 1.880790849211783e-38 1768976227
-47.757877 2.619254 1.990412 1.880790849211783e-38 1768976227
-47.757881 2.619255 1.765538 1.880790849211783e-38 1768976227
-47.757885 2.619255 3.711185 1.880790849211783e-38 1768976227
-47.757881 2.619255 3.408093 1.880790849211783e-38 1768976227
-47.757877 2.619254 1.442893 1.880790849211783e-38 1768976227
-47.757885 2.619255 1.208242 1.880790849211783e-38 1768976227
-47.757874 2.619254 3.163665 1.880790849211783e-38 1768976227
-47.757877 2.619255 2.860575 1.880790849211783e-38 1768976227
-47.757885 2.619255 -0.854729 1.880790849211783e-38 1768976227
-47.757877 2.619254 -1.118711 1.880790849211783e-38 1768976227
-47.757881 2.619254 0.826935 1.880790849211783e-38 1768976227
-47.757889 2.619255 0.582507 1.880790849211783e-38 1768976227
-47.757874 2.619254 -1.412024 1.880790849211783e-38 1768976227
-47.757877 2.619255 -1.646676 1.880790849211783e-38 1768976227
-47.757877 2.619254 0.289194 1.880790849211783e-38 1768976227
-47.757877 2.619254 0.034988 1.880790849211783e-38 1768976227
-47.837578 2.768362 -0.278390 1.880790849211783e-38 1768976227
-47.837578 2.768362 -0.552653 1.880790849211783e-38 1768976227
-47.837582 2.768362 4.903217 1.880790849211783e-38 1768976227
-47.837582 2.768362 4.589773 1.880790849211783e-38 1768976227
-47.837578 2.768362 2.552392 1.880790849211783e-38 1768976227
-47.837585 2.768362 2.317310 1.880790849211783e-38 1768976227
-47.837574 2.768362 4.237149 1.880790849211783e-38 1768976227
-47.837582 2.768362 4.021657 1.880790849211783e-38 1768976227
-47.837578 2.768362 1.994072 1.880790849211783e-38 1768976227
-47.837570 2.768361 1.768785 1.880790849211783e-38 1768976227
-47.837578 2.768362 3.718010 1.880790849211783e-38 1768976227
-47.837578 2.768362 3.414361 1.880790849211783e-38 1768976227
-47.837582 2.768362 1.445547 1.880790849211783e-38 1768976227
-47.837578 2.768362 1.210464 1.880790849211783e-38 1768976227
-47.837582 2.768362 3.169484 1.880790849211783e-38 1768976227
-47.837574 2.768362 2.865835 1.880790849211783e-38 1768976227
-47.837585 2.768362 -0.856301 1.880790849211783e-38 1768976227
-47.837582 2.768362 -1.120769 1.880790849211783e-38 1768976227
-47.837570 2.768361 0.828456 1.880790849211783e-38 1768976227
-47.837582 2.768362 0.583579 1.880790849211783e-38 1768976227
-47.837566 2.768361 -1.414621 1.880790849211783e-38 1768976227
-47.837574 2.768362 -1.649704 1.880790849211783e-38 1768976227
-47.837574 2.768362 0.289726 1.880790849211783e-38 1768976227
-47.837578 2.768362 0.035053 1.880790849211783e-38 1768976227
-47.959782 2.920567 -0.279151 1.880790849211783e-38 1768976227
-47.959778 2.920567 -0.554164 1.880790849211783e-38 1768976227
-47.959774 2.920567 4.916621 1.880790849211783e-38 1768976227
-47.959774 2.920567 4.602322 1.880790849211783e-38 1768976227
-47.959774 2.920567 2.559371 1.880790849211783e-38 1768976227
-47.959774 2.920567 2.323645 1.880790849211783e-38 1768976227
-47.959778 2.920567 4.248733 1.880790849211783e-38 1768976227
-47.959774 2.920567 4.032652 1.880790849211783e-38 1768976227
-47.959770 2.920567 1.999524 1.880790849211783e-38 1768976227
-47.959774 2.920567 1.773621 1.880790849211783e-38 1768976227
-47.959774 2.920567 3.728174 1.880790849211783e-38 1768976227
-47.959778 2.920568 3.423696 1.880790849211783e-38 1768976227
-47.959782 2.920567 1.449499 1.880790849211783e-38 1768976227
-47.959778 2.920567 1.213774 1.880790849211783e-38 1768976227
-47.959778 2.920567 3.178149 1.880790849211783e-38 1768976227
-47.959778 2.920568 2.873671 1.880790849211783e-38 1768976227
-47.959766 2.920567 -0.858642 1.880790849211783e-38 1768976227
-47.959774 2.920567 -1.123833 1.880790849211783e-38 1768976227
-47.959782 2.920567 0.830721 1.880790849211783e-38 1768976227
-47.959774 2.920567 0.585174 1.880790849211783e-38 1768976227
-47.959778 2.920567 -1.418489 1.880790849211783e-38 1768976227
-47.959782 2.920567 -1.654215 1.880790849211783e-38 1768976227
-47.959774 2.920567 0.290518 1.880790849211783e-38 1768976227
-47.959778 2.920567 0.035148 1.880790849211783e-38 1768976227
-48.085541 3.073816 -0.279936 1.880790849211783e-38 1768976227
-48.085545 3.073817 -0.555722 1.880790849211783e-38 1768976227
-48.085545 3.073817 4.930442 1.880790849211783e-38 1768976227
-48.085545 3.073817 4.615259 1.880790849211783e-38 1768976227
-48.085545 3.073816 2.566565 1.880790849211783e-38 1768976227
-48.085541 3.073817 2.330177 1.880790849211783e-38 1768976227
-48.085537 3.073817 4.260676 1.880790849211783e-38 1768976227
-48.085548 3.073817 4.043989 1.880790849211783e-38 1768976227
-48.085548 3.073817 2.005145 1.880790849211783e-38 1768976227
-48.085548 3.073817 1.778607 1.880790849211783e-38 1768976227
-48.085541 3.073817 3.738654 1.880790849211783e-38 1768976227
-48.085537 3.073816 3.433320 1.880790849211783e-38 1768976227
-48.085548 3.073817 1.453573 1.880790849211783e-38 1768976227
-48.085545 3.073817 1.217186 1.880790849211783e-38 1768976227
-48.085541 3.073816 3.187083 1.880790849211783e-38 1768976227
-48.085545 3.073817 2.881749 1.880790849211783e-38 1768976227
-48.085548 3.073817 -0.861056 1.880790849211783e-38 1768976227
-48.085537 3.073816 -1.126992 1.880790849211783e-38 1768976227
-48.085545 3.073817 0.833056 1.880790849211783e-38 1768976227
-48.085541 3.073816 0.586819 1.880790849211783e-38 1768976227
-48.085548 3.073817 -1.422477 1.880790849211783e-38 1768976227
-48.085545 3.073817 -1.658865 1.880790849211783e-38 1768976227
-48.085545 3.073817 0.291334 1.880790849211783e-38 1768976227
-48.085545 3.073817 0.035247 1.880790849211783e-38 1768976227
-48.212025 3.227931 -0.280728 1.880790849211783e-38 1768976227
-48.212025 3.227932 -0.557294 1.880790849211783e-38 1768976227
-48.212025 3.227932 4.944387 1.880790849211783e-38 1768976227
-48.212025 3.227932 4.628312 1.880790849211783e-38 1768976227
-48.212021 3.227931 2.573824 1.880790849211783e-38 1768976227
-48.212021 3.227931 2.336767 1.880790849211783e-38 1768976227
-48.212021 3.227932 4.272727 1.880790849211783e-38 1768976227
-48.212021 3.227931 4.055426 1.880790849211783e-38 1768976227
-48.212021 3.227931 2.010816 1.880790849211783e-38 1768976227
-48.212025 3.227931 1.783637 1.880790849211783e-38 1768976227
-48.212025 3.227932 3.749228 1.880790849211783e-38 1768976227
-48.212021 3.227932 3.443030 1.880790849211783e-38 1768976227
-48.212017 3.227931 1.457684 1.880790849211783e-38 1768976227
-48.212029 3.227932 1.220628 1.880790849211783e-38 1768976227
-48.212021 3.227932 3.196096 1.880790849211783e-38 1768976227
-48.212017 3.227931 2.889899 1.880790849211783e-38 1768976227
-48.212017 3.227931 -0.863491 1.880790849211783e-38 1768976227
-48.212025 3.227932 -1.130180 1.880790849211783e-38 1768976227
-48.212017 3.227931 0.835412 1.880790849211783e-38 1768976227
-48.212025 3.227931 0.588479 1.880790849211783e-38 1768976227
-48.212029 3.227932 -1.426500 1.880790849211783e-38 1768976227
-48.212025 3.227931 -1.663556 1.880790849211783e-38 1768976227
-48.212021 3.227931 0.292158 1.880790849211783e-38 1768976227
-48.212021 3.227931 0.035347 1.880790849211783e-38 1768976227
-48.339214 3.382921 -0.281526 1.880790849211783e-38 1768976227
-48.339218 3.382922 -0.558879 1.880790849211783e-38 1768976227
-48.339222 3.382923 4.958456 1.880790849211783e-38 1768976227
-48.339230 3.382923 4.641482 1.880790849211783e-38 1768976227
-48.339222 3.382922 2.581147 1.880790849211783e-38 1768976227
-48.339214 3.382921 2.343416 1.880790849211783e-38 1768976227
-48.339222 3.382922 4.284884 1.880790849211783e-38 1768976227
-48.339218 3.382922 4.066965 1.880790849211783e-38 1768976227
-48.339214 3.382922 2.016537 1.880790849211783e-38 1768976227
-48.339222 3.382922 1.788712 1.880790849211783e-38 1768976227
-48.339230 3.382923 3.759897 1.880790849211783e-38 1768976227
-48.339226 3.382923 3.452827 1.880790849211783e-38 1768976227
-48.339218 3.382922 1.461832 1.880790849211783e-38 1768976227
-48.339218 3.382921 1.224101 1.880790849211783e-38 1768976227
-48.339218 3.382922 3.205191 1.880790849211783e-38 1768976227
-48.339222 3.382922 2.898122 1.880790849211783e-38 1768976227
-48.339214 3.382922 -0.865948 1.880790849211783e-38 1768976227
-48.339222 3.382922 -1.133395 1.880790849211783e-38 1768976227
-48.339226 3.382922 0.837789 1.880790849211783e-38 1768976227
-48.339226 3.382923 0.590153 1.880790849211783e-38 1768976227
-48.339222 3.382922 -1.430558 1.880790849211783e-38 1768976227
-48.339218 3.382922 -1.668290 1.880790849211783e-38 1768976227
-48.339218 3.382922 0.292990 1.880790849211783e-38 1768976227
-48.339230 3.382923 0.035447 1.880790849211783e-38 1768976227
-48.468575 3.538903 -0.282341 1.880790849211783e-38 1768976227
-48.468567 3.538903 -0.560496 1.880790849211783e-38 1768976227
-48.468575 3.538903 4.972796 1.880790849211783e-38 1768976227
-48.468567 3.538903 4.654904 1.880790849211783e-38 1768976227
-48.468575 3.538903 2.588613 1.880790849211783e-38 1768976227
-48.468575 3.538903 2.350194 1.880790849211783e-38 1768976227
-48.468582 3.538904 4.297278 1.880790849211783e-38 1768976227
-48.468575 3.538903 4.078728 1.880790849211783e-38 1768976227
-48.468575 3.538903 2.022369 1.880790849211783e-38 1768976227
-48.468571 3.538903 1.793885 1.880790849211783e-38 1768976227
-48.468578 3.538903 3.770771 1.880790849211783e-38 1768976227
-48.468578 3.538904 3.462813 1.880790849211783e-38 1768976227
-48.468571 3.538903 1.466060 1.880790849211783e-38 1768976227
-48.468571 3.538903 1.227642 1.880790849211783e-38 1768976227
-48.468575 3.538903 3.214461 1.880790849211783e-38 1768976227
-48.468571 3.538903 2.906503 1.880790849211783e-38 1768976227
-48.468575 3.538903 -0.868452 1.880790849211783e-38 1768976227
-48.468575 3.538903 -1.136673 1.880790849211783e-38 1768976227
-48.468575 3.538903 0.840212 1.880790849211783e-38 1768976227
-48.468571 3.538903 0.591860 1.880790849211783e-38 1768976227
-48.468575 3.538903 -1.434696 1.880790849211783e-38 1768976227
-48.468571 3.538903 -1.673115 1.880790849211783e-38 1768976227
-48.468567 3.538903 0.293837 1.880790849211783e-38 1768976227
-48.468575 3.538903 0.035550 1.880790849211783e-38 1768976227
-48.665974 3.700908 -0.283554 1.880790849211783e-38 1768976227
-48.665970 3.700907 -0.562905 1.880790849211783e-38 1768976227
-48.665974 3.700908 4.994172 1.880790849211783e-38 1768976227
-48.665974 3.700908 4.674914 1.880790849211783e-38 1768976227
-48.665974 3.700908 2.599740 1.880790849211783e-38 1768976227
-48.665970 3.700908 2.360296 1.880790849211783e-38 1768976227
-48.665977 3.700908 4.315749 1.880790849211783e-38 1768976227
-48.665974 3.700908 4.096260 1.880790849211783e-38 1768976227
-48.665970 3.700908 2.031062 1.880790849211783e-38 1768976227
-48.665977 3.700908 1.801596 1.880790849211783e-38 1768976227
-48.665974 3.700908 3.786979 1.880790849211783e-38 1768976227
-48.665977 3.700908 3.477698 1.880790849211783e-38 1768976227
-48.665970 3.700907 1.472362 1.880790849211783e-38 1768976227
-48.665977 3.700908 1.232919 1.880790849211783e-38 1768976227
-48.665977 3.700908 3.228278 1.880790849211783e-38 1768976227
-48.665977 3.700909 2.918997 1.880790849211783e-38 1768976227
-48.665981 3.700908 -0.872185 1.880790849211783e-38 1768976227
-48.665977 3.700908 -1.141559 1.880790849211783e-38 1768976227
-48.665974 3.700908 0.843824 1.880790849211783e-38 1768976227
-48.665970 3.700907 0.594404 1.880790849211783e-38 1768976227
-48.665974 3.700908 -1.440863 1.880790849211783e-38 1768976227
-48.665977 3.700908 -1.680307 1.880790849211783e-38 1768976227
-48.665974 3.700908 0.295100 1.880790849211783e-38 1768976227
-48.665970 3.700907 0.035703 1.880790849211783e-38 1768976227
-48.865078 3.864313 -0.284781 1.880790849211783e-38 1768976227
-48.865089 3.864314 -0.565340 1.880790849211783e-38 1768976227
-48.865082 3.864313 4.695139 1.880790849211783e-38 1768976227
-48.865078 3.864313 2.610987 1.880790849211783e-38 1768976227
-48.865078 3.864313 2.370507 1.880790849211783e-38 1768976227
-48.865078 3.864313 4.334420 1.880790849211783e-38 1768976227
-48.865086 3.864314 4.113981 1.880790849211783e-38 1768976227
-48.865086 3.864314 2.039850 1.880790849211783e-38 1768976227
-48.865082 3.864313 1.809390 1.880790849211783e-38 1768976227
-48.865078 3.864313 3.803362 1.880790849211783e-38 1768976227
-48.865089 3.864314 3.492744 1.880790849211783e-38 1768976227
-48.865086 3.864313 1.478732 1.880790849211783e-38 1768976227
-48.865082 3.864313 1.238253 1.880790849211783e-38 1768976227
-48.865089 3.864314 3.242245 1.880790849211783e-38 1768976227
-48.865086 3.864313 2.931625 1.880790849211783e-38 1768976227
-48.865078 3.864313 -0.875959 1.880790849211783e-38 1768976227
-48.865086 3.864314 -1.146498 1.880790849211783e-38 1768976227
-48.865086 3.864314 0.847474 1.880790849211783e-38 1768976227
-48.865078 3.864313 0.596976 1.880790849211783e-38 1768976227
-48.865093 3.864314 -1.447097 1.880790849211783e-38 1768976227
-48.865078 3.864312 -1.687576 1.880790849211783e-38 1768976227
-48.865078 3.864312 0.296377 1.880790849211783e-38 1768976227
-48.865086 3.864313 0.035857 1.880790849211783e-38 1768976227
-49.065895 4.029114 -0.286021 1.880790849211783e-38 1768976227
-49.065895 4.029114 -0.567802 1.880790849211783e-38 1768976227
-49.065895 4.029114 4.715580 1.880790849211783e-38 1768976227
-49.065891 4.029114 2.622354 1.880790849211783e-38 1768976227
-49.065895 4.029114 2.380828 1.880790849211783e-38 1768976227
-49.065895 4.029114 4.353290 1.880790849211783e-38 1768976227
-49.065899 4.029114 4.131892 1.880790849211783e-38 1768976227
-49.065903 4.029114 2.048730 1.880790849211783e-38 1768976227
-49.065891 4.029114 1.817268 1.880790849211783e-38 1768976227
-49.065887 4.029114 3.819921 1.880790849211783e-38 1768976227
-49.065891 4.029114 3.507949 1.880790849211783e-38 1768976227
-49.065895 4.029114 1.485169 1.880790849211783e-38 1768976227
-49.065895 4.029114 1.243643 1.880790849211783e-38 1768976227
-49.065891 4.029114 3.256360 1.880790849211783e-38 1768976227
-49.065891 4.029113 2.944388 1.880790849211783e-38 1768976227
-49.065895 4.029114 -0.879772 1.880790849211783e-38 1768976227
-49.065895 4.029114 -1.151489 1.880790849211783e-38 1768976227
-49.065899 4.029114 0.851164 1.880790849211783e-38 1768976227
-49.065895 4.029114 0.599575 1.880790849211783e-38 1768976227
-49.065895 4.029114 -1.453397 1.880790849211783e-38 1768976227
-49.065899 4.029114 -1.694923 1.880790849211783e-38 1768976227
-49.065891 4.029113 0.297667 1.880790849211783e-38 1768976227
-49.065887 4.029113 0.036013 1.880790849211783e-38 1768976227
-49.298008 4.197897 -0.287446 1.880790849211783e-38 1768976227
-49.298012 4.197897 -0.570632 1.880790849211783e-38 1768976227
-49.298012 4.197897 4.739083 1.880790849211783e-38 1768976227
-49.298016 4.197898 2.635425 1.880790849211783e-38 1768976227
-49.298016 4.197898 2.392694 1.880790849211783e-38 1768976227
-49.298012 4.197897 4.374988 1.880790849211783e-38 1768976227
-49.298016 4.197897 4.152486 1.880790849211783e-38 1768976227
-49.298008 4.197897 2.058941 1.880790849211783e-38 1768976227
-49.298012 4.197897 1.826325 1.880790849211783e-38 1768976227
-49.298008 4.197897 3.838960 1.880790849211783e-38 1768976227
-49.298012 4.197897 3.525434 1.880790849211783e-38 1768976227
-49.298012 4.197897 1.492572 1.880790849211783e-38 1768976227
-49.298012 4.197897 1.249842 1.880790849211783e-38 1768976227
-49.298012 4.197897 3.272590 1.880790849211783e-38 1768976227
-49.298012 4.197897 2.959064 1.880790849211783e-38 1768976227
-49.298012 4.197897 -0.884157 1.880790849211783e-38 1768976227
-49.298008 4.197897 -1.157229 1.880790849211783e-38 1768976227
-49.298008 4.197897 0.855406 1.880790849211783e-38 1768976227
-49.298012 4.197897 0.602563 1.880790849211783e-38 1768976227
-49.298008 4.197897 -1.460641 1.880790849211783e-38 1768976227
-49.298004 4.197896 -1.703370 1.880790849211783e-38 1768976227
-49.298012 4.197898 0.299151 1.880790849211783e-38 1768976227
-49.298008 4.197897 0.036193 1.880790849211783e-38 1768976227
-49.633633 4.377296 -0.289479 1.880790849211783e-38 1768976227
-49.633648 4.377297 -0.574667 1.880790849211783e-38 1768976227
-49.633640 4.377297 4.772595 1.880790849211783e-38 1768976227
-49.633656 4.377298 2.654061 1.880790849211783e-38 1768976227
-49.633644 4.377297 2.409614 1.880790849211783e-38 1768976227
-49.633640 4.377297 4.405925 1.880790849211783e-38 1768976227
-49.633640 4.377296 4.181849 1.880790849211783e-38 1768976227
-49.633644 4.377296 2.073501 1.880790849211783e-38 1768976227
-49.633644 4.377297 1.839240 1.880790849211783e-38 1768976227
-49.633640 4.377297 3.866107 1.880790849211783e-38 1768976227
-49.633644 4.377297 3.550363 1.880790849211783e-38 1768976227
-49.633644 4.377297 1.503126 1.880790849211783e-38 1768976227
-49.633644 4.377297 1.258680 1.880790849211783e-38 1768976227
-49.633648 4.377297 3.295732 1.880790849211783e-38 1768976227
-49.633644 4.377297 2.979989 1.880790849211783e-38 1768976227
-49.633644 4.377297 -0.890409 1.880790849211783e-38 1768976227
-49.633640 4.377297 -1.165412 1.880790849211783e-38 1768976227
-49.633644 4.377297 0.861455 1.880790849211783e-38 1768976227
-49.633644 4.377297 0.606824 1.880790849211783e-38 1768976227
-49.633644 4.377297 -1.470969 1.880790849211783e-38 1768976227
-49.633644 4.377297 -1.715416 1.880790849211783e-38 1768976227
-49.633640 4.377297 0.301266 1.880790849211783e-38 1768976227
-49.633640 4.377296 0.036449 1.880790849211783e-38 1768976227
-49.974056 4.559253 -0.291543 1.880790849211783e-38 1768976227
-49.974064 4.559254 -0.578765 1.880790849211783e-38 1768976227
-49.974060 4.559254 4.806629 1.880790849211783e-38 1768976227
-49.974068 4.559254 2.672987 1.880790849211783e-38 1768976227
-49.974068 4.559254 2.426797 1.880790849211783e-38 1768976227
-49.974068 4.559255 4.437345 1.880790849211783e-38 1768976227
-49.974052 4.559253 4.211670 1.880790849211783e-38 1768976227
-49.974064 4.559254 2.088287 1.880790849211783e-38 1768976227
-49.974064 4.559254 1.852356 1.880790849211783e-38 1768976227
-49.974060 4.559253 3.893676 1.880790849211783e-38 1768976227
-49.974068 4.559254 3.575682 1.880790849211783e-38 1768976227
-49.974060 4.559254 1.513845 1.880790849211783e-38 1768976227
-49.974068 4.559254 1.267656 1.880790849211783e-38 1768976227
-49.974060 4.559254 3.319234 1.880790849211783e-38 1768976227
-49.974060 4.559254 3.001239 1.880790849211783e-38 1768976227
-49.974064 4.559254 -0.896759 1.880790849211783e-38 1768976227
-49.974064 4.559254 -1.173723 1.880790849211783e-38 1768976227
-49.974064 4.559254 0.867598 1.880790849211783e-38 1768976227
-49.974068 4.559254 0.611151 1.880790849211783e-38 1768976227
-49.974064 4.559254 -1.481459 1.880790849211783e-38 1768976227
-49.974068 4.559254 -1.727649 1.880790849211783e-38 1768976227
-49.974060 4.559253 0.303414 1.880790849211783e-38 1768976227
-49.974072 4.559255 0.036709 1.880790849211783e-38 1768976227
-50.576759 4.768091 -0.295142 1.880790849211783e-38 1768976227
-50.576756 4.768091 -0.585909 1.880790849211783e-38 1768976227
-50.576759 4.768092 4.865959 1.880790849211783e-38 1768976227
-50.576756 4.768091 2.705980 1.880790849211783e-38 1768976227
-50.576756 4.768091 2.456752 1.880790849211783e-38 1768976227
-50.576756 4.768091 4.492116 1.880790849211783e-38 1768976227
-50.576763 4.768092 4.263658 1.880790849211783e-38 1768976227
-50.576759 4.768091 2.114064 1.880790849211783e-38 1768976227
-50.576756 4.768091 1.875220 1.880790849211783e-38 1768976227
-50.576759 4.768091 3.941737 1.880790849211783e-38 1768976227
-50.576759 4.768091 3.619817 1.880790849211783e-38 1768976227
-50.576756 4.768090 1.532531 1.880790849211783e-38 1768976227
-50.576759 4.768091 1.283303 1.880790849211783e-38 1768976227
-50.576767 4.768092 3.360205 1.880790849211783e-38 1768976227
-50.576759 4.768091 3.038285 1.880790849211783e-38 1768976227
-50.576763 4.768091 -0.907828 1.880790849211783e-38 1768976227
-50.576759 4.768092 -1.188210 1.880790849211783e-38 1768976227
-50.576759 4.768091 0.878307 1.880790849211783e-38 1768976227
-50.576759 4.768091 0.618695 1.880790849211783e-38 1768976227
-50.576756 4.768091 -1.499745 1.880790849211783e-38 1768976227
-50.576759 4.768091 -1.748974 1.880790849211783e-38 1768976227
-50.576763 4.768092 0.307160 1.880790849211783e-38 1768976227
-50.576759 4.768091 0.037162 1.880790849211783e-38 1768976227
-67.903893 38.000004 -0.452079 1.880790849211783e-38 1768976227
-67.903893 38.000004 -0.897456 1.880790849211783e-38 1768976227
-67.903900 38.000004 4.144834 1.880790849211783e-38 1768976227
-67.903893 38.000000 3.763082 1.880790849211783e-38 1768976227
-67.903885 37.999996 3.238175 1.880790849211783e-38 1768976227
-67.903893 38.000000 2.872331 1.880790849211783e-38 1768976227
-67.903893 38.000000 2.347424 1.880790849211783e-38 1768976227
-67.903885 37.999996 1.965673 1.880790849211783e-38 1768976227
-67.903885 37.999996 4.653833 1.880790849211783e-38 1768976227
-67.903885 37.999996 -1.390550 1.880790849211783e-38 1768976227
-67.903885 38.000000 -1.820020 1.880790849211783e-38 1768976227
-67.903893 38.000000 1.345329 1.880790849211783e-38 1768976227
-67.903885 38.000000 0.947673 1.880790849211783e-38 1768976227
-67.903893 38.000004 -2.297208 1.880790849211783e-38 1768976227
-67.903885 37.999996 -2.678958 1.880790849211783e-38 1768976227
-67.903893 38.000000 0.470484 1.880790849211783e-38 1768976227
-67.903893 38.000000 0.056920 1.880790849211783e-38 1768976227
-67.425903 38.000004 -0.449658 1.880790849211783e-38 1768976227
-67.425896 38.000000 -0.892649 1.880790849211783e-38 1768976227
-67.425896 38.000004 4.122633 1.880790849211783e-38 1768976227
-67.425903 38.000004 3.742927 1.880790849211783e-38 1768976227
-67.425896 38.000000 3.220832 1.880790849211783e-38 1768976227
-67.425888 37.999996 2.856946 1.880790849211783e-38 1768976227
-67.425903 38.000004 2.334851 1.880790849211783e-38 1768976227
-67.425896 38.000000 1.955145 1.880790849211783e-38 1768976227
-67.425911 38.000008 4.628908 1.880790849211783e-38 1768976227
-67.425896 38.000004 -1.383102 1.880790849211783e-38 1768976227
-67.425896 38.000000 -1.810272 1.880790849211783e-38 1768976227
-67.425903 38.000004 1.338124 1.880790849211783e-38 1768976227
-67.425903 38.000004 0.942597 1.880790849211783e-38 1768976227
-67.425911 38.000008 -2.284904 1.880790849211783e-38 1768976227
-67.425896 38.000000 -2.664610 1.880790849211783e-38 1768976227
-67.425888 38.000000 0.467964 1.880790849211783e-38 1768976227
-67.425903 38.000004 0.056616 1.880790849211783e-38 1768976227
-66.953056 37.999996 -0.447267 1.880790849211783e-38 1768976227
-66.953064 38.000000 -0.887902 1.880790849211783e-38 1768976227
-66.953064 38.000004 4.100710 1.880790849211783e-38 1768976227
-66.953049 37.999996 3.723022 1.880790849211783e-38 1768976227
-66.953064 38.000000 3.203705 1.880790849211783e-38 1768976227
-66.953064 38.000000 2.841754 1.880790849211783e-38 1768976227
-66.953064 38.000000 2.322435 1.880790849211783e-38 1768976227
-66.953056 37.999996 1.944748 1.880790849211783e-38 1768976227
-66.953072 38.000004 4.604293 1.880790849211783e-38 1768976227
-66.953064 38.000000 -1.375747 1.880790849211783e-38 1768976227
-66.953056 38.000000 -1.800645 1.880790849211783e-38 1768976227
-66.953064 38.000004 1.331008 1.880790849211783e-38 1768976227
-66.953072 38.000004 0.937585 1.880790849211783e-38 1768976227
-66.953056 38.000000 -2.272753 1.880790849211783e-38 1768976227
-66.953064 38.000000 -2.650441 1.880790849211783e-38 1768976227
-66.953056 38.000000 0.465476 1.880790849211783e-38 1768976227
-66.953056 37.999996 0.056315 1.880790849211783e-38 1768976227
-66.485153 38.000000 -0.444905 1.880790849211783e-38 1768976227
-66.485153 37.999996 -0.883213 1.880790849211783e-38 1768976227
-66.485161 38.000000 4.079053 1.880790849211783e-38 1768976227
-66.485153 38.000000 3.703360 1.880790849211783e-38 1768976227
-66.485153 38.000000 3.186785 1.880790849211783e-38 1768976227
-66.485153 38.000000 2.826746 1.880790849211783e-38 1768976227
-66.485153 37.999996 2.310169 1.880790849211783e-38 1768976227
-66.485153 38.000000 1.934478 1.880790849211783e-38 1768976227
-66.485153 37.999996 4.579975 1.880790849211783e-38 1768976227
-66.485153 37.999996 -1.368481 1.880790849211783e-38 1768976227
-66.485153 38.000000 -1.791135 1.880790849211783e-38 1768976227
-66.485161 38.000004 1.323979 1.880790849211783e-38 1768976227
-66.485153 38.000000 0.932633 1.880790849211783e-38 1768976227
-66.485161 38.000000 -2.260750 1.880790849211783e-38 1768976227
-66.485153 38.000000 -2.636443 1.880790849211783e-38 1768976227
-66.485153 37.999996 0.463018 1.880790849211783e-38 1768976227
-66.485153 38.000004 0.056017 1.880790849211783e-38 1768976227
-66.022156 37.999996 -0.442571 1.880790849211783e-38 1768976227
-66.022148 37.999996 -0.878581 1.880790849211783e-38 1768976227
-66.022156 37.999996 4.057660 1.880790849211783e-38 1768976227
-66.022156 38.000004 3.683938 1.880790849211783e-38 1768976227
-66.022148 37.999996 3.170071 1.880790849211783e-38 1768976227
-66.022156 38.000000 2.811921 1.880790849211783e-38 1768976227
-66.022163 38.000000 2.298054 1.880790849211783e-38 1768976227
-66.022156 38.000000 1.924332 1.880790849211783e-38 1768976227
-66.022163 38.000000 4.555955 1.880790849211783e-38 1768976227
-66.022163 38.000000 -1.361304 1.880790849211783e-38 1768976227
-66.022148 37.999996 -1.781741 1.880790849211783e-38 1768976227
-66.022156 38.000000 1.317035 1.880790849211783e-38 1768976227
-66.022163 38.000000 0.927742 1.880790849211783e-38 1768976227
-66.022148 37.999996 -2.248893 1.880790849211783e-38 1768976227
-66.022156 37.999996 -2.622615 1.880790849211783e-38 1768976227
-66.022156 38.000004 0.460589 1.880790849211783e-38 1768976227
-66.022156 38.000000 0.055723 1.880790849211783e-38 1768976227
-65.563988 38.000000 -0.440266 1.880790849211783e-38 1768976227
-65.563988 37.999996 -0.874005 1.880790849211783e-38 1768976227
-65.563995 38.000000 4.036527 1.880790849211783e-38 1768976227
-65.563988 37.999996 3.664751 1.880790849211783e-38 1768976227
-65.563988 37.999996 3.153560 1.880790849211783e-38 1768976227
-65.563995 38.000000 2.797276 1.880790849211783e-38 1768976227
-65.563988 38.000000 2.286085 1.880790849211783e-38 1768976227
-65.563980 37.999996 1.914309 1.880790849211783e-38 1768976227
-65.563995 38.000004 4.532227 1.880790849211783e-38 1768976227
-65.563980 37.999996 -1.354214 1.880790849211783e-38 1768976227
-65.563988 38.000000 -1.772462 1.880790849211783e-38 1768976227
-65.563995 38.000000 1.310175 1.880790849211783e-38 1768976227
-65.563988 38.000000 0.922910 1.880790849211783e-38 1768976227
-65.563988 38.000000 -2.237181 1.880790849211783e-38 1768976227
-65.563988 38.000000 -2.608956 1.880790849211783e-38 1768976227
-65.563980 37.999996 0.458190 1.880790849211783e-38 1768976227
-65.563995 38.000004 0.055433 1.880790849211783e-38 1768976227
-65.110558 37.999996 -0.437989 1.880790849211783e-38 1768976227
-65.110558 37.999996 -0.869484 1.880790849211783e-38 1768976227
-65.110558 37.999996 4.015648 1.880790849211783e-38 1768976227
-65.110558 38.000000 3.645796 1.880790849211783e-38 1768976227
-65.110550 37.999996 3.137249 1.880790849211783e-38 1768976227
-65.110573 38.000000 2.782808 1.880790849211783e-38 1768976227
-65.110558 37.999996 2.274260 1.880790849211783e-38 1768976227
-65.110550 37.999996 1.904408 1.880790849211783e-38 1768976227
-65.110558 38.000000 4.986511 1.880790849211783e-38 1768976227
-65.110565 38.000000 4.508785 1.880790849211783e-38 1768976227
-65.110558 37.999996 -1.347209 1.880790849211783e-38 1768976227
-65.110565 38.000000 -1.763294 1.880790849211783e-38 1768976227
-65.110565 38.000000 1.303399 1.880790849211783e-38 1768976227
-65.110558 37.999996 0.918136 1.880790849211783e-38 1768976227
-65.110565 37.999996 -2.225609 1.880790849211783e-38 1768976227
-65.110558 37.999996 -2.595462 1.880790849211783e-38 1768976227
-65.110565 38.000000 0.455821 1.880790849211783e-38 1768976227
-65.110565 38.000000 0.055146 1.880790849211783e-38 1768976227
-64.661804 38.000000 -0.435739 1.880790849211783e-38 1768976227
-64.661804 38.000004 -0.865018 1.880790849211783e-38 1768976227
-64.661812 38.000000 3.995022 1.880790849211783e-38 1768976227
-64.661804 38.000000 3.627069 1.880790849211783e-38 1768976227
-64.661797 38.000000 3.121135 1.880790849211783e-38 1768976227
-64.661812 38.000004 2.768514 1.880790849211783e-38 1768976227
-64.661804 38.000000 2.262578 1.880790849211783e-38 1768976227
-64.661812 38.000004 1.894626 1.880790849211783e-38 1768976227
-64.661797 37.999996 4.960896 1.880790849211783e-38 1768976227
-64.661797 37.999996 4.485624 1.880790849211783e-38 1768976227
-64.661789 37.999996 -1.340289 1.880790849211783e-38 1768976227
-64.661789 37.999996 -1.754237 1.880790849211783e-38 1768976227
-64.661797 37.999996 1.296703 1.880790849211783e-38 1768976227
-64.661804 38.000004 0.913420 1.880790849211783e-38 1768976227
-64.661804 38.000000 -2.214177 1.880790849211783e-38 1768976227
-64.661804 38.000000 -2.582130 1.880790849211783e-38 1768976227
-64.661804 38.000000 0.453479 1.880790849211783e-38 1768976227
-64.661789 37.999996 0.054863 1.880790849211783e-38 1768976227
-64.217621 38.000004 -0.433517 1.880790849211783e-38 1768976227
-64.217628 38.000008 -0.860605 1.880790849211783e-38 1768976227
-64.217613 38.000000 3.974641 1.880790849211783e-38 1768976227
-64.217628 38.000004 3.608566 1.880790849211783e-38 1768976227
-64.217621 38.000000 3.105213 1.880790849211783e-38 1768976227
-64.217621 38.000000 2.754390 1.880790849211783e-38 1768976227
-64.217621 38.000000 2.251036 1.880790849211783e-38 1768976227
-64.217636 38.000008 1.884961 1.880790849211783e-38 1768976227
-64.217613 37.999996 4.935589 1.880790849211783e-38 1768976227
-64.217621 38.000004 4.462742 1.880790849211783e-38 1768976227
-64.217621 38.000000 -1.333452 1.880790849211783e-38 1768976227
-64.217628 38.000004 -1.745288 1.880790849211783e-38 1768976227
-64.217628 38.000000 1.290089 1.880790849211783e-38 1768976227
-64.217613 37.999996 0.908760 1.880790849211783e-38 1768976227
-64.217628 38.000008 -2.202882 1.880790849211783e-38 1768976227
-64.217628 38.000004 -2.568958 1.880790849211783e-38 1768976227
-64.217621 38.000000 0.451166 1.880790849211783e-38 1768976227
-64.217621 37.999996 0.054583 1.880790849211783e-38 1768976227
-63.778011 38.000000 -0.431320 1.880790849211783e-38 1768976227
-63.778019 38.000004 -0.856246 1.880790849211783e-38 1768976227
-63.778023 38.000004 3.954508 1.880790849211783e-38 1768976227
-63.778011 38.000000 3.590286 1.880790849211783e-38 1768976227
-63.778015 38.000000 3.089482 1.880790849211783e-38 1768976227
-63.778008 37.999996 2.740437 1.880790849211783e-38 1768976227
-63.778015 37.999996 2.239633 1.880790849211783e-38 1768976227
-63.778019 38.000004 1.875412 1.880790849211783e-38 1768976227
-63.778011 38.000000 4.910587 1.880790849211783e-38 1768976227
-63.778015 38.000004 4.440135 1.880790849211783e-38 1768976227
-63.778019 38.000000 -1.326697 1.880790849211783e-38 1768976227
-63.778011 37.999996 -1.736447 1.880790849211783e-38 1768976227
-63.778011 38.000000 1.283553 1.880790849211783e-38 1768976227
-63.778019 38.000000 0.904157 1.880790849211783e-38 1768976227
-63.778019 38.000000 -2.191723 1.880790849211783e-38 1768976227
-63.778027 38.000008 -2.555945 1.880790849211783e-38 1768976227
-63.778023 38.000004 0.448880 1.880790849211783e-38 1768976227
-63.778015 38.000000 0.054307 1.880790849211783e-38 1768976227
-63.342758 37.999996 -0.429150 1.880790849211783e-38 1768976227
-63.342770 38.000000 -0.851937 1.880790849211783e-38 1768976227
-63.342770 38.000004 3.934608 1.880790849211783e-38 1768976227
-63.342766 38.000000 3.572219 1.880790849211783e-38 1768976227
-63.342770 37.999996 3.073936 1.880790849211783e-38 1768976227
-63.342762 37.999996 2.726647 1.880790849211783e-38 1768976227
-63.342777 38.000004 2.228364 1.880790849211783e-38 1768976227
-63.342770 38.000000 1.865975 1.880790849211783e-38 1768976227
-63.342773 38.000000 4.885878 1.880790849211783e-38 1768976227
-63.342773 38.000004 4.417793 1.880790849211783e-38 1768976227
-63.342770 38.000000 -1.320022 1.880790849211783e-38 1768976227
-63.342770 37.999996 -1.727709 1.880790849211783e-38 1768976227
-63.342762 37.999996 1.277094 1.880790849211783e-38 1768976227
-63.342766 38.000000 0.899607 1.880790849211783e-38 1768976227
-63.342773 38.000000 -2.180694 1.880790849211783e-38 1768976227
-63.342758 37.999996 -2.543082 1.880790849211783e-38 1768976227
-63.342773 38.000004 0.446622 1.880790849211783e-38 1768976227
-63.342770 38.000004 0.054033 1.880790849211783e-38 1768976227
-62.911880 38.000004 -0.427005 1.880790849211783e-38 1768976227
-62.911880 38.000004 -0.847680 1.880790849211783e-38 1768976227
-62.911888 38.000004 3.914945 1.880790849211783e-38 1768976227
-62.911884 38.000004 3.554367 1.880790849211783e-38 1768976227
-62.911873 38.000000 3.058574 1.880790849211783e-38 1768976227
-62.911884 38.000008 2.713021 1.880790849211783e-38 1768976227
-62.911877 38.000000 2.217227 1.880790849211783e-38 1768976227
-62.911865 37.999992 1.856649 1.880790849211783e-38 1768976227
-62.911880 38.000004 4.861460 1.880790849211783e-38 1768976227
-62.911880 38.000000 4.395714 1.880790849211783e-38 1768976227
-62.911877 38.000000 -1.313424 1.880790849211783e-38 1768976227
-62.911873 38.000000 -1.719074 1.880790849211783e-38 1768976227
-62.911888 38.000008 1.270712 1.880790849211783e-38 1768976227
-62.911877 38.000000 0.895111 1.880790849211783e-38 1768976227
-62.911884 38.000008 -2.169796 1.880790849211783e-38 1768976227
-62.911888 38.000008 -2.530374 1.880790849211783e-38 1768976227
-62.911877 38.000000 0.444389 1.880790849211783e-38 1768976227
-62.911873 38.000000 0.053763 1.880790849211783e-38 1768976227
-62.485271 38.000004 -0.424886 1.880790849211783e-38 1768976227
-62.485260 37.999996 -0.843472 1.880790849211783e-38 1768976227
-62.485256 37.999996 3.895510 1.880790849211783e-38 1768976227
-62.485264 37.999996 3.536723 1.880790849211783e-38 1768976227
-62.485260 38.000000 3.043391 1.880790849211783e-38 1768976227
-62.485275 38.000004 2.699554 1.880790849211783e-38 1768976227
-62.485271 38.000004 2.206221 1.880790849211783e-38 1768976227
-62.485264 38.000000 1.847433 1.880790849211783e-38 1768976227
-62.485275 38.000008 4.837328 1.880790849211783e-38 1768976227
-62.485256 37.999996 4.373893 1.880790849211783e-38 1768976227
-62.485260 38.000000 -1.306905 1.880790849211783e-38 1768976227
-62.485260 38.000000 -1.710541 1.880790849211783e-38 1768976227
-62.485260 38.000000 1.264404 1.880790849211783e-38 1768976227
-62.485271 38.000004 0.890668 1.880790849211783e-38 1768976227
-62.485260 38.000000 -2.159025 1.880790849211783e-38 1768976227
-62.485271 38.000000 -2.517813 1.880790849211783e-38 1768976227
-62.485271 38.000000 0.442184 1.880790849211783e-38 1768976227
-62.485260 38.000000 0.053496 1.880790849211783e-38 1768976227
-62.062862 38.000000 -0.422791 1.880790849211783e-38 1768976227
-62.062855 37.999992 -0.839313 1.880790849211783e-38 1768976227
-62.062862 38.000000 3.876304 1.880790849211783e-38 1768976227
-62.062847 37.999992 3.519285 1.880790849211783e-38 1768976227
-62.062859 38.000000 3.028386 1.880790849211783e-38 1768976227
-62.062862 38.000000 2.686244 1.880790849211783e-38 1768976227
-62.062874 38.000008 2.195343 1.880790849211783e-38 1768976227
-62.062862 38.000000 1.838325 1.880790849211783e-38 1768976227
-62.062855 37.999996 4.813478 1.880790849211783e-38 1768976227
-62.062866 37.999996 4.352329 1.880790849211783e-38 1768976227
-62.062851 37.999992 -1.300461 1.880790849211783e-38 1768976227
-62.062859 37.999996 -1.702107 1.880790849211783e-38 1768976227
-62.062855 37.999992 1.258170 1.880790849211783e-38 1768976227
-62.062855 37.999996 0.886276 1.880790849211783e-38 1768976227
-62.062866 38.000000 -2.148380 1.880790849211783e-38 1768976227
-62.062862 38.000000 -2.505399 1.880790849211783e-38 1768976227
-62.062862 37.999996 0.440003 1.880790849211783e-38 1768976227
-62.062866 38.000000 0.053233 1.880790849211783e-38 1768976227
-61.644604 38.000000 -0.420720 1.880790849211783e-38 1768976227
-61.644596 37.999996 -0.835203 1.880790849211783e-38 1768976227
-61.644608 38.000000 3.857321 1.880790849211783e-38 1768976227
-61.644608 38.000000 3.502051 1.880790849211783e-38 1768976227
-61.644608 38.000004 3.013556 1.880790849211783e-38 1768976227
-61.644600 38.000000 2.673089 1.880790849211783e-38 1768976227
-61.644604 38.000000 2.184592 1.880790849211783e-38 1768976227
-61.644604 38.000000 1.829322 1.880790849211783e-38 1768976227
-61.644604 38.000000 4.789906 1.880790849211783e-38 1768976227
-61.644608 38.000004 4.331015 1.880790849211783e-38 1768976227
-61.644600 38.000000 -1.294093 1.880790849211783e-38 1768976227
-61.644611 38.000004 -1.693772 1.880790849211783e-38 1768976227
-61.644600 38.000000 1.252009 1.880790849211783e-38 1768976227
-61.644604 38.000000 0.881936 1.880790849211783e-38 1768976227
-61.644611 38.000000 -2.137859 1.880790849211783e-38 1768976227
-61.644608 38.000000 -2.493130 1.880790849211783e-38 1768976227
-61.644615 38.000008 0.437849 1.880790849211783e-38 1768976227
-61.644600 38.000000 0.052972 1.880790849211783e-38 1768976227
-61.230419 37.999996 -0.418674 1.880790849211783e-38 1768976227
-61.230427 38.000004 -0.831140 1.880790849211783e-38 1768976227
-61.230412 37.999996 3.838558 1.880790849211783e-38 1768976227
-61.230415 38.000000 3.485016 1.880790849211783e-38 1768976227
-61.230412 37.999996 2.998897 1.880790849211783e-38 1768976227
-61.230415 38.000000 2.660086 1.880790849211783e-38 1768976227
-61.230419 38.000000 2.173965 1.880790849211783e-38 1768976227
-61.230427 38.000004 1.820424 1.880790849211783e-38 1768976227
-61.230419 38.000004 4.766606 1.880790849211783e-38 1768976227
-61.230419 38.000004 4.309947 1.880790849211783e-38 1768976227
-61.230423 37.999996 -1.287798 1.880790849211783e-38 1768976227
-61.230412 37.999996 -1.685533 1.880790849211783e-38 1768976227
-61.230415 38.000000 1.245919 1.880790849211783e-38 1768976227
-61.230415 38.000000 0.877646 1.880790849211783e-38 1768976227
-61.230412 37.999996 -2.127460 1.880790849211783e-38 1768976227
-61.230419 38.000000 -2.481002 1.880790849211783e-38 1768976227
-61.230423 38.000000 0.435719 1.880790849211783e-38 1768976227
-61.230423 38.000004 0.052714 1.880790849211783e-38 1768976227
-60.820229 37.999996 -0.416651 1.880790849211783e-38 1768976227
-60.820232 38.000000 -0.827124 1.880790849211783e-38 1768976227
-60.820229 37.999996 3.820011 1.880790849211783e-38 1768976227
-60.820229 38.000000 3.468177 1.880790849211783e-38 1768976227
-60.820236 38.000000 2.984407 1.880790849211783e-38 1768976227
-60.820236 38.000000 2.647233 1.880790849211783e-38 1768976227
-60.820240 38.000000 2.163462 1.880790849211783e-38 1768976227
-60.820236 38.000000 1.811628 1.880790849211783e-38 1768976227
-60.820229 37.999996 4.743574 1.880790849211783e-38 1768976227
-60.820225 37.999996 4.289122 1.880790849211783e-38 1768976227
-60.820236 38.000000 -1.281575 1.880790849211783e-38 1768976227
-60.820236 38.000000 -1.677389 1.880790849211783e-38 1768976227
-60.820236 38.000000 1.239899 1.880790849211783e-38 1768976227
-60.820240 38.000004 0.873406 1.880790849211783e-38 1768976227
-60.820248 38.000004 -2.117181 1.880790849211783e-38 1768976227
-60.820240 38.000000 -2.469015 1.880790849211783e-38 1768976227
-60.820229 37.999996 0.433613 1.880790849211783e-38 1768976227
-60.820244 38.000004 0.052460 1.880790849211783e-38 1768976227
-60.414062 38.000000 -0.414652 1.880790849211783e-38 1768976227
-60.414070 38.000004 -0.823155 1.880790849211783e-38 1768976227
-60.414051 37.999996 3.801680 1.880790849211783e-38 1768976227
-60.414059 37.999996 3.451534 1.880790849211783e-38 1768976227
-60.414051 37.999996 2.970085 1.880790849211783e-38 1768976227
-60.414062 38.000000 2.634530 1.880790849211783e-38 1768976227
