# .PCD v0.7 - Point Cloud Data file format
VERSION 0.7
FIELDS x y z rgb label
SIZE 4 4 4 4 4
TYPE F F F F U
COUNT 1 1 1 1 1
WIDTH 741
HEIGHT 1
VIEWPOINT 0 0 0 1 0 0 0
POINTS 741
DATA ascii
-23.563860 -49.238007 18.903088 1.880790849211783e-38 1768976227
-18.922182 -39.538960 12.150938 1.880790849211783e-38 1768976227
-20.488873 -42.812649 12.730101 1.880790849211783e-38 1768976227
-23.781996 -49.693806 18.593834 1.880790849211783e-38 1768976227
-20.810532 -43.484768 15.807449 1.880790849211783e-38 1768976227
-20.449270 -42.729893 12.221325 1.880790849211783e-38 1768976227
-21.200663 -44.299973 12.088119 1.880790849211783e-38 1768976227
-20.716412 -43.288101 15.216033 1.880790849211783e-38 1768976227
-20.809683 -43.482998 14.732716 1.880790849211783e-38 1768976227
-21.929386 -45.822678 9.263731 1.880790849211783e-38 1768976227
-22.940664 -47.935802 9.212953 1.880790849211783e-38 1768976227
-20.553635 -42.947968 11.193625 1.880790849211783e-38 1768976227
-22.201855 -46.392014 11.775857 1.880790849211783e-38 1768976227
-22.970701 -47.998562 8.789921 1.880790849211783e-38 1768976227
-23.276630 -48.637821 8.433033 1.880790849211783e-38 1768976227
-22.507450 -47.030582 11.437022 1.880790849211783e-38 1768976227
-22.456961 -46.925079 11.028539 1.880790849211783e-38 1768976227
-30.006639 -62.217987 8.621476 1.880790849211783e-38 1768976227
-40.833950 -84.668137 11.251991 1.880790849211783e-38 1768976227
-40.115356 -83.178139 10.506544 1.880790849211783e-38 1768976227
-40.694088 -84.378136 10.007041 1.880790849211783e-38 1768976227
-23.712173 -49.166576 8.185415 1.880790849211783e-38 1768976227
-23.256981 -48.222744 7.678074 1.880790849211783e-38 1768976227
-43.816769 -90.852928 10.321323 1.880790849211783e-38 1768976227
-24.948542 -51.730156 7.919550 1.880790849211783e-38 1768976227
-29.655928 -61.490795 9.023095 1.880790849211783e-38 1768976227
-42.404736 -87.925110 8.192821 1.880790849211783e-38 1768976227
-42.876141 -88.902565 4.107436 1.880790849211783e-38 1768976227
-44.349243 -91.957001 7.921561 1.880790849211783e-38 1768976227
-43.584541 -90.371414 7.149176 1.880790849211783e-38 1768976227
-44.249153 -91.749466 6.737637 1.880790849211783e-38 1768976227
-21.448980 -44.473900 9.912480 1.880790849211783e-38 1768976227
-22.467283 -46.585327 9.843889 1.880790849211783e-38 1768976227
-19.349630 -40.120953 13.121626 1.880790849211783e-38 1768976227
-19.200106 -39.810917 12.685935 1.880790849211783e-38 1768976227
-23.665688 -49.070190 18.865974 1.880790849211783e-38 1768976227
-19.187651 -39.785095 12.244307 1.880790849211783e-38 1768976227
-20.519156 -42.545937 12.669139 1.880790849211783e-38 1768976227
-23.996908 -49.756966 18.644457 1.880790849211783e-38 1768976227
-20.536444 -42.581779 15.501641 1.880790849211783e-38 1768976227
-21.020435 -43.585320 12.484063 1.880790849211783e-38 1768976227
-21.556396 -44.696629 12.214037 1.880790849211783e-38 1768976227
-20.719303 -42.960934 15.122929 1.880790849211783e-38 1768976227
-20.807909 -43.144657 14.639276 1.880790849211783e-38 1768976227
-22.458281 -46.566662 9.427788 1.880790849211783e-38 1768976227
-22.897156 -47.476654 9.137938 1.880790849211783e-38 1768976227
-20.424883 -42.350464 11.053899 1.880790849211783e-38 1768976227
-22.221144 -46.074959 11.712335 1.880790849211783e-38 1768976227
-23.024635 -47.740982 8.755427 1.880790849211783e-38 1768976227
-22.773529 -47.220318 8.199131 1.880790849211783e-38 1768976227
-22.653063 -46.970535 11.438981 1.880790849211783e-38 1768976227
-22.416130 -46.479259 10.939599 1.880790849211783e-38 1768976227
-30.102659 -61.938946 8.595352 1.880790849211783e-38 1768976227
-40.502628 -83.337830 11.091383 1.880790849211783e-38 1768976227
-39.979008 -82.260429 10.405807 1.880790849211783e-38 1768976227
-40.652180 -83.645538 9.934653 1.880790849211783e-38 1768976227
-23.363363 -48.072235 8.014921 1.880790849211783e-38 1768976227
-23.900442 -49.177322 7.841506 1.880790849211783e-38 1768976227
-44.115971 -90.772598 10.327267 1.880790849211783e-38 1768976227
-23.989153 -49.359856 7.567715 1.880790849211783e-38 1768976227
-29.838543 -61.395504 9.022278 1.880790849211783e-38 1768976227
-43.611248 -89.734093 4.824934 1.880790849211783e-38 1768976227
-42.998333 -88.472961 8.255916 1.880790849211783e-38 1768976227
-43.240070 -88.970360 4.116575 1.880790849211783e-38 1768976227
-44.294434 -91.139809 7.220499 1.880790849211783e-38 1768976227
-44.435543 -91.430153 6.723999 1.880790849211783e-38 1768976227
-21.418627 -44.070766 9.836982 1.880790849211783e-38 1768976227
-22.652185 -46.608925 9.863267 1.880790849211783e-38 1768976227
-19.693380 -40.520908 13.271797 1.880790849211783e-38 1768976227
-19.351871 -39.818230 12.706805 1.880790849211783e-38 1768976227
-23.634066 -48.629227 18.723759 1.880790849211783e-38 1768976227
-19.389626 -39.895916 12.296354 1.880790849211783e-38 1768976227
-18.919508 -38.928600 11.608924 1.880790849211783e-38 1768976227
-24.134201 -49.658302 18.634678 1.880790849211783e-38 1768976227
-20.695765 -42.583408 15.524886 1.880790849211783e-38 1768976227
-21.322582 -43.873146 12.584867 1.880790849211783e-38 1768976227
-21.903486 -45.068405 12.333627 1.880790849211783e-38 1768976227
-20.931767 -43.069008 15.183124 1.880790849211783e-38 1768976227
-20.810116 -42.818699 14.549906 1.880790849211783e-38 1768976227
-22.348717 -45.984509 9.323530 1.880790849211783e-38 1768976227
-22.719698 -46.747837 9.010808 1.880790849211783e-38 1768976227
-20.261705 -41.690296 10.897491 1.880790849211783e-38 1768976227
-22.486502 -46.268017 11.778596 1.880790849211783e-38 1768976227
-22.788895 -46.890213 8.611966 1.880790849211783e-38 1768976227
-23.045332 -47.417858 8.245461 1.880790849211783e-38 1768976227
-22.801704 -46.916576 11.442535 1.880790849211783e-38 1768976227
-22.253855 -45.789318 10.792959 1.880790849211783e-38 1768976227
-30.196024 -61.657352 8.568874 1.880790849211783e-38 1768976227
-40.448448 -82.591820 11.008282 1.880790849211783e-38 1768976227
-40.813515 -83.337242 10.557546 1.880790849211783e-38 1768976227
-41.158047 -84.040741 9.996290 1.880790849211783e-38 1768976227
-24.067282 -49.143059 8.205521 1.880790849211783e-38 1768976227
-23.892645 -48.786469 7.790637 1.880790849211783e-38 1768976227
-40.832226 -83.375450 9.499655 1.880790849211783e-38 1768976227
-41.430553 -84.597168 9.022682 1.880790849211783e-38 1768976227
-23.946148 -48.895714 7.507592 1.880790849211783e-38 1768976227
-25.464102 -51.995228 7.652126 1.880790849211783e-38 1768976227
-43.679096 -89.188484 4.802659 1.880790849211783e-38 1768976227
-42.802402 -87.398361 8.605293 1.880790849211783e-38 1768976227
-43.091717 -87.989105 8.222855 1.880790849211783e-38 1768976227
-43.456730 -88.734428 4.111705 1.880790849211783e-38 1768976227
-44.432575 -90.727013 7.198380 1.880790849211783e-38 1768976227
-44.665653 -91.202942 6.717166 1.880790849211783e-38 1768976227
-21.579819 -44.063900 9.849932 1.880790849211783e-38 1768976227
-22.939663 -46.840569 9.926883 1.880790849211783e-38 1768976227
-21.677572 -44.263504 14.518955 1.880790849211783e-38 1768976227
-19.919718 -40.674137 12.999055 1.880790849211783e-38 1768976227
-23.969933 -48.944286 18.872812 1.880790849211783e-38 1768976227
-19.190025 -39.184170 12.094771 1.880790849211783e-38 1768976227
-19.242554 -39.291435 11.734377 1.880790849211783e-38 1768976227
-24.202871 -49.419918 18.572531 1.880790849211783e-38 1768976227
-20.605597 -42.074631 15.361986 1.880790849211783e-38 1768976227
-20.765228 -42.400585 12.180378 1.880790849211783e-38 1768976227
-22.247307 -45.426849 12.450026 1.880790849211783e-38 1768976227
-20.877634 -42.630108 15.050529 1.880790849211783e-38 1768976227
-21.202116 -43.292667 14.732622 1.880790849211783e-38 1768976227
-22.407612 -45.754173 9.290489 1.880790849211783e-38 1768976227
-23.365036 -47.709137 9.209643 1.880790849211783e-38 1768976227
-22.592152 -46.130985 12.076004 1.880790849211783e-38 1768976227
-22.619186 -46.186188 11.775079 1.880790849211783e-38 1768976227
-23.061287 -47.088913 8.661195 1.880790849211783e-38 1768976227
-23.222878 -47.418865 8.257779 1.880790849211783e-38 1768976227
-22.716297 -46.384476 11.329420 1.880790849211783e-38 1768976227
-22.331705 -45.599182 10.763968 1.880790849211783e-38 1768976227
-40.803375 -82.684280 11.508157 1.880790849211783e-38 1768976227
-40.637112 -82.347359 10.991986 1.880790849211783e-38 1768976227
-40.922890 -82.926460 10.521093 1.880790849211783e-38 1768976227
-40.966946 -83.015739 9.889021 1.880790849211783e-38 1768976227
-23.732838 -48.092403 8.042006 1.880790849211783e-38 1768976227
-25.101776 -50.866436 8.134836 1.880790849211783e-38 1768976227
-40.799084 -82.675583 9.433890 1.880790849211783e-38 1768976227
-24.099070 -48.834545 7.509326 1.880790849211783e-38 1768976227
-25.367777 -51.405457 7.576555 1.880790849211783e-38 1768976227
-44.123543 -89.412300 4.821855 1.880790849211783e-38 1768976227
-43.411144 -87.968681 8.674298 1.880790849211783e-38 1768976227
-43.065701 -87.268669 8.167628 1.880790849211783e-38 1768976227
-43.297688 -87.738770 4.071601 1.880790849211783e-38 1768976227
-44.806526 -90.796288 7.214565 1.880790849211783e-38 1768976227
-44.757908 -90.697769 6.689871 1.880790849211783e-38 1768976227
-21.791260 -44.157978 9.885609 1.880790849211783e-38 1768976227
-23.092104 -46.794022 9.931733 1.880790849211783e-38 1768976227
-22.789368 -46.180553 15.170246 1.880790849211783e-38 1768976227
-20.079712 -40.689682 13.023318 1.880790849211783e-38 1768976227
-24.312820 -49.267685 19.025705 1.880790849211783e-38 1768976227
-19.498758 -39.512432 12.214191 1.880790849211783e-38 1768976227
-19.419786 -39.352406 11.770025 1.880790849211783e-38 1768976227
-24.374271 -49.392212 18.589661 1.880790849211783e-38 1768976227
-20.624062 -41.792755 15.281710 1.880790849211783e-38 1768976227
-20.935602 -42.424065 12.205206 1.880790849211783e-38 1768976227
-22.396458 -45.384354 12.456836 1.880790849211783e-38 1768976227
-20.910671 -42.373550 14.982148 1.880790849211783e-38 1768976227
-21.155855 -42.870392 14.610567 1.880790849211783e-38 1768976227
-22.696236 -45.991825 9.352602 1.880790849211783e-38 1768976227
-22.507940 -45.610264 8.817547 1.880790849211783e-38 1768976227
-22.869492 -46.342915 12.149483 1.880790849211783e-38 1768976227
-22.850327 -46.304077 11.822651 1.880790849211783e-38 1768976227
-22.775761 -46.152973 8.501641 1.880790849211783e-38 1768976227
-23.206205 -47.025234 8.201381 1.880790849211783e-38 1768976227
-22.660480 -45.919373 11.232460 1.880790849211783e-38 1768976227
-22.503492 -45.601250 10.780430 1.880790849211783e-38 1768976227
-40.791031 -82.034912 11.434846 1.880790849211783e-38 1768976227
-40.529018 -81.507988 10.896209 1.880790849211783e-38 1768976227
-41.266594 -82.991310 10.545063 1.880790849211783e-38 1768976227
-41.356094 -83.171318 9.922366 1.880790849211783e-38 1768976227
-23.727673 -47.718769 7.991455 1.880790849211783e-38 1768976227
-24.108906 -48.485466 7.765651 1.880790849211783e-38 1768976227
-41.315857 -83.090401 9.495399 1.880790849211783e-38 1768976227
-24.386398 -49.043530 7.552736 1.880790849211783e-38 1768976227
-24.226175 -48.721306 7.191678 1.880790849211783e-38 1768976227
-44.440208 -89.373787 5.316662 1.880790849211783e-38 1768976227
-44.292095 -89.075905 4.810895 1.880790849211783e-38 1768976227
-44.010406 -88.509407 8.740665 1.880790849211783e-38 1768976227
-43.556744 -87.597054 8.210618 1.880790849211783e-38 1768976227
-43.614780 -87.713760 4.076526 1.880790849211783e-38 1768976227
-45.391926 -91.287781 6.743457 1.880790849211783e-38 1768976227
-21.490170 -43.218922 9.689847 1.880790849211783e-38 1768976227
-22.847479 -45.948605 9.766879 1.880790849211783e-38 1768976227
-22.780998 -45.814907 15.072632 1.880790849211783e-38 1768976227
-20.034691 -40.291801 12.915251 1.880790849211783e-38 1768976227
-24.421511 -49.114147 18.994766 1.880790849211783e-38 1768976227
-19.835226 -39.890656 12.349544 1.880790849211783e-38 1768976227
-19.596186 -39.409924 11.804850 1.880790849211783e-38 1768976227
-24.360836 -48.992123 18.466644 1.880790849211783e-38 1768976227
-20.956480 -42.145615 15.433774 1.880790849211783e-38 1768976227
-20.660084 -41.549530 11.971478 1.880790849211783e-38 1768976227
-22.337931 -44.923847 12.348873 1.880790849211783e-38 1768976227
-21.428972 -43.095844 15.260312 1.880790849211783e-38 1768976227
-21.257895 -42.751789 14.591929 1.880790849211783e-38 1768976227
-22.730612 -45.713577 9.309916 1.880790849211783e-38 1768976227
-22.806026 -45.865238 8.880095 1.880790849211783e-38 1768976227
-23.093876 -46.444134 12.194222 1.880790849211783e-38 1768976227
-23.020521 -46.296616 11.838416 1.880790849211783e-38 1768976227
-23.709444 -47.682106 8.796447 1.880790849211783e-38 1768976227
-23.571909 -47.405506 8.280063 1.880790849211783e-38 1768976227
-22.689859 -45.631615 11.178758 1.880790849211783e-38 1768976227
-22.139120 -44.524025 10.541502 1.880790849211783e-38 1768976227
-41.172279 -82.179008 11.472189 1.880790849211783e-38 1768976227
-41.486206 -82.805603 11.086354 1.880790849211783e-38 1768976227
-41.634693 -83.101982 10.575032 1.880790849211783e-38 1768976227
-41.354191 -82.542107 9.862135 1.880790849211783e-38 1768976227
-24.553576 -49.008427 8.219799 1.880790849211783e-38 1768976227
-24.129742 -48.162460 7.725538 1.880790849211783e-38 1768976227
-41.460411 -82.754120 9.471216 1.880790849211783e-38 1768976227
-24.538158 -48.977654 7.553954 1.880790849211783e-38 1768976227
-24.540136 -48.981598 7.240992 1.880790849211783e-38 1768976227
-44.963207 -89.745621 5.346825 1.880790849211783e-38 1768976227
-44.460823 -88.742874 4.800129 1.880790849211783e-38 1768976227
-44.195091 -88.212479 8.724466 1.880790849211783e-38 1768976227
-43.669746 -87.163910 8.182327 1.880790849211783e-38 1768976227
-21.796181 -43.504723 9.768620 1.880790849211783e-38 1768976227
-22.850393 -45.608910 9.709278 1.880790849211783e-38 1768976227
-23.126690 -46.160389 15.209170 1.880790849211783e-38 1768976227
-21.716839 -43.346359 13.915299 1.880790849211783e-38 1768976227
-22.547577 -45.004494 13.953699 1.880790849211783e-38 1768976227
-19.861286 -39.642712 11.892468 1.880790849211783e-38 1768976227
-24.380947 -48.663864 18.370548 1.880790849211783e-38 1768976227
-20.694883 -41.306553 15.149297 1.880790849211783e-38 1768976227
-20.287964 -40.494354 11.685031 1.880790849211783e-38 1768976227
-22.664509 -45.237888 12.453931 1.880790849211783e-38 1768976227
-21.300783 -42.515919 15.077640 1.880790849211783e-38 1768976227
-21.433987 -42.781792 14.624167 1.880790849211783e-38 1768976227
-22.976719 -45.861053 9.354021 1.880790849211783e-38 1768976227
-22.969532 -45.846706 8.889879 1.880790849211783e-38 1768976227
-23.336870 -46.579906 12.248294 1.880790849211783e-38 1768976227
-23.437916 -46.781593 11.980452 1.880790849211783e-38 1768976227
-24.110884 -48.124825 8.891495 1.880790849211783e-38 1768976227
-23.778570 -47.461533 8.302336 1.880790849211783e-38 1768976227
-22.911247 -45.730370 11.219829 1.880790849211783e-38 1768976227
-21.760286 -43.433079 10.298701 1.880790849211783e-38 1768976227
-41.225864 -81.669991 11.418434 1.880790849211783e-38 1768976227
-41.856533 -82.919365 11.118437 1.880790849211783e-38 1768976227
-41.830166 -82.867119 10.561152 1.880790849211783e-38 1768976227
-41.808979 -82.825157 9.910975 1.880790849211783e-38 1768976227
-23.560040 -46.673325 7.840033 1.880790849211783e-38 1768976227
-24.408619 -48.354393 7.768098 1.880790849211783e-38 1768976227
-43.347897 -85.873810 9.843184 1.880790849211783e-38 1768976227
-24.522060 -48.579124 7.503860 1.880790849211783e-38 1768976227
-24.694841 -48.921410 7.243071 1.880790849211783e-38 1768976227
-44.926895 -89.001862 5.310563 1.880790849211783e-38 1768976227
-44.935928 -89.019768 4.822414 1.880790849211783e-38 1768976227
-44.601383 -88.357010 8.752026 1.880790849211783e-38 1768976227
-43.834949 -86.838684 8.164171 1.880790849211783e-38 1768976227
-22.408823 -44.392715 9.983142 1.880790849211783e-38 1768976227
-23.096830 -45.755692 9.755309 1.880790849211783e-38 1768976227
-22.877750 -45.321682 14.955495 1.880790849211783e-38 1768976227
-21.514431 -42.620895 13.703176 1.880790849211783e-38 1768976227
-22.751324 -45.071228 13.995601 1.880790849211783e-38 1768976227
-20.189314 -39.995789 12.016601 1.880790849211783e-38 1768976227
-25.030849 -49.587055 18.747463 1.880790849211783e-38 1768976227
-20.761932 -41.130173 15.107504 1.880790849211783e-38 1768976227
-19.819304 -39.262783 11.346847 1.880790849211783e-38 1768976227
-22.290611 -44.158535 12.175240 1.880790849211783e-38 1768976227
-21.461782 -42.516598 15.100768 1.880790849211783e-38 1768976227
-21.514301 -42.620640 14.591195 1.880790849211783e-38 1768976227
-23.037872 -45.638889 9.322838 1.880790849211783e-38 1768976227
-23.080257 -45.722858 8.879322 1.880790849211783e-38 1768976227
-23.502552 -46.559441 12.261496 1.880790849211783e-38 1768976227
-24.357082 -48.252293 12.375845 1.880790849211783e-38 1768976227
-24.192522 -47.926296 8.868256 1.880790849211783e-38 1768976227
-24.003931 -47.552689 8.330908 1.880790849211783e-38 1768976227
-22.634155 -44.839111 11.017859 1.880790849211783e-38 1768976227
-21.653172 -42.895752 10.186730 1.880790849211783e-38 1768976227
-24.922920 -49.005302 6.862000 1.880790849211783e-38 1768976227
-42.410660 -83.390999 11.198775 1.880790849211783e-38 1768976227
-42.028835 -82.640228 10.548341 1.880790849211783e-38 1768976227
-42.074883 -82.730774 9.914820 1.880790849211783e-38 1768976227
-24.051788 -47.292419 7.956174 1.880790849211783e-38 1768976227
-24.873217 -48.907574 7.868981 1.880790849211783e-38 1768976227
-43.745392 -86.015450 9.874496 1.880790849211783e-38 1768976227
-46.495495 -91.422913 9.824347 1.880790849211783e-38 1768976227
-24.761787 -48.688473 7.532251 1.880790849211783e-38 1768976227
-24.668880 -48.505795 7.192519 1.880790849211783e-38 1768976227
-45.670788 -89.801308 5.366458 1.880790849211783e-38 1768976227
-44.816582 -88.121704 8.742065 1.880790849211783e-38 1768976227
-45.238243 -88.950813 8.375531 1.880790849211783e-38 1768976227
-46.011127 -90.470505 6.070379 1.880790849211783e-38 1768976227
-22.920246 -45.067501 10.150387 1.880790849211783e-38 1768976227
-22.567766 -44.374428 9.475286 1.880790849211783e-38 1768976227
-22.558065 -44.355350 14.659001 1.880790849211783e-38 1768976227
-23.232821 -45.682106 14.709854 1.880790849211783e-38 1768976227
-23.042320 -45.307529 14.090492 1.880790849211783e-38 1768976227
-20.938404 -41.170650 12.388499 1.880790849211783e-38 1768976227
-25.230261 -49.609623 18.784678 1.880790849211783e-38 1768976227
-20.965796 -41.224510 15.165312 1.880790849211783e-38 1768976227
-21.029524 -41.349815 11.968267 1.880790849211783e-38 1768976227
-22.132191 -43.517963 12.016971 1.880790849211783e-38 1768976227
-21.579161 -42.430553 15.093252 1.880790849211783e-38 1768976227
-21.339760 -41.959827 14.386933 1.880790849211783e-38 1768976227
-22.918118 -45.063313 9.219338 1.880790849211783e-38 1768976227
-23.163088 -45.544991 8.858305 1.880790849211783e-38 1768976227
-25.301561 -49.749817 13.121721 1.880790849211783e-38 1768976227
-25.200668 -49.551434 12.728484 1.880790849211783e-38 1768976227
-24.364607 -47.907513 8.878335 1.880790849211783e-38 1768976227
-24.044918 -47.278912 8.295610 1.880790849211783e-38 1768976227
-22.614044 -44.465416 10.942743 1.880790849211783e-38 1768976227
-22.167427 -43.587250 10.366775 1.880790849211783e-38 1768976227
-25.087753 -48.963379 6.866694 1.880790849211783e-38 1768976227
-42.313374 -82.582359 11.107268 1.880790849211783e-38 1768976227
-42.482449 -82.912338 10.599380 1.880790849211783e-38 1768976227
-42.338760 -82.631905 9.918229 1.880790849211783e-38 1768976227
-24.288368 -47.403233 7.987104 1.880790849211783e-38 1768976227
-24.613390 -48.037571 7.740911 1.880790849211783e-38 1768976227
-44.065334 -86.001640 9.888122 1.880790849211783e-38 1768976227
-46.481262 -90.716759 9.763483 1.880790849211783e-38 1768976227
-24.889376 -48.576210 7.526463 1.880790849211783e-38 1768976227
-24.934578 -48.664433 7.227160 1.880790849211783e-38 1768976227
-45.973568 -89.725899 5.370213 1.880790849211783e-38 1768976227
-45.108891 -88.038322 8.747250 1.880790849211783e-38 1768976227
-45.747681 -89.285049 8.419956 1.880790849211783e-38 1768976227
-22.823668 -44.544598 10.048074 1.880790849211783e-38 1768976227
-22.742483 -44.386154 9.492393 1.880790849211783e-38 1768976227
-23.499498 -45.863613 15.180820 1.880790849211783e-38 1768976227
-23.014725 -44.917484 14.485928 1.880790849211783e-38 1768976227
-22.720318 -44.342896 13.811743 1.880790849211783e-38 1768976227
-22.427937 -43.772259 13.191632 1.880790849211783e-38 1768976227
-25.385265 -49.544029 18.788746 1.880790849211783e-38 1768976227
-25.190361 -49.163639 18.113752 1.880790849211783e-38 1768976227
-20.572439 -40.150913 11.639163 1.880790849211783e-38 1768976227
-22.074957 -43.083351 11.915288 1.880790849211783e-38 1768976227
-21.682657 -42.317707 15.076304 1.880790849211783e-38 1768976227
-21.507092 -41.975060 14.414330 1.880790849211783e-38 1768976227
-22.979507 -44.848751 9.189579 1.880790849211783e-38 1768976227
-23.368990 -45.608894 8.884402 1.880790849211783e-38 1768976227
-24.939060 -48.673176 12.857533 1.880790849211783e-38 1768976227
-24.157125 -47.147087 12.129529 1.880790849211783e-38 1768976227
-24.615238 -48.041176 8.916825 1.880790849211783e-38 1768976227
-24.520885 -47.857033 8.409986 1.880790849211783e-38 1768976227
-22.574074 -44.057468 10.859055 1.880790849211783e-38 1768976227
-22.303148 -43.528709 10.368802 1.880790849211783e-38 1768976227
-25.421152 -49.247513 6.917263 1.880790849211783e-38 1768976227
-25.410135 -49.226177 6.631163 1.880790849211783e-38 1768976227
-42.827362 -82.967957 10.622953 1.880790849211783e-38 1768976227
-44.880432 -86.945305 10.452161 1.880790849211783e-38 1768976227
-24.223761 -46.927845 7.919279 1.880790849211783e-38 1768976227
-24.393261 -47.256218 7.626822 1.880790849211783e-38 1768976227
-44.320766 -85.861084 9.887285 1.880790849211783e-38 1768976227
-46.077106 -89.263573 9.621995 1.880790849211783e-38 1768976227
-24.837599 -48.117020 7.466888 1.880790849211783e-38 1768976227
-25.223967 -48.865513 7.268288 1.880790849211783e-38 1768976227
-45.475483 -88.098076 8.766774 1.880790849211783e-38 1768976227
-46.120007 -89.346687 8.438848 1.880790849211783e-38 1768976227
-23.532991 -45.589645 10.299771 1.880790849211783e-38 1768976227
-22.715530 -44.006004 9.425704 1.880790849211783e-38 1768976227
-22.754295 -44.081104 14.613461 1.880790849211783e-38 1768976227
-22.954090 -44.468163 14.363282 1.880790849211783e-38 1768976227
-22.412434 -43.418831 13.544911 1.880790849211783e-38 1768976227
-22.667486 -43.912933 13.254571 1.880790849211783e-38 1768976227
-25.632685 -49.657307 18.860937 1.880790849211783e-38 1768976227
-25.309566 -49.031342 18.093054 1.880790849211783e-38 1768976227
-20.886974 -40.463612 11.748017 1.880790849211783e-38 1768976227
-22.093203 -42.800392 11.855407 1.880790849211783e-38 1768976227
-21.819824 -42.270786 15.082965 1.880790849211783e-38 1768976227
-21.698004 -42.034786 14.457247 1.880790849211783e-38 1768976227
-23.224806 -44.992607 9.233367 1.880790849211783e-38 1768976227
-23.013792 -44.583817 8.698203 1.880790849211783e-38 1768976227
-24.381481 -47.233391 12.496568 1.880790849211783e-38 1768976227
-23.078756 -44.709671 11.520311 1.880790849211783e-38 1768976227
-24.595396 -47.647808 8.857540 1.880790849211783e-38 1768976227
-24.111263 -46.709908 8.221143 1.880790849211783e-38 1768976227
-22.600073 -43.782337 10.807992 1.880790849211783e-38 1768976227
-22.646471 -43.872219 10.466851 1.880790849211783e-38 1768976227
-25.667234 -49.358440 6.943685 1.880790849211783e-38 1768976227
-25.351158 -48.750618 6.577372 1.880790849211783e-38 1768976227
-42.883465 -82.465485 10.575130 1.880790849211783e-38 1768976227
-44.967777 -86.473633 10.411716 1.880790849211783e-38 1768976227
-24.834539 -47.757153 8.071831 1.880790849211783e-38 1768976227
-24.358007 -46.840778 7.571594 1.880790849211783e-38 1768976227
-44.886402 -86.317154 9.955348 1.880790849211783e-38 1768976227
-46.424652 -89.275230 9.638301 1.880790849211783e-38 1768976227
-25.145250 -48.354656 7.515500 1.880790849211783e-38 1768976227
-25.699390 -49.420269 7.362299 1.880790849211783e-38 1768976227
-45.909832 -88.285217 8.799136 1.880790849211783e-38 1768976227
-46.345860 -89.123718 8.430952 1.880790849211783e-38 1768976227
-23.674135 -45.525681 10.301405 1.880790849211783e-38 1768976227
-23.588676 -45.361343 9.731199 1.880790849211783e-38 1768976227
-23.028791 -44.284676 14.703906 1.880790849211783e-38 1768976227
-23.140539 -44.499569 14.395904 1.880790849211783e-38 1768976227
-22.602140 -43.464218 13.580275 1.880790849211783e-38 1768976227
-22.685566 -43.624649 13.188148 1.880790849211783e-38 1768976227
-25.610199 -49.248756 18.735014 1.880790849211783e-38 1768976227
-26.236286 -50.452732 18.646675 1.880790849211783e-38 1768976227
-21.392986 -41.139000 11.962785 1.880790849211783e-38 1768976227
-21.772015 -41.867878 11.615242 1.880790849211783e-38 1768976227
-21.890764 -42.096233 15.044170 1.880790849211783e-38 1768976227
-21.505621 -41.355598 14.245893 1.880790849211783e-38 1768976227
-23.262604 -44.734299 9.194714 1.880790849211783e-38 1768976227
-23.196585 -44.607346 8.716403 1.880790849211783e-38 1768976227
-24.617172 -47.339157 12.544135 1.880790849211783e-38 1768976227
-23.255871 -44.721352 11.541342 1.880790849211783e-38 1768976227
-24.348915 -46.823292 8.717877 1.880790849211783e-38 1768976227
-23.992954 -46.138775 8.133319 1.880790849211783e-38 1768976227
-22.689941 -43.633064 10.787987 1.880790849211783e-38 1768976227
-22.639898 -43.536827 10.403078 1.880790849211783e-38 1768976227
-25.885632 -49.413784 6.962420 1.880790849211783e-38 1768976227
-25.712454 -49.083195 6.632674 1.880790849211783e-38 1768976227
-43.208981 -82.482796 10.594012 1.880790849211783e-38 1768976227
-45.241722 -86.363144 10.414793 1.880790849211783e-38 1768976227
-24.716768 -47.182503 7.987267 1.880790849211783e-38 1768976227
-24.444555 -46.662880 7.554720 1.880790849211783e-38 1768976227
-44.888798 -85.689438 9.898520 1.880790849211783e-38 1768976227
-44.672489 -85.276520 9.221097 1.880790849211783e-38 1768976227
-25.400366 -48.487446 7.548010 1.880790849211783e-38 1768976227
-25.111395 -47.935822 7.152405 1.880790849211783e-38 1768976227
-46.473793 -88.715080 5.334663 1.880790849211783e-38 1768976227
-45.618931 -87.083214 8.693008 1.880790849211783e-38 1768976227
-46.401005 -88.576134 8.392351 1.880790849211783e-38 1768976227
-45.971722 -87.756660 7.686923 1.880790849211783e-38 1768976227
-23.930136 -45.680885 10.352807 1.880790849211783e-38 1768976227
-23.405975 -44.680305 9.600197 1.880790849211783e-38 1768976227
-23.115391 -44.125599 14.674167 1.880790849211783e-38 1768976227
-24.131823 -46.065891 14.926095 1.880790849211783e-38 1768976227
-22.580299 -43.104145 13.488986 1.880790849211783e-38 1768976227
-22.480223 -42.913105 12.993477 1.880790849211783e-38 1768976227
-25.876204 -49.395786 18.820547 1.880790849211783e-38 1768976227
-26.700546 -50.969395 18.867300 1.880790849211783e-38 1768976227
-21.672819 -41.371830 12.049441 1.880790849211783e-38 1768976227
-21.648691 -41.325775 11.482909 1.880790849211783e-38 1768976227
-22.183298 -42.346298 15.157376 1.880790849211783e-38 1768976227
-22.094404 -42.176605 14.551596 1.880790849211783e-38 1768976227
-23.249247 -44.381123 9.136490 1.880790849211783e-38 1768976227
-23.036161 -43.974350 8.606250 1.880790849211783e-38 1768976227
-21.973890 -41.946556 11.132689 1.880790849211783e-38 1768976227
-23.331598 -44.538319 11.512213 1.880790849211783e-38 1768976227
-23.324953 -44.525631 8.303144 1.880790849211783e-38 1768976227
-24.040730 -45.892002 8.102562 1.880790849211783e-38 1768976227
-22.182133 -42.344074 10.485785 1.880790849211783e-38 1768976227
-22.629751 -43.198544 10.338506 1.880790849211783e-38 1768976227
-25.775534 -48.844662 6.893153 1.880790849211783e-38 1768976227
-26.034998 -49.336349 6.677464 1.880790849211783e-38 1768976227
-25.877174 -49.037273 6.308296 1.880790849211783e-38 1768976227
-45.960106 -87.094444 10.519651 1.880790849211783e-38 1768976227
-22.498995 -42.635616 7.229004 1.880790849211783e-38 1768976227
-24.672688 -46.754765 7.581610 1.880790849211783e-38 1768976227
-45.778629 -86.750549 10.036998 1.880790849211783e-38 1768976227
-45.160545 -85.579269 9.268519 1.880790849211783e-38 1768976227
-25.606138 -48.523651 7.565634 1.880790849211783e-38 1768976227
-25.599283 -48.510666 7.249662 1.880790849211783e-38 1768976227
-45.239864 -85.729591 8.571465 1.880790849211783e-38 1768976227
-46.652203 -88.405968 8.389523 1.880790849211783e-38 1768976227
-46.389378 -87.907913 7.712392 1.880790849211783e-38 1768976227
-24.022139 -45.521973 10.333165 1.880790849211783e-38 1768976227
-23.590389 -44.703815 9.620492 1.880790849211783e-38 1768976227
-23.326288 -44.203339 14.723349 1.880790849211783e-38 1768976227
-24.159389 -45.782070 14.857674 1.880790849211783e-38 1768976227
-22.652584 -42.926666 13.454765 1.880790849211783e-38 1768976227
-22.416964 -42.480167 12.882802 1.880790849211783e-38 1768976227
-26.064423 -49.392109 18.312452 1.880790849211783e-38 1768976227
-21.806110 -41.322601 12.054203 1.880790849211783e-38 1768976227
-23.249786 -44.058369 12.261625 1.880790849211783e-38 1768976227
-22.583113 -42.795021 15.342302 1.880790849211783e-38 1768976227
-21.990383 -41.671799 14.400246 1.880790849211783e-38 1768976227
-23.555109 -44.636955 9.203741 1.880790849211783e-38 1768976227
-22.872663 -43.343719 8.496291 1.880790849211783e-38 1768976227
-21.864153 -41.432590 11.013734 1.880790849211783e-38 1768976227
-24.031576 -45.539856 11.789769 1.880790849211783e-38 1768976227
-23.188719 -43.942646 8.207433 1.880790849211783e-38 1768976227
-22.613863 -42.853291 7.578063 1.880790849211783e-38 1768976227
-22.225786 -42.117882 10.446325 1.880790849211783e-38 1768976227
-21.594444 -40.921494 9.809092 1.880790849211783e-38 1768976227
-24.586134 -46.252251 6.537737 1.880790849211783e-38 1768976227
-26.449673 -49.757999 6.745298 1.880790849211783e-38 1768976227
-26.268646 -49.417450 6.367366 1.880790849211783e-38 1768976227
-46.683182 -87.821953 10.624480 1.880790849211783e-38 1768976227
-22.552025 -42.425613 7.204897 1.880790849211783e-38 1768976227
-24.818256 -46.688923 7.583036 1.880790849211783e-38 1768976227
-46.325367 -87.148811 10.099196 1.880790849211783e-38 1768976227
-45.695210 -85.963341 9.324999 1.880790849211783e-38 1768976227
-25.399355 -47.782108 7.461925 1.880790849211783e-38 1768976227
-24.540245 -46.165920 6.910283 1.880790849211783e-38 1768976227
-47.149384 -88.698975 4.857885 1.880790849211783e-38 1768976227
-47.135872 -88.673569 8.879985 1.880790849211783e-38 1768976227
-46.449940 -87.383163 8.305717 1.880790849211783e-38 1768976227
-48.386059 -91.025459 3.805244 1.880790849211783e-38 1768976227
-46.728039 -87.906334 7.724582 1.880790849211783e-38 1768976227
-47.403660 -89.177330 7.196284 1.880790849211783e-38 1768976227
-24.018337 -45.184090 10.272864 1.880790849211783e-38 1768976227
-23.567268 -44.335526 9.556488 1.880790849211783e-38 1768976227
-23.553568 -44.309750 14.782387 1.880790849211783e-38 1768976227
-24.177694 -45.483875 14.784499 1.880790849211783e-38 1768976227
-23.060646 -43.382450 13.619362 1.880790849211783e-38 1768976227
-22.584351 -42.486427 12.905298 1.880790849211783e-38 1768976227
-26.594898 -50.031200 18.579056 1.880790849211783e-38 1768976227
-22.249922 -41.857288 12.229696 1.880790849211783e-38 1768976227
-23.058197 -43.377846 12.091531 1.880790849211783e-38 1768976227
-22.539574 -42.402191 15.225772 1.880790849211783e-38 1768976227
-22.273087 -41.900867 14.502551 1.880790849211783e-38 1768976227
-23.397732 -44.016586 9.090336 1.880790849211783e-38 1768976227
-23.226019 -43.693558 8.578559 1.880790849211783e-38 1768976227
-24.339857 -45.788948 12.191212 1.880790849211783e-38 1768976227
-24.272490 -45.662216 11.840344 1.880790849211783e-38 1768976227
-22.706354 -42.715946 7.991069 1.880790849211783e-38 1768976227
-22.917103 -43.112411 7.636073 1.880790849211783e-38 1768976227
-22.326120 -42.000633 10.433898 1.880790849211783e-38 1768976227
-21.601492 -40.637440 9.756576 1.880790849211783e-38 1768976227
-24.995975 -46.682995 6.609249 1.880790849211783e-38 1768976227
-24.848680 -46.407909 6.301283 1.880790849211783e-38 1768976227
-26.218246 -48.965733 6.319324 1.880790849211783e-38 1768976227
-46.985233 -87.750595 10.632943 1.880790849211783e-38 1768976227
-22.730148 -42.451290 7.220867 1.880790849211783e-38 1768976227
-24.921043 -46.543053 7.571517 1.880790849211783e-38 1768976227
-47.267494 -88.277748 10.246496 1.880790849211783e-38 1768976227
-46.363834 -86.590057 9.408109 1.880790849211783e-38 1768976227
-25.636440 -47.879143 7.489119 1.880790849211783e-38 1768976227
-25.115599 -46.906406 7.032427 1.880790849211783e-38 1768976227
-47.602821 -88.903999 4.876955 1.880790849211783e-38 1768976227
-46.923218 -87.634781 8.343046 1.880790849211783e-38 1768976227
-48.281216 -90.170990 3.775594 1.880790849211783e-38 1768976227
-46.772678 -87.353607 7.688374 1.880790849211783e-38 1768976227
-47.851280 -89.368034 7.223286 1.880790849211783e-38 1768976227
-47.557945 -88.820206 6.664130 1.880790849211783e-38 1768976227
-24.170403 -45.141144 10.279627 1.880790849211783e-38 1768976227
-23.832367 -44.509819 9.609506 1.880790849211783e-38 1768976227
-23.632177 -44.135937 14.748112 1.880790849211783e-38 1768976227
-24.108093 -45.024769 14.658834 1.880790849211783e-38 1768976227
-23.142248 -43.220940 13.590508 1.880790849211783e-38 1768976227
-22.664410 -42.328522 12.878038 1.880790849211783e-38 1768976227
-26.616669 -49.709835 18.489443 1.880790849211783e-38 1768976227
-23.960941 -44.749947 13.095917 1.880790849211783e-38 1768976227
-23.043642 -43.036777 12.015779 1.880790849211783e-38 1768976227
-22.365667 -41.770580 15.023127 1.880790849211783e-38 1768976227
-22.525478 -42.069046 14.584209 1.880790849211783e-38 1768976227
-23.480017 -43.851765 9.070880 1.880790849211783e-38 1768976227
-23.232018 -43.388592 8.532402 1.880790849211783e-38 1768976227
-24.189545 -45.176891 12.047622 1.880790849211783e-38 1768976227
-24.164440 -45.130005 11.721186 1.880790849211783e-38 1768976227
-23.037041 -43.024452 8.061744 1.880790849211783e-38 1768976227
-22.993984 -42.944035 7.618499 1.880790849211783e-38 1768976227
-22.679901 -42.357449 10.539483 1.880790849211783e-38 1768976227
-22.125782 -41.322571 9.937043 1.880790849211783e-38 1768976227
-25.224403 -46.770119 6.632323 1.880790849211783e-38 1768976227
-24.820843 -46.021858 6.259000 1.880790849211783e-38 1768976227
-24.803806 -45.990265 5.944948 1.880790849211783e-38 1768976227
-26.550749 -49.229374 5.974913 1.880790849211783e-38 1768976227
-22.857887 -42.382217 7.220810 1.880790849211783e-38 1768976227
-24.724855 -45.843880 7.469873 1.880790849211783e-38 1768976227
-47.797390 -88.624092 10.303381 1.880790849211783e-38 1768976227
-46.979725 -87.108002 9.479734 1.880790849211783e-38 1768976227
-25.649300 -47.557941 7.450943 1.880790849211783e-38 1768976227
-25.099821 -46.539124 6.988679 1.880790849211783e-38 1768976227
-47.395561 -87.879021 8.379869 1.880790849211783e-38 1768976227
-48.686420 -90.272484 4.268187 1.880790849211783e-38 1768976227
-48.590523 -90.094681 3.778517 1.880790849211783e-38 1768976227
-46.982086 -87.112389 7.679578 1.880790849211783e-38 1768976227
-48.144955 -89.268517 7.226945 1.880790849211783e-38 1768976227
-45.224022 -83.852638 6.301621 1.880790849211783e-38 1768976227
-47.776585 -88.585503 6.019507 1.880790849211783e-38 1768976227
-24.299994 -45.056114 10.276905 1.880790849211783e-38 1768976227
-24.026033 -44.548149 9.633381 1.880790849211783e-38 1768976227
-23.677547 -43.901997 14.693733 1.880790849211783e-38 1768976227
-24.157568 -44.792038 14.606716 1.880790849211783e-38 1768976227
-23.212420 -43.039577 13.555429 1.880790849211783e-38 1768976227
-22.452343 -41.630276 12.686148 1.880790849211783e-38 1768976227
-26.622990 -49.363323 18.390339 1.880790849211783e-38 1768976227
-24.207516 -44.884644 13.156640 1.880790849211783e-38 1768976227
-22.945940 -42.545483 11.897875 1.880790849211783e-38 1768976227
-26.482712 -49.103226 17.689014 1.880790849211783e-38 1768976227
-22.955168 -42.562592 14.779240 1.880790849211783e-38 1768976227
-23.754246 -44.044209 9.125464 1.880790849211783e-38 1768976227
-23.249893 -43.109058 8.491180 1.880790849211783e-38 1768976227
-23.791037 -44.112427 11.782835 1.880790849211783e-38 1768976227
-24.036592 -44.567730 11.593925 1.880790849211783e-38 1768976227
-22.706573 -42.101654 7.901629 1.880790849211783e-38 1768976227
-23.447063 -43.474644 7.725141 1.880790849211783e-38 1768976227
-22.775673 -42.229778 10.524758 1.880790849211783e-38 1768976227
-22.309685 -41.365757 9.963564 1.880790849211783e-38 1768976227
-25.294931 -46.564201 6.613911 1.880790849211783e-38 1768976227
-25.272949 -46.523739 6.337595 1.880790849211783e-38 1768976227
-24.874868 -45.790932 5.928852 1.880790849211783e-38 1768976227
-26.629244 -49.020477 5.959279 1.880790849211783e-38 1768976227
-22.808205 -41.986511 7.165080 1.880790849211783e-38 1768976227
-25.103033 -46.210949 7.541986 1.880790849211783e-38 1768976227
-48.195370 -88.720505 10.331442 1.880790849211783e-38 1768976227
-48.177261 -88.687164 9.667360 1.880790849211783e-38 1768976227
-25.582914 -47.094341 7.390366 1.880790849211783e-38 1768976227
-25.418310 -46.791328 7.038033 1.880790849211783e-38 1768976227
-47.835655 -88.058327 4.846304 1.880790849211783e-38 1768976227
-47.480003 -87.403625 8.795471 1.880790849211783e-38 1768976227
-47.633663 -87.686478 8.375170 1.880790849211783e-38 1768976227
-48.782238 -89.800842 4.252824 1.880790849211783e-38 1768976227
-48.608646 -89.481293 3.758923 1.880790849211783e-38 1768976227
-47.421478 -87.295891 7.708329 1.880790849211783e-38 1768976227
-46.542160 -85.677193 6.947533 1.880790849211783e-38 1768976227
-45.150089 -83.114601 6.256362 1.880790849211783e-38 1768976227
-44.648216 -82.190727 5.594099 1.880790849211783e-38 1768976227
-24.610861 -45.304939 10.350543 1.880790849211783e-38 1768976227
-24.210884 -44.568634 9.653558 1.880790849211783e-38 1768976227
-23.584932 -43.416351 14.554932 1.880790849211783e-38 1768976227
-23.016600 -42.370136 13.839506 1.880790849211783e-38 1768976227
-23.567749 -43.384720 13.686459 1.880790849211783e-38 1768976227
-24.211420 -44.569626 13.604056 1.880790849211783e-38 1768976227
-24.264774 -44.667843 13.114482 1.880790849211783e-38 1768976227
-23.413116 -43.100063 12.072657 1.880790849211783e-38 1768976227
-26.800692 -49.336090 17.801939 1.880790849211783e-38 1768976227
-23.036335 -42.406464 14.749085 1.880790849211783e-38 1768976227
-23.719120 -43.663372 9.061340 1.880790849211783e-38 1768976227
-23.380747 -43.040474 8.491524 1.880790849211783e-38 1768976227
-24.686193 -45.443611 12.158238 1.880790849211783e-38 1768976227
-24.248032 -44.637020 11.630922 1.880790849211783e-38 1768976227
-23.304033 -42.899261 8.064478 1.880790849211783e-38 1768976227
-23.353300 -42.989948 7.651495 1.880790849211783e-38 1768976227
-22.684656 -41.759079 10.424452 1.880790849211783e-38 1768976227
-22.414072 -41.260971 9.954561 1.880790849211783e-38 1768976227
-25.390116 -46.405205 6.602174 1.880790849211783e-38 1768976227
-25.242756 -46.135876 6.295101 1.880790849211783e-38 1768976227
-25.119329 -45.910294 5.954088 1.880790849211783e-38 1768976227
-26.979298 -49.309734 6.004308 1.880790849211783e-38 1768976227
-23.135366 -42.284229 7.227761 1.880790849211783e-38 1768976227
-25.071505 -45.822884 7.490959 1.880790849211783e-38 1768976227
-27.740219 -50.700462 5.913750 1.880790849211783e-38 1768976227
-47.595654 -86.989998 9.497965 1.880790849211783e-38 1768976227
-25.479376 -46.568344 7.319848 1.880790849211783e-38 1768976227
-25.491369 -46.590263 7.019322 1.880790849211783e-38 1768976227
-48.400455 -88.460922 8.916516 1.880790849211783e-38 1768976227
-47.653400 -87.095543 8.332417 1.880790849211783e-38 1768976227
-48.377327 -88.418655 4.194257 1.880790849211783e-38 1768976227
-48.531364 -88.700188 3.732243 1.880790849211783e-38 1768976227
-47.774204 -87.316338 7.722822 1.880790849211783e-38 1768976227
-45.973053 -84.024384 6.824721 1.880790849211783e-38 1768976227
-45.785599 -83.681786 6.309422 1.880790849211783e-38 1768976227
-44.725414 -81.744102 5.572855 1.880790849211783e-38 1768976227
-24.622219 -45.001732 10.298191 1.880790849211783e-38 1768976227
-24.417406 -44.627399 9.682193 1.880790849211783e-38 1768976227
-23.792969 -43.486122 14.602313 1.880790849211783e-38 1768976227
-23.175074 -42.356804 13.857919 1.880790849211783e-38 1768976227
-23.606894 -43.146034 13.633559 1.880790849211783e-38 1768976227
-24.543972 -44.858719 13.714829 1.880790849211783e-38 1768976227
-24.437710 -44.664509 13.135083 1.880790849211783e-38 1768976227
-23.202259 -42.406487 11.897928 1.880790849211783e-38 1768976227
-27.230413 -49.768700 17.987591 1.880790849211783e-38 1768976227
-23.531923 -43.009010 14.983268 1.880790849211783e-38 1768976227
-24.136099 -44.113255 9.169768 1.880790849211783e-38 1768976227
-23.825247 -43.545120 8.605222 1.880790849211783e-38 1768976227
-24.822741 -45.368221 12.158042 1.880790849211783e-38 1768976227
-24.614780 -44.988132 11.741702 1.880790849211783e-38 1768976227
-23.261238 -42.514282 8.005260 1.880790849211783e-38 1768976227
-23.499207 -42.949215 7.656825 1.880790849211783e-38 1768976227
-23.075117 -42.174110 10.545382 1.880790849211783e-38 1768976227
-22.526085 -41.170654 9.949118 1.880790849211783e-38 1768976227
-25.676510 -46.594387 6.640076 1.880790849211783e-38 1768976227
-25.712673 -46.660015 6.377169 1.880790849211783e-38 1768976227
-25.532755 -46.333527 6.018936 1.880790849211783e-38 1768976227
-25.202188 -45.733658 5.578089 1.880790849211783e-38 1768976227
-23.107267 -41.932064 7.179443 1.880790849211783e-38 1768976227
-25.210356 -45.748474 7.491189 1.880790849211783e-38 1768976227
-27.389341 -49.702618 5.806969 1.880790849211783e-38 1768976227
-27.752028 -50.360767 5.507731 1.880790849211783e-38 1768976227
-25.248018 -45.816822 7.213655 1.880790849211783e-38 1768976227
-25.896271 -46.993183 7.091760 1.880790849211783e-38 1768976227
-48.458584 -87.936333 5.348169 1.880790849211783e-38 1768976227
-48.508881 -88.027611 4.860628 1.880790849211783e-38 1768976227
-46.980930 -85.254883 8.607602 1.880790849211783e-38 1768976227
-48.010353 -87.122940 8.348852 1.880790849211783e-38 1768976227
-48.902580 -88.742043 4.216574 1.880790849211783e-38 1768976227
-48.731110 -88.430878 3.727078 1.880790849211783e-38 1768976227
-47.927471 -86.972534 7.705163 1.880790849211783e-38 1768976227
-45.925316 -83.339294 6.780293 1.880790849211783e-38 1768976227
-45.548454 -82.655411 6.242364 1.880790849211783e-38 1768976227
-45.177750 -81.982697 5.598385 1.880790849211783e-38 1768976227
-24.524738 -44.504307 10.201239 1.880790849211783e-38 1768976227
-24.697960 -44.818649 9.739800 1.880790849211783e-38 1768976227
-23.787514 -43.166485 14.519004 1.880790849211783e-38 1768976227
-23.965418 -43.489323 14.252028 1.880790849211783e-38 1768976227
-23.508497 -42.660164 13.502372 1.880790849211783e-38 1768976227
-24.453131 -44.374359 13.589229 1.880790849211783e-38 1768976227
-24.500065 -44.459530 13.096472 1.880790849211783e-38 1768976227
-23.350697 -42.373802 11.908462 1.880790849211783e-38 1768976227
-26.932108 -48.872887 17.693098 1.880790849211783e-38 1768976227
-23.309666 -42.299351 14.760463 1.880790849211783e-38 1768976227
-24.092020 -43.719063 9.102890 1.880790849211783e-38 1768976227
-24.003826 -43.559021 8.622236 1.880790849211783e-38 1768976227
-24.779968 -44.967464 12.070617 1.880790849211783e-38 1768976227
-24.665361 -44.759491 11.701387 1.880790849211783e-38 1768976227
-23.421707 -42.502670 8.016336 1.880790849211783e-38 1768976227
-23.476400 -42.601913 7.607497 1.880790849211783e-38 1768976227
-24.992605 -45.353329 11.359122 1.880790849211783e-38 1768976227
-22.552435 -40.925224 9.906198 1.880790849211783e-38 1768976227
-25.728611 -46.357620 6.617363 1.880790849211783e-38 1768976227
-25.841045 -46.560204 6.374151 1.880790849211783e-38 1768976227
-25.507690 -45.959568 5.980323 1.880790849211783e-38 1768976227
-25.425434 -45.811356 5.596893 1.880790849211783e-38 1768976227
-23.146482 -41.705162 7.152514 1.880790849211783e-38 1768976227
-25.584900 -46.098682 7.561136 1.880790849211783e-38 1768976227
-27.295166 -49.180229 5.755527 1.880790849211783e-38 1768976227
-27.191826 -48.994030 5.367202 1.880790849211783e-38 1768976227
-25.639755 -46.197521 7.285737 1.880790849211783e-38 1768976227
-25.120113 -45.261234 6.841794 1.880790849211783e-38 1768976227
-48.512806 -87.410019 8.839923 1.880790849211783e-38 1768976227
-48.139679 -86.737717 8.325812 1.880790849211783e-38 1768976227
-48.643066 -87.644714 4.171386 1.880790849211783e-38 1768976227
-48.596844 -87.561432 3.696594 1.880790849211783e-38 1768976227
-48.012184 -86.507996 7.676802 1.880790849211783e-38 1768976227
-46.299118 -83.421402 6.798304 1.880790849211783e-38 1768976227
-45.485565 -81.955559 6.199842 1.880790849211783e-38 1768976227
-24.740774 -44.577744 10.235129 1.880790849211783e-38 1768976227
-24.507353 -44.157166 9.612069 1.880790849211783e-38 1768976227
-23.906265 -43.074131 14.512126 1.880790849211783e-38 1768976227
-24.299917 -43.783409 14.372356 1.880790849211783e-38 1768976227
-23.371441 -42.110489 13.350644 1.880790849211783e-38 1768976227
-24.794613 -44.674751 13.704059 1.880790849211783e-38 1768976227
-24.515503 -44.171848 13.033451 1.880790849211783e-38 1768976227
-23.642197 -42.598331 11.991547 1.880790849211783e-38 1768976227
-23.550121 -42.432434 14.831620 1.880790849211783e-38 1768976227
-24.487701 -44.121761 9.202072 1.880790849211783e-38 1768976227
-23.996536 -43.236782 8.572738 1.880790849211783e-38 1768976227
-24.963015 -44.978176 12.093647 1.880790849211783e-38 1768976227
-24.639654 -44.395546 11.625617 1.880790849211783e-38 1768976227
-23.684967 -42.675400 8.062350 1.880790849211783e-38 1768976227
-23.502768 -42.347115 7.574620 1.880790849211783e-38 1768976227
-24.702879 -44.509464 11.166378 1.880790849211783e-38 1768976227
-22.826160 -41.128006 9.971901 1.880790849211783e-38 1768976227
-26.397690 -47.226902 6.752783 1.880790849211783e-38 1768976227
-25.984673 -46.487995 6.374966 1.880790849211783e-38 1768976227
-25.845209 -46.238483 6.026732 1.880790849211783e-38 1768976227
-25.539305 -45.691212 5.591599 1.880790849211783e-38 1768976227
-23.635462 -42.285130 7.264172 1.880790849211783e-38 1768976227
-23.492357 -42.029102 6.905231 1.880790849211783e-38 1768976227
-25.625374 -45.845192 5.374250 1.880790849211783e-38 1768976227
-27.667147 -49.498035 5.431531 1.880790849211783e-38 1768976227
-25.447592 -45.527126 7.192082 1.880790849211783e-38 1768976227
-25.631023 -45.855301 6.943247 1.880790849211783e-38 1768976227
-48.394421 -86.580254 8.770729 1.880790849211783e-38 1768976227
-48.468170 -86.712196 8.337356 1.880790849211783e-38 1768976227
-49.651604 -88.829414 4.234879 1.880790849211783e-38 1768976227
-49.073071 -87.794395 3.712660 1.880790849211783e-38 1768976227
-48.321964 -86.450630 7.684609 1.880790849211783e-38 1768976227
-46.630516 -83.424522 6.809988 1.880790849211783e-38 1768976227
-49.033974 -87.724449 3.031770 1.880790849211783e-38 1768976227
-45.741505 -81.834038 6.201057 1.880790849211783e-38 1768976227
-25.052059 -44.819496 10.307938 1.880790849211783e-38 1768976227
-24.939436 -44.618011 9.728714 1.880790849211783e-38 1768976227
-23.260893 -41.615005 14.044104 1.880790849211783e-38 1768976227
-24.210850 -43.314526 14.242346 1.880790849211783e-38 1768976227
-23.026184 -41.195099 13.082388 1.880790849211783e-38 1768976227
-24.665604 -44.128113 13.559134 1.880790849211783e-38 1768976227
-24.973999 -44.679844 13.205505 1.880790849211783e-38 1768976227
-24.848974 -44.456169 12.535571 1.880790849211783e-38 1768976227
-24.791121 -44.352665 9.265781 1.880790849211783e-38 1768976227
-24.257341 -43.397705 8.619111 1.880790849211783e-38 1768976227
-25.140852 -44.978355 12.114028 1.880790849211783e-38 1768976227
-24.662788 -44.123074 11.573692 1.880790849211783e-38 1768976227
-23.760365 -42.508587 8.044338 1.880790849211783e-38 1768976227
