# .PCD v0.7 - Point Cloud Data file format
VERSION 0.7
FIELDS x y z rgb label
SIZE 4 4 4 4 4
TYPE F F F F U
COUNT 1 1 1 1 1
WIDTH 766
HEIGHT 1
VIEWPOINT 0 0 0 1 0 0 0
POINTS 766
DATA ascii
21.304583 27.882984 10.071631 1.880790849211783e-38 1768976227
25.424255 33.274723 14.766975 1.880790849211783e-38 1768976227
25.624653 33.537003 14.615915 1.880790849211783e-38 1768976227
21.073305 27.580294 9.621726 1.880790849211783e-38 1768976227
20.878790 27.325718 9.223608 1.880790849211783e-38 1768976227
25.907904 33.907711 14.402392 1.880790849211783e-38 1768976227
21.653910 28.340176 11.694904 1.880790849211783e-38 1768976227
24.671564 32.289616 10.483804 1.880790849211783e-38 1768976227
25.428295 33.280010 10.308801 1.880790849211783e-38 1768976227
22.276047 29.154417 11.633404 1.880790849211783e-38 1768976227
22.103741 28.928905 11.126660 1.880790849211783e-38 1768976227
27.055874 35.410152 8.126483 1.880790849211783e-38 1768976227
28.065027 36.730911 8.013826 1.880790849211783e-38 1768976227
25.270576 33.073593 9.785408 1.880790849211783e-38 1768976227
24.952633 32.657475 9.410254 1.880790849211783e-38 1768976227
28.375353 37.137058 7.720291 1.880790849211783e-38 1768976227
28.945152 37.882801 7.456262 1.880790849211783e-38 1768976227
27.389019 35.846165 9.895660 1.880790849211783e-38 1768976227
27.507895 36.001743 9.605190 1.880790849211783e-38 1768976227
28.046518 36.478111 5.507896 1.880790849211783e-38 1768976227
27.745647 36.086792 5.178965 1.880790849211783e-38 1768976227
27.329380 35.545383 4.789641 1.880790849211783e-38 1768976227
30.296896 39.405018 7.453605 1.880790849211783e-38 1768976227
29.292658 38.098877 6.892181 1.880790849211783e-38 1768976227
27.162159 35.327888 4.559930 1.880790849211783e-38 1768976227
25.530840 33.206146 17.450623 1.880790849211783e-38 1768976227
21.048950 27.376873 14.104836 1.880790849211783e-38 1768976227
27.813969 36.175648 9.160888 1.880790849211783e-38 1768976227
28.006561 36.426144 8.745303 1.880790849211783e-38 1768976227
21.300343 27.703840 13.937549 1.880790849211783e-38 1768976227
21.636086 28.140520 13.765412 1.880790849211783e-38 1768976227
21.884909 28.464144 13.542066 1.880790849211783e-38 1768976227
25.186916 32.758835 15.053145 1.880790849211783e-38 1768976227
24.869055 32.345413 17.373600 1.880790849211783e-38 1768976227
21.524637 27.995565 10.402791 1.880790849211783e-38 1768976227
21.326519 27.737886 10.042407 1.880790849211783e-38 1768976227
25.552984 33.234951 14.783458 1.880790849211783e-38 1768976227
25.754623 33.497208 14.632358 1.880790849211783e-38 1768976227
21.095669 27.437639 9.594111 1.880790849211783e-38 1768976227
20.919983 27.209133 9.205510 1.880790849211783e-38 1768976227
26.039629 33.867897 14.418772 1.880790849211783e-38 1768976227
21.555408 28.035587 11.595987 1.880790849211783e-38 1768976227
24.660870 32.074638 10.438107 1.880790849211783e-38 1768976227
25.526911 33.201035 10.308139 1.880790849211783e-38 1768976227
22.354311 29.074661 11.628428 1.880790849211783e-38 1768976227
22.171921 28.837440 11.117150 1.880790849211783e-38 1768976227
27.021603 35.145073 8.084316 1.880790849211783e-38 1768976227
28.205555 36.684956 8.022324 1.880790849211783e-38 1768976227
25.388954 33.021606 9.792637 1.880790849211783e-38 1768976227
25.040936 32.568966 9.406469 1.880790849211783e-38 1768976227
28.493471 37.059429 7.721982 1.880790849211783e-38 1768976227
29.294182 38.100861 7.516537 1.880790849211783e-38 1768976227
27.908306 36.298355 10.043680 1.880790849211783e-38 1768976227
27.707388 36.037029 9.636855 1.880790849211783e-38 1768976227
27.893789 36.053917 5.456524 1.880790849211783e-38 1768976227
27.647205 35.735195 5.140449 1.880790849211783e-38 1768976227
27.363129 35.368015 4.776839 1.880790849211783e-38 1768976227
30.331717 39.205040 7.433048 1.880790849211783e-38 1768976227
29.415134 38.020321 6.893987 1.880790849211783e-38 1768976227
27.196150 35.152187 4.547817 1.880790849211783e-38 1768976227
27.919226 36.086800 2.430330 1.880790849211783e-38 1768976227
27.639124 35.724751 2.184353 1.880790849211783e-38 1768976227
28.319603 36.604301 2.767916 1.880790849211783e-38 1768976227
20.978907 27.116135 14.283363 1.880790849211783e-38 1768976227
21.180178 27.376286 14.137380 1.880790849211783e-38 1768976227
27.623299 35.704296 9.062582 1.880790849211783e-38 1768976227
28.163868 36.403004 8.760101 1.880790849211783e-38 1768976227
21.394693 27.653557 13.944650 1.880790849211783e-38 1768976227
21.766617 28.134285 13.794412 1.880790849211783e-38 1768976227
22.002396 28.439039 13.561630 1.880790849211783e-38 1768976227
21.830999 28.217499 12.996534 1.880790849211783e-38 1768976227
25.026611 32.347969 17.415432 1.880790849211783e-38 1768976227
21.529465 27.827757 10.364514 1.880790849211783e-38 1768976227
21.348383 27.593699 10.013469 1.880790849211783e-38 1768976227
25.681896 33.194950 14.800050 1.880790849211783e-38 1768976227
25.884779 33.457184 14.648911 1.880790849211783e-38 1768976227
21.117954 27.295858 9.566762 1.880790849211783e-38 1768976227
20.961048 27.093050 9.187583 1.880790849211783e-38 1768976227
26.142542 33.790352 14.419261 1.880790849211783e-38 1768976227
21.458893 27.736536 11.499011 1.880790849211783e-38 1768976227
20.795057 26.878498 8.767487 1.880790849211783e-38 1768976227
25.625450 33.121990 10.307546 1.880790849211783e-38 1768976227
22.453255 29.021791 11.634314 1.880790849211783e-38 1768976227
22.230639 28.734049 11.103088 1.880790849211783e-38 1768976227
25.256920 32.645649 7.526868 1.880790849211783e-38 1768976227
28.346313 36.638824 8.030894 1.880790849211783e-38 1768976227
25.453671 32.899960 9.779284 1.880790849211783e-38 1768976227
25.129250 32.480633 9.402802 1.880790849211783e-38 1768976227
28.608480 36.977684 7.722893 1.880790849211783e-38 1768976227
29.931036 38.687145 7.649973 1.880790849211783e-38 1768976227
24.753254 31.994642 8.873469 1.880790849211783e-38 1768976227
27.908289 36.072659 9.668847 1.880790849211783e-38 1768976227
28.311220 36.366314 5.752223 1.880790849211783e-38 1768976227
27.744013 35.637730 5.406176 1.880790849211783e-38 1768976227
27.658489 35.527866 5.122601 1.880790849211783e-38 1768976227
27.396734 35.191639 4.764156 1.880790849211783e-38 1768976227
28.682381 36.843079 7.001604 1.880790849211783e-38 1768976227
30.745289 39.492928 7.177786 1.880790849211783e-38 1768976227
27.229988 34.977448 4.535815 1.880790849211783e-38 1768976227
31.059811 39.896931 6.972155 1.880790849211783e-38 1768976227
27.862080 35.789383 2.415948 1.880790849211783e-38 1768976227
27.677549 35.552349 2.178905 1.880790849211783e-38 1768976227
28.814348 37.012592 3.102588 1.880790849211783e-38 1768976227
28.259233 36.299534 2.751302 1.880790849211783e-38 1768976227
21.035667 27.020727 14.266459 1.880790849211783e-38 1768976227
21.311886 27.375534 14.170119 1.880790849211783e-38 1768976227
27.046104 34.741249 8.838802 1.880790849211783e-38 1768976227
28.320715 36.378510 8.774721 1.880790849211783e-38 1768976227
21.517313 27.639408 13.970177 1.880790849211783e-38 1768976227
21.801762 28.004787 13.763096 1.880790849211783e-38 1768976227
22.119928 28.413477 13.581191 1.880790849211783e-38 1768976227
21.802950 28.006313 12.929493 1.880790849211783e-38 1768976227
25.111685 32.256447 17.406855 1.880790849211783e-38 1768976227
21.550938 27.682598 10.334612 1.880790849211783e-38 1768976227
21.370190 27.450422 9.984820 1.880790849211783e-38 1768976227
25.797001 33.136749 14.808722 1.880790849211783e-38 1768976227
25.977772 33.368954 14.644516 1.880790849211783e-38 1768976227
21.150272 27.167934 9.544240 1.880790849211783e-38 1768976227
21.001989 26.977467 9.169826 1.880790849211783e-38 1768976227
26.232756 33.696487 14.412900 1.880790849211783e-38 1768976227
22.731251 29.198732 12.133574 1.880790849211783e-38 1768976227
20.835997 26.764242 8.750675 1.880790849211783e-38 1768976227
24.926575 32.018669 9.987543 1.880790849211783e-38 1768976227
21.369108 27.449036 11.029611 1.880790849211783e-38 1768976227
22.291378 28.633713 11.090244 1.880790849211783e-38 1768976227
24.785509 31.837469 7.357734 1.880790849211783e-38 1768976227
28.487316 36.592510 8.039538 1.880790849211783e-38 1768976227
25.518358 32.778831 9.766110 1.880790849211783e-38 1768976227
25.217588 32.392483 9.399260 1.880790849211783e-38 1768976227
28.723478 36.895866 7.723862 1.880790849211783e-38 1768976227
30.061029 38.613979 7.653397 1.880790849211783e-38 1768976227
24.895672 31.978979 8.889909 1.880790849211783e-38 1768976227
28.110619 36.108639 9.701171 1.880790849211783e-38 1768976227
28.156029 35.942806 5.698641 1.880790849211783e-38 1768976227
27.918478 35.639557 5.419201 1.880790849211783e-38 1768976227
27.691572 35.349899 5.108959 1.880790849211783e-38 1768976227
27.430197 35.016243 4.751589 1.880790849211783e-38 1768976227
28.994522 37.013191 7.050517 1.880790849211783e-38 1768976227
30.774353 39.285252 7.156878 1.880790849211783e-38 1768976227
27.263683 34.803680 4.523923 1.880790849211783e-38 1768976227
29.643934 37.842205 6.628676 1.880790849211783e-38 1768976227
27.880678 35.591305 2.408242 1.880790849211783e-38 1768976227
29.324837 37.434856 3.388399 1.880790849211783e-38 1768976227
28.592108 36.499489 3.066791 1.880790849211783e-38 1768976227
28.199629 35.998463 2.734917 1.880790849211783e-38 1768976227
21.165512 27.019005 14.299190 1.880790849211783e-38 1768976227
21.444078 27.374615 14.203055 1.880790849211783e-38 1768976227
26.903942 34.344440 8.758451 1.880790849211783e-38 1768976227
28.449652 36.317631 8.780693 1.880790849211783e-38 1768976227
21.641005 27.625999 13.996325 1.880790849211783e-38 1768976227
21.897646 27.953617 13.770342 1.880790849211783e-38 1768976227
22.237745 28.387777 13.600903 1.880790849211783e-38 1768976227
21.775345 27.797491 12.863349 1.880790849211783e-38 1768976227
25.196161 32.164364 17.398092 1.880790849211783e-38 1768976227
21.572346 27.538351 10.305003 1.880790849211783e-38 1768976227
21.391930 27.308039 9.956451 1.880790849211783e-38 1768976227
25.885740 33.044651 14.802385 1.880790849211783e-38 1768976227
26.067055 33.276112 14.638205 1.880790849211783e-38 1768976227
21.191099 27.051668 9.525805 1.880790849211783e-38 1768976227
21.042818 26.862379 9.152237 1.880790849211783e-38 1768976227
22.398300 28.592733 12.258726 1.880790849211783e-38 1768976227
22.831373 29.145576 12.140044 1.880790849211783e-38 1768976227
20.876818 26.650469 8.734023 1.880790849211783e-38 1768976227
24.928265 31.822376 9.949719 1.880790849211783e-38 1768976227
21.262966 27.143410 10.932521 1.880790849211783e-38 1768976227
22.352083 28.533733 11.077580 1.880790849211783e-38 1768976227
24.747606 31.591761 7.318165 1.880790849211783e-38 1768976227
28.628565 36.546028 8.048259 1.880790849211783e-38 1768976227
25.583015 32.658207 9.753117 1.880790849211783e-38 1768976227
25.305954 32.304523 9.395840 1.880790849211783e-38 1768976227
28.838472 36.813984 7.724894 1.880790849211783e-38 1768976227
25.027098 31.948545 8.902391 1.880790849211783e-38 1768976227
27.430519 35.016651 9.429975 1.880790849211783e-38 1768976227
28.040565 35.573879 5.653532 1.880790849211783e-38 1768976227
27.951088 35.460361 5.404747 1.880790849211783e-38 1768976227
27.724524 35.172932 5.095444 1.880790849211783e-38 1768976227
27.463522 34.841812 4.739137 1.880790849211783e-38 1768976227
29.311148 37.185818 7.100207 1.880790849211783e-38 1768976227
30.803173 39.078686 7.136138 1.880790849211783e-38 1768976227
27.300161 34.634560 4.512622 1.880790849211783e-38 1768976227
29.766605 37.763638 6.630609 1.880790849211783e-38 1768976227
31.395588 39.830257 6.703188 1.880790849211783e-38 1768976227
27.918570 35.419109 2.402278 1.880790849211783e-38 1768976227
29.017937 36.813831 3.340093 1.880790849211783e-38 1768976227
28.530066 36.194889 3.048414 1.880790849211783e-38 1768976227
28.141243 35.701611 2.718799 1.880790849211783e-38 1768976227
21.295824 27.017113 14.332113 1.880790849211783e-38 1768976227
21.576635 27.373367 14.236106 1.880790849211783e-38 1768976227
26.764688 33.955227 8.679740 1.880790849211783e-38 1768976227
28.329453 35.940376 8.710100 1.880790849211783e-38 1768976227
21.765112 27.612478 14.022668 1.880790849211783e-38 1768976227
21.993526 27.902258 13.777655 1.880790849211783e-38 1768976227
22.355864 28.361940 13.620766 1.880790849211783e-38 1768976227
22.527107 28.579191 13.256461 1.880790849211783e-38 1768976227
20.979792 26.616177 14.431170 1.880790849211783e-38 1768976227
21.593691 27.395008 10.275686 1.880790849211783e-38 1768976227
21.413609 27.166542 9.928364 1.880790849211783e-38 1768976227
25.976254 32.954975 14.797242 1.880790849211783e-38 1768976227
26.156168 33.183228 14.631981 1.880790849211783e-38 1768976227
21.231813 26.935905 9.507545 1.880790849211783e-38 1768976227
21.083536 26.747791 9.134818 1.880790849211783e-38 1768976227
22.293070 28.282274 12.154392 1.880790849211783e-38 1768976227
22.931660 29.092432 12.146660 1.880790849211783e-38 1768976227
20.917522 26.537176 8.717530 1.880790849211783e-38 1768976227
22.569578 28.633070 8.973779 1.880790849211783e-38 1768976227
21.159056 26.843599 10.837420 1.880790849211783e-38 1768976227
22.412737 28.434093 11.065090 1.880790849211783e-38 1768976227
24.710236 31.348833 7.279122 1.880790849211783e-38 1768976227
28.758209 36.484325 8.053735 1.880790849211783e-38 1768976227
25.664898 32.559971 9.746852 1.880790849211783e-38 1768976227
25.401564 32.225895 9.395209 1.880790849211783e-38 1768976227
29.040359 36.842278 7.749174 1.880790849211783e-38 1768976227
25.158924 31.918064 8.915000 1.880790849211783e-38 1768976227
27.627491 35.049831 9.461306 1.880790849211783e-38 1768976227
28.018665 35.326431 5.627610 1.880790849211783e-38 1768976227
27.991011 35.291565 5.391862 1.880790849211783e-38 1768976227
27.772385 35.015919 5.084809 1.880790849211783e-38 1768976227
27.520372 34.698177 4.730868 1.880790849211783e-38 1768976227
29.632385 37.361042 7.150695 1.880790849211783e-38 1768976227
29.192236 36.806091 6.737187 1.880790849211783e-38 1768976227
27.359726 34.495632 4.505251 1.880790849211783e-38 1768976227
31.116282 39.231964 6.904866 1.880790849211783e-38 1768976227
28.675611 36.154716 6.099145 1.880790849211783e-38 1768976227
27.956285 35.247784 2.396365 1.880790849211783e-38 1768976227
28.788078 36.296520 3.301020 1.880790849211783e-38 1768976227
28.468801 35.893970 3.030288 1.880790849211783e-38 1768976227
28.178705 35.528217 2.712054 1.880790849211783e-38 1768976227
21.426607 27.015049 14.365233 1.880790849211783e-38 1768976227
21.694664 27.353022 14.259487 1.880790849211783e-38 1768976227
28.403086 35.811119 9.176003 1.880790849211783e-38 1768976227
28.275879 35.650734 8.660533 1.880790849211783e-38 1768976227
21.889641 27.598850 14.049209 1.880790849211783e-38 1768976227
22.089401 27.850714 13.785034 1.880790849211783e-38 1768976227
22.349075 28.178110 13.564791 1.880790849211783e-38 1768976227
22.613178 28.511103 13.256452 1.880790849211783e-38 1768976227
21.104849 26.609369 14.461926 1.880790849211783e-38 1768976227
21.614981 27.252554 10.246658 1.880790849211783e-38 1768976227
21.436575 27.027617 9.901174 1.880790849211783e-38 1768976227
26.129322 32.944317 14.827772 1.880790849211783e-38 1768976227
26.304710 33.165447 14.659056 1.880790849211783e-38 1768976227
21.272413 26.820639 9.489462 1.880790849211783e-38 1768976227
21.124126 26.633677 9.117561 1.880790849211783e-38 1768976227
22.284775 28.097038 12.103614 1.880790849211783e-38 1768976227
23.032101 29.039286 12.153418 1.880790849211783e-38 1768976227
20.958111 26.424364 8.701194 1.880790849211783e-38 1768976227
22.559704 28.443676 8.935705 1.880790849211783e-38 1768976227
22.072189 27.829010 11.262078 1.880790849211783e-38 1768976227
22.473343 28.334793 11.052773 1.880790849211783e-38 1768976227
24.673389 31.108652 7.240597 1.880790849211783e-38 1768976227
28.872389 36.402824 8.054929 1.880790849211783e-38 1768976227
25.754169 32.471317 9.743520 1.880790849211783e-38 1768976227
25.528694 32.187035 9.406284 1.880790849211783e-38 1768976227
33.979218 42.841606 9.032548 1.880790849211783e-38 1768976227
25.291143 31.887524 8.927734 1.880790849211783e-38 1768976227
27.825874 35.083359 9.492966 1.880790849211783e-38 1768976227
27.997034 35.081326 5.601989 1.880790849211783e-38 1768976227
28.050743 35.148621 5.382924 1.880790849211783e-38 1768976227
27.832012 34.874546 5.076446 1.880790849211783e-38 1768976227
27.579866 34.558598 4.723157 1.880790849211783e-38 1768976227
29.958349 37.538925 7.202002 1.880790849211783e-38 1768976227
29.424149 36.869553 6.765016 1.880790849211783e-38 1768976227
31.091740 38.959110 6.873316 1.880790849211783e-38 1768976227
28.517231 35.733150 6.042510 1.880790849211783e-38 1768976227
29.418308 36.862236 3.659384 1.880790849211783e-38 1768976227
28.724987 35.993477 3.281324 1.880790849211783e-38 1768976227
28.434624 35.629639 3.015198 1.880790849211783e-38 1768976227
28.216005 35.355705 2.705369 1.880790849211783e-38 1768976227
21.557865 27.012808 14.398548 1.880790849211783e-38 1768976227
21.813017 27.332523 14.283032 1.880790849211783e-38 1768976227
28.591726 35.826500 9.201998 1.880790849211783e-38 1768976227
25.277901 31.674147 7.712997 1.880790849211783e-38 1768976227
22.010677 27.580198 14.073442 1.880790849211783e-38 1768976227
22.185282 27.798983 13.792486 1.880790849211783e-38 1768976227
22.318787 27.966269 13.495153 1.880790849211783e-38 1768976227
22.734287 28.486908 13.277022 1.880790849211783e-38 1768976227
21.230274 26.602322 14.492828 1.880790849211783e-38 1768976227
21.636223 27.110991 10.217920 1.880790849211783e-38 1768976227
21.477062 26.911558 9.882340 1.880790849211783e-38 1768976227
26.282944 32.933506 14.858517 1.880790849211783e-38 1768976227
26.459732 33.155025 14.689654 1.880790849211783e-38 1768976227
21.312901 26.705858 9.471550 1.880790849211783e-38 1768976227
21.164614 26.520048 9.100473 1.880790849211783e-38 1768976227
22.297417 27.939489 12.064660 1.880790849211783e-38 1768976227
23.132711 28.986147 12.160322 1.880790849211783e-38 1768976227
20.998589 26.312012 8.685013 1.880790849211783e-38 1768976227
22.563017 28.272299 8.903203 1.880790849211783e-38 1768976227
22.213083 27.833818 11.291084 1.880790849211783e-38 1768976227
22.152510 27.757917 10.853759 1.880790849211783e-38 1768976227
28.705832 35.969475 8.392076 1.880790849211783e-38 1768976227
28.986563 36.321243 8.056184 1.880790849211783e-38 1768976227
25.843477 32.382839 9.740314 1.880790849211783e-38 1768976227
25.656179 32.148148 9.417490 1.880790849211783e-38 1768976227
30.051525 37.655674 7.958241 1.880790849211783e-38 1768976227
25.423779 31.856939 8.940598 1.880790849211783e-38 1768976227
28.033609 35.127155 9.527650 1.880790849211783e-38 1768976227
27.975672 34.838528 5.576665 1.880790849211783e-38 1768976227
28.110315 35.006199 5.374071 1.880790849211783e-38 1768976227
27.891479 34.733677 5.068162 1.880790849211783e-38 1768976227
27.639208 34.419521 4.715520 1.880790849211783e-38 1768976227
30.289143 37.719524 7.254143 1.880790849211783e-38 1768976227
29.745199 37.042145 6.813115 1.880790849211783e-38 1768976227
29.113785 36.255833 6.411856 1.880790849211783e-38 1768976227
28.471930 35.456520 6.010224 1.880790849211783e-38 1768976227
29.112904 36.254742 3.607777 1.880790849211783e-38 1768976227
28.662693 35.694080 3.261895 1.880790849211783e-38 1768976227
28.471504 35.455990 3.007756 1.880790849211783e-38 1768976227
28.253141 35.184063 2.698744 1.880790849211783e-38 1768976227
21.689606 27.010393 14.432065 1.880790849211783e-38 1768976227
21.931684 27.311855 14.306731 1.880790849211783e-38 1768976227
27.344879 34.052986 8.767616 1.880790849211783e-38 1768976227
25.237732 31.428928 7.671783 1.880790849211783e-38 1768976227
22.130749 27.559757 14.097005 1.880790849211783e-38 1768976227
22.284140 27.750774 13.801849 1.880790849211783e-38 1768976227
22.288971 27.756792 13.426447 1.880790849211783e-38 1768976227
22.855743 28.462601 13.297760 1.880790849211783e-38 1768976227
21.356068 26.595030 14.523880 1.880790849211783e-38 1768976227
21.657402 26.970291 10.189463 1.880790849211783e-38 1768976227
21.517437 26.795990 9.863688 1.880790849211783e-38 1768976227
26.437117 32.922543 14.889475 1.880790849211783e-38 1768976227
26.615314 33.144451 14.720468 1.880790849211783e-38 1768976227
21.353279 26.591562 9.453811 1.880790849211783e-38 1768976227
21.204987 26.406887 9.083547 1.880790849211783e-38 1768976227
22.310255 27.783297 12.026214 1.880790849211783e-38 1768976227
23.233484 28.933004 12.167369 1.880790849211783e-38 1768976227
21.067556 26.235746 8.680772 1.880790849211783e-38 1768976227
22.566332 28.102190 8.871026 1.880790849211783e-38 1768976227
21.036301 26.196825 10.652709 1.880790849211783e-38 1768976227
22.128349 27.556765 10.801151 1.880790849211783e-38 1768976227
28.727680 35.775017 8.366882 1.880790849211783e-38 1768976227
29.100746 36.239597 8.057505 1.880790849211783e-38 1768976227
22.412764 27.910952 8.415525 1.880790849211783e-38 1768976227
25.784039 32.109249 9.428832 1.880790849211783e-38 1768976227
30.057516 37.431076 7.929895 1.880790849211783e-38 1768976227
25.556829 31.826303 8.953592 1.880790849211783e-38 1768976227
28.275066 35.211365 9.573577 1.880790849211783e-38 1768976227
27.954578 34.598007 5.551635 1.880790849211783e-38 1768976227
28.169735 34.864292 5.365304 1.880790849211783e-38 1768976227
27.950792 34.593319 5.059959 1.880790849211783e-38 1768976227
27.698389 34.280930 4.707957 1.880790849211783e-38 1768976227
30.070963 37.217350 6.861989 1.880790849211783e-38 1768976227
28.852957 35.709885 6.330665 1.880790849211783e-38 1768976227
28.448196 35.208931 5.982772 1.880790849211783e-38 1768976227
28.997297 35.888527 3.580021 1.880790849211783e-38 1768976227
28.686590 35.503983 3.252415 1.880790849211783e-38 1768976227
28.508228 35.283234 3.000381 1.880790849211783e-38 1768976227
28.290113 35.013283 2.692176 1.880790849211783e-38 1768976227
21.809216 26.992191 14.457417 1.880790849211783e-38 1768976227
22.050667 27.291023 14.330590 1.880790849211783e-38 1768976227
27.467888 33.995651 8.774143 1.880790849211783e-38 1768976227
25.198132 31.186485 7.631119 1.880790849211783e-38 1768976227
22.251154 27.539154 14.120729 1.880790849211783e-38 1768976227
22.411062 27.737068 13.828586 1.880790849211783e-38 1768976227
22.259632 27.549648 13.358662 1.880790849211783e-38 1768976227
22.977556 28.438190 13.318671 1.880790849211783e-38 1768976227
20.870857 25.830833 14.609252 1.880790849211783e-38 1768976227
21.482224 26.587490 14.555078 1.880790849211783e-38 1768976227
21.685982 26.839672 10.164778 1.880790849211783e-38 1768976227
21.557711 26.680920 9.845219 1.880790849211783e-38 1768976227
26.591848 32.911419 14.920648 1.880790849211783e-38 1768976227
28.081064 34.754547 15.473104 1.880790849211783e-38 1768976227
21.393551 26.477745 9.436243 1.880790849211783e-38 1768976227
21.269358 26.324038 9.077072 1.880790849211783e-38 1768976227
22.323305 27.628456 11.988278 1.880790849211783e-38 1768976227
23.355297 28.905703 12.185453 1.880790849211783e-38 1768976227
21.140501 26.164555 8.678273 1.880790849211783e-38 1768976227
22.569654 27.933350 8.839176 1.880790849211783e-38 1768976227
21.054495 26.058111 10.622074 1.880790849211783e-38 1768976227
22.104620 27.357801 10.749247 1.880790849211783e-38 1768976227
28.986404 35.875046 8.410685 1.880790849211783e-38 1768976227
29.214924 36.157871 8.058887 1.880790849211783e-38 1768976227
22.416611 27.743933 8.385513 1.880790849211783e-38 1768976227
25.912268 32.070335 9.440310 1.880790849211783e-38 1768976227
30.063450 37.208050 7.901819 1.880790849211783e-38 1768976227
25.690298 31.795622 8.966716 1.880790849211783e-38 1768976227
28.200058 34.901825 9.512497 1.880790849211783e-38 1768976227
27.933744 34.359722 5.526893 1.880790849211783e-38 1768976227
28.229004 34.722900 5.356623 1.880790849211783e-38 1768976227
28.009947 34.453453 5.051834 1.880790849211783e-38 1768976227
27.757418 34.142830 4.700466 1.880790849211783e-38 1768976227
30.401546 37.395222 6.911659 1.880790849211783e-38 1768976227
28.818766 35.448334 6.299677 1.880790849211783e-38 1768976227
28.424763 34.963692 5.955640 1.880790849211783e-38 1768976227
29.511276 36.300152 3.926400 1.880790849211783e-38 1768976227
28.946972 35.606033 3.560534 1.880790849211783e-38 1768976227
28.722946 35.330471 3.244441 1.880790849211783e-38 1768976227
28.544796 35.111336 2.993070 1.880790849211783e-38 1768976227
28.326929 34.843353 2.685667 1.880790849211783e-38 1768976227
21.924791 26.968445 14.480049 1.880790849211783e-38 1768976227
22.169970 27.270025 14.354609 1.880790849211783e-38 1768976227
27.689800 34.059654 8.812177 1.880790849211783e-38 1768976227
25.159086 30.946770 7.590994 1.880790849211783e-38 1768976227
22.371881 27.518387 14.144612 1.880790849211783e-38 1768976227
22.538429 27.723249 13.855523 1.880790849211783e-38 1768976227
22.271252 27.394609 13.315992 1.880790849211783e-38 1768976227
23.099726 28.413666 13.339752 1.880790849211783e-38 1768976227
20.992500 25.821686 14.639821 1.880790849211783e-38 1768976227
21.608753 26.579704 14.586427 1.880790849211783e-38 1768976227
21.726143 26.724100 10.145778 1.880790849211783e-38 1768976227
21.597876 26.566324 9.826925 1.880790849211783e-38 1768976227
28.083044 34.543362 15.698828 1.880790849211783e-38 1768976227
28.229237 34.723190 15.496975 1.880790849211783e-38 1768976227
21.457758 26.393976 9.429409 1.880790849211783e-38 1768976227
21.342695 26.252443 9.074538 1.880790849211783e-38 1768976227
22.336542 27.474916 11.950832 1.880790849211783e-38 1768976227
23.480724 28.882311 12.205391 1.880790849211783e-38 1768976227
21.213427 26.093435 8.675865 1.880790849211783e-38 1768976227
22.572990 27.765760 8.807647 1.880790849211783e-38 1768976227
21.072760 25.920408 10.591802 1.880790849211783e-38 1768976227
22.081305 27.160965 10.698025 1.880790849211783e-38 1768976227
27.590525 33.937542 7.975922 1.880790849211783e-38 1768976227
29.329105 36.076073 8.060335 1.880790849211783e-38 1768976227
22.420465 27.578148 8.355804 1.880790849211783e-38 1768976227
22.336617 27.475008 8.107410 1.880790849211783e-38 1768976227
30.069326 36.986576 7.874009 1.880790849211783e-38 1768976227
34.681156 42.659328 8.598420 1.880790849211783e-38 1768976227
25.824196 31.764885 8.979972 1.880790849211783e-38 1768976227
28.149921 34.625626 9.460315 1.880790849211783e-38 1768976227
27.913172 34.123638 5.502434 1.880790849211783e-38 1768976227
28.309046 34.607590 5.351981 1.880790849211783e-38 1768976227
28.068956 34.314083 5.043788 1.880790849211783e-38 1768976227
27.816296 34.005207 4.693048 1.880790849211783e-38 1768976227
29.181761 35.674480 6.609855 1.880790849211783e-38 1768976227
28.793497 35.199829 6.270918 1.880790849211783e-38 1768976227
28.401617 34.720760 5.928823 1.880790849211783e-38 1768976227
29.270851 35.783394 3.880035 1.880790849211783e-38 1768976227
28.982903 35.431374 3.551793 1.880790849211783e-38 1768976227
28.759144 35.157837 3.236538 1.880790849211783e-38 1768976227
28.581202 34.940304 2.985825 1.880790849211783e-38 1768976227
28.363579 34.674259 2.679215 1.880790849211783e-38 1768976227
22.040581 26.944445 14.502788 1.880790849211783e-38 1768976227
22.283098 27.240919 14.374599 1.880790849211783e-38 1768976227
27.930721 34.145096 8.856036 1.880790849211783e-38 1768976227
25.178316 30.780298 7.568753 1.880790849211783e-38 1768976227
22.492947 27.497454 14.168657 1.880790849211783e-38 1768976227
22.666260 27.709330 13.882668 1.880790849211783e-38 1768976227
25.632956 31.336094 18.248617 1.880790849211783e-38 1768976227
22.287683 27.246523 13.276624 1.880790849211783e-38 1768976227
23.222254 28.389032 13.361007 1.880790849211783e-38 1768976227
21.114487 25.812298 14.670535 1.880790849211783e-38 1768976227
21.700218 26.528349 14.594094 1.880790849211783e-38 1768976227
21.766207 26.609022 10.126964 1.880790849211783e-38 1768976227
21.658804 26.477720 9.818268 1.880790849211783e-38 1768976227
28.230610 34.511703 15.723064 1.880790849211783e-38 1768976227
28.377798 34.691643 15.521023 1.880790849211783e-38 1768976227
21.531446 26.322029 9.426863 1.880790849211783e-38 1768976227
21.353352 26.104309 9.045554 1.880790849211783e-38 1768976227
22.349981 27.322681 11.913878 1.880790849211783e-38 1768976227
21.973360 26.862263 11.379691 1.880790849211783e-38 1768976227
21.286348 26.022396 8.673552 1.880790849211783e-38 1768976227
22.576326 27.599386 8.776429 1.880790849211783e-38 1768976227
21.091085 25.783689 10.561879 1.880790849211783e-38 1768976227
22.058407 26.966234 10.647480 1.880790849211783e-38 1768976227
27.806925 33.993755 8.008804 1.880790849211783e-38 1768976227
29.201216 35.698265 7.995564 1.880790849211783e-38 1768976227
22.424314 27.413553 8.326388 1.880790849211783e-38 1768976227
22.340748 27.311392 8.078976 1.880790849211783e-38 1768976227
30.075151 36.766640 7.846461 1.880790849211783e-38 1768976227
34.797527 42.539715 8.595425 1.880790849211783e-38 1768976227
25.958519 31.734093 8.993358 1.880790849211783e-38 1768976227
28.783436 35.187531 9.637512 1.880790849211783e-38 1768976227
28.680016 34.846123 5.632857 1.880790849211783e-38 1768976227
28.399467 34.505264 5.349378 1.880790849211783e-38 1768976227
28.127817 34.175209 5.035821 1.880790849211783e-38 1768976227
26.140940 31.761156 4.394207 1.880790849211783e-38 1768976227
29.177656 35.450760 6.584677 1.880790849211783e-38 1768976227
25.844130 31.400534 4.161424 1.880790849211783e-38 1768976227
28.805277 34.998314 6.250467 1.880790849211783e-38 1768976227
28.429014 34.541161 5.912770 1.880790849211783e-38 1768976227
29.245667 35.533390 3.862474 1.880790849211783e-38 1768976227
29.018681 35.257603 3.543131 1.880790849211783e-38 1768976227
28.795195 34.986069 3.228706 1.880790849211783e-38 1768976227
28.617455 34.770111 2.978643 1.880790849211783e-38 1768976227
22.156601 26.920197 14.525639 1.880790849211783e-38 1768976227
22.409554 27.227535 14.403134 1.880790849211783e-38 1768976227
25.942076 31.519541 8.195315 1.880790849211783e-38 1768976227
25.213516 30.634344 7.551527 1.880790849211783e-38 1768976227
22.614344 27.476357 14.192865 1.880790849211783e-38 1768976227
22.771347 27.667112 13.895861 1.880790849211783e-38 1768976227
25.648643 31.163023 18.192793 1.880790849211783e-38 1768976227
22.304159 27.099480 13.237692 1.880790849211783e-38 1768976227
23.345150 28.364281 13.382435 1.880790849211783e-38 1768976227
21.236809 25.802652 14.701389 1.880790849211783e-38 1768976227
21.813908 26.503828 14.616730 1.880790849211783e-38 1768976227
21.832399 26.526295 10.120493 1.880790849211783e-38 1768976227
21.732889 26.405392 9.815707 1.880790849211783e-38 1768976227
28.378559 34.479855 15.747475 1.880790849211783e-38 1768976227
28.526749 34.659912 15.545247 1.880790849211783e-38 1768976227
21.605135 26.250168 9.424420 1.880790849211783e-38 1768976227
21.416542 26.021030 9.039037 1.880790849211783e-38 1768976227
22.363623 27.171728 11.877414 1.880790849211783e-38 1768976227
21.865370 26.566355 11.282219 1.880790849211783e-38 1768976227
21.359253 25.951424 8.671328 1.880790849211783e-38 1768976227
22.579674 27.434231 8.745526 1.880790849211783e-38 1768976227
21.109461 25.647928 10.532298 1.880790849211783e-38 1768976227
22.035917 26.773567 10.597599 1.880790849211783e-38 1768976227
28.024971 34.050247 8.041991 1.880790849211783e-38 1768976227
29.557482 35.912243 8.063418 1.880790849211783e-38 1768976227
22.428173 27.250156 8.297267 1.880790849211783e-38 1768976227
22.355560 27.161934 8.054672 1.880790849211783e-38 1768976227
29.674448 36.054356 7.713516 1.880790849211783e-38 1768976227
34.892578 42.394371 8.587282 1.880790849211783e-38 1768976227
26.093273 31.703243 9.006877 1.880790849211783e-38 1768976227
29.004013 35.239780 9.675737 1.880790849211783e-38 1768976227
28.771170 34.742790 5.630155 1.880790849211783e-38 1768976227
28.489853 34.403088 5.346834 1.880790849211783e-38 1768976227
26.492136 31.990736 4.725685 1.880790849211783e-38 1768976227
26.025711 31.427500 4.358885 1.880790849211783e-38 1768976227
29.254118 35.325985 6.577860 1.880790849211783e-38 1768976227
25.812714 31.170296 4.141210 1.880790849211783e-38 1768976227
28.881147 34.875599 6.244078 1.880790849211783e-38 1768976227
28.504267 34.420494 5.906803 1.880790849211783e-38 1768976227
29.444073 35.555363 4.082104 1.880790849211783e-38 1768976227
29.281023 35.358471 3.853042 1.880790849211783e-38 1768976227
29.058969 35.090328 3.535112 1.880790849211783e-38 1768976227
28.843721 34.830406 3.222354 1.880790849211783e-38 1768976227
28.672443 34.623577 2.973485 1.880790849211783e-38 1768976227
22.272835 26.895693 14.548596 1.880790849211783e-38 1768976227
22.529835 27.206036 14.427640 1.880790849211783e-38 1768976227
25.898808 31.274261 8.151813 1.880790849211783e-38 1768976227
25.248653 30.489159 7.534475 1.880790849211783e-38 1768976227
22.736082 27.455093 14.217237 1.880790849211783e-38 1768976227
22.786835 27.516378 13.854608 1.880790849211783e-38 1768976227
25.663969 30.990675 18.137283 1.880790849211783e-38 1768976227
22.320686 26.953476 13.199194 1.880790849211783e-38 1768976227
23.468414 28.339417 13.404038 1.880790849211783e-38 1768976227
21.359472 25.792757 14.732388 1.880790849211783e-38 1768976227
21.927813 26.479061 14.639476 1.880790849211783e-38 1768976227
21.906797 26.453682 10.117951 1.880790849211783e-38 1768976227
21.806974 26.333139 9.813252 1.880790849211783e-38 1768976227
28.526894 34.447819 15.772064 1.880790849211783e-38 1768976227
28.676096 34.627987 15.569650 1.880790849211783e-38 1768976227
21.678818 26.178383 9.422078 1.880790849211783e-38 1768976227
21.479702 25.937939 9.032636 1.880790849211783e-38 1768976227
22.377453 27.022026 11.841421 1.880790849211783e-38 1768976227
21.760021 26.276443 11.186918 1.880790849211783e-38 1768976227
21.432159 25.880531 8.669199 1.880790849211783e-38 1768976227
22.583029 27.270269 8.714931 1.880790849211783e-38 1768976227
21.127905 25.513128 10.503062 1.880790849211783e-38 1768976227
22.076176 26.658216 10.578247 1.880790849211783e-38 1768976227
28.244677 34.107025 8.075482 1.880790849211783e-38 1768976227
29.671675 35.830204 8.065055 1.880790849211783e-38 1768976227
22.438084 27.095240 8.270664 1.880790849211783e-38 1768976227
22.375593 27.019779 8.032493 1.880790849211783e-38 1768976227
29.681139 35.841633 7.687122 1.880790849211783e-38 1768976227
34.985432 42.246864 8.578737 1.880790849211783e-38 1768976227
26.228470 31.672346 9.020531 1.880790849211783e-38 1768976227
29.297619 35.378513 9.738045 1.880790849211783e-38 1768976227
28.862291 34.639626 5.627517 1.880790849211783e-38 1768976227
27.087051 32.509041 5.065139 1.880790849211783e-38 1768976227
26.373007 31.652067 4.687385 1.880790849211783e-38 1768976227
25.971731 31.170465 4.334080 1.880790849211783e-38 1768976227
29.330505 35.201565 6.571134 1.880790849211783e-38 1768976227
25.831861 31.002602 4.129262 1.880790849211783e-38 1768976227
28.956936 34.753216 6.237774 1.880790849211783e-38 1768976227
28.579447 34.300167 5.900918 1.880790849211783e-38 1768976227
29.493599 35.397301 4.074152 1.880790849211783e-38 1768976227
29.336479 35.208736 3.846349 1.880790849211783e-38 1768976227
29.117901 34.946404 3.529444 1.880790849211783e-38 1768976227
28.902561 34.687958 3.217225 1.880790849211783e-38 1768976227
28.731203 34.482300 2.968780 1.880790849211783e-38 1768976227
21.976690 26.375742 14.303128 1.880790849211783e-38 1768976227
22.650452 27.184376 14.452313 1.880790849211783e-38 1768976227
25.930223 31.120651 8.132121 1.880790849211783e-38 1768976227
25.283749 30.344772 7.517604 1.880790849211783e-38 1768976227
22.858158 27.433655 14.241770 1.880790849211783e-38 1768976227
22.802387 27.366720 13.813818 1.880790849211783e-38 1768976227
25.678942 30.819075 18.082096 1.880790849211783e-38 1768976227
22.337265 26.808493 13.161126 1.880790849211783e-38 1768976227
23.592041 28.314436 13.425815 1.880790849211783e-38 1768976227
21.451578 25.745518 14.742291 1.880790849211783e-38 1768976227
22.041925 26.454039 14.662329 1.880790849211783e-38 1768976227
21.985758 26.386623 10.117619 1.880790849211783e-38 1768976227
21.881052 26.260962 9.810903 1.880790849211783e-38 1768976227
23.743759 28.496521 13.079969 1.880790849211783e-38 1768976227
28.818153 34.586655 15.590072 1.880790849211783e-38 1768976227
21.752495 26.106670 9.419836 1.880790849211783e-38 1768976227
21.542837 25.855047 9.026354 1.880790849211783e-38 1768976227
22.391481 26.873564 11.805903 1.880790849211783e-38 1768976227
21.777288 26.136429 11.155220 1.880790849211783e-38 1768976227
21.279202 25.538639 8.576133 1.880790849211783e-38 1768976227
22.586391 27.107485 8.684639 1.880790849211783e-38 1768976227
21.146412 25.379269 10.474163 1.880790849211783e-38 1768976227
22.186888 26.628017 10.592768 1.880790849211783e-38 1768976227
28.466059 34.164082 8.109282 1.880790849211783e-38 1768976227
29.785879 35.748093 8.066755 1.880790849211783e-38 1768976227
22.457911 26.953289 8.247972 1.880790849211783e-38 1768976227
22.395536 26.878429 8.010515 1.880790849211783e-38 1768976227
29.980782 35.982006 7.736586 1.880790849211783e-38 1768976227
35.071548 42.091785 8.568686 1.880790849211783e-38 1768976227
22.298515 26.761990 7.641142 1.880790849211783e-38 1768976227
29.648941 35.583740 9.819102 1.880790849211783e-38 1768976227
28.953390 34.536633 5.624945 1.880790849211783e-38 1768976227
26.656794 31.797169 4.966729 1.880790849211783e-38 1768976227
26.255863 31.318924 4.649755 1.880790849211783e-38 1768976227
25.990501 31.002390 4.321589 1.880790849211783e-38 1768976227
29.406828 35.077507 6.564502 1.880790849211783e-38 1768976227
29.032661 34.631191 6.231560 1.880790849211783e-38 1768976227
28.683949 34.215229 5.901162 1.880790849211783e-38 1768976227
29.593704 35.300419 4.073255 1.880790849211783e-38 1768976227
29.395340 35.063805 3.840184 1.880790849211783e-38 1768976227
29.176676 34.802971 3.523829 1.880790849211783e-38 1768976227
28.961237 34.545990 3.212144 1.880790849211783e-38 1768976227
28.789801 34.341496 2.964119 1.880790849211783e-38 1768976227
22.294168 26.593275 14.457490 1.880790849211783e-38 1768976227
22.771400 27.162535 14.477149 1.880790849211783e-38 1768976227
25.964682 30.971592 8.113597 1.880790849211783e-38 1768976227
25.318779 30.201138 7.500904 1.880790849211783e-38 1768976227
22.980579 27.412048 14.266470 1.880790849211783e-38 1768976227
22.589548 26.945612 13.635584 1.880790849211783e-38 1768976227
25.693569 30.648201 18.027225 1.880790849211783e-38 1768976227
23.330435 27.829369 13.696788 1.880790849211783e-38 1768976227
23.716049 28.289347 13.447772 1.880790849211783e-38 1768976227
21.527376 25.678617 14.741094 1.880790849211783e-38 1768976227
22.156258 26.428768 14.685293 1.880790849211783e-38 1768976227
22.070190 26.326105 10.119890 1.880790849211783e-38 1768976227
21.962049 26.197113 9.811750 1.880790849211783e-38 1768976227
23.816931 28.409681 13.073019 1.880790849211783e-38 1768976227
28.949451 34.531933 15.604690 1.880790849211783e-38 1768976227
21.826174 26.035034 9.417698 1.880790849211783e-38 1768976227
21.605953 25.772346 9.020191 1.880790849211783e-38 1768976227
22.405693 26.726305 11.770844 1.880790849211783e-38 1768976227
21.794638 25.997416 11.123894 1.880790849211783e-38 1768976227
21.327217 25.439859 8.564524 1.880790849211783e-38 1768976227
22.590582 26.946848 8.654963 1.880790849211783e-38 1768976227
21.164976 25.246334 10.445597 1.880790849211783e-38 1768976227
22.297977 26.597818 10.607458 1.880790849211783e-38 1768976227
28.689144 34.221432 8.143395 1.880790849211783e-38 1768976227
34.837627 41.555557 9.400909 1.880790849211783e-38 1768976227
22.477646 26.812136 8.225484 1.880790849211783e-38 1768976227
22.415392 26.737873 7.988737 1.880790849211783e-38 1768976227
35.000107 41.749374 8.999297 1.880790849211783e-38 1768976227
35.157448 41.937054 8.558733 1.880790849211783e-38 1768976227
22.318544 26.622351 7.620457 1.880790849211783e-38 1768976227
30.006357 35.792648 9.901676 1.880790849211783e-38 1768976227
27.041252 32.058880 5.234655 1.880790849211783e-38 1768976227
26.536608 31.460598 4.926634 1.880790849211783e-38 1768976227
26.227415 31.094032 4.628088 1.880790849211783e-38 1768976227
26.009197 30.835323 4.309216 1.880790849211783e-38 1768976227
29.483091 34.953815 6.557964 1.880790849211783e-38 1768976227
29.108316 34.509499 6.225431 1.880790849211783e-38 1768976227
28.588989 33.893806 5.860569 1.880790849211783e-38 1768976227
29.710133 35.222984 4.074640 1.880790849211783e-38 1768976227
29.477993 34.947769 3.837195 1.880790849211783e-38 1768976227
29.235281 34.660019 3.518266 1.880790849211783e-38 1768976227
29.019749 34.404495 3.207111 1.880790849211783e-38 1768976227
28.848232 34.201153 2.959502 1.880790849211783e-38 1768976227
22.617287 26.814024 14.614518 1.880790849211783e-38 1768976227
22.892689 27.140533 14.502155 1.880790849211783e-38 1768976227
25.999094 30.823347 8.095264 1.880790849211783e-38 1768976227
25.353765 30.058271 7.484378 1.880790849211783e-38 1768976227
23.103344 27.390272 14.291334 1.880790849211783e-38 1768976227
22.894373 27.142529 13.770110 1.880790849211783e-38 1768976227
25.707846 30.478054 17.972668 1.880790849211783e-38 1768976227
23.461706 27.815134 13.724543 1.880790849211783e-38 1768976227
23.840433 28.264133 13.469905 1.880790849211783e-38 1768976227
21.602940 25.611464 14.739878 1.880790849211783e-38 1768976227
22.270798 26.403248 14.708365 1.880790849211783e-38 1768976227
22.154699 26.265606 10.122272 1.880790849211783e-38 1768976227
22.046122 26.136879 9.814049 1.880790849211783e-38 1768976227
23.942015 28.384563 13.094630 1.880790849211783e-38 1768976227
24.182199 28.669317 12.988322 1.880790849211783e-38 1768976227
21.896441 25.959423 9.414191 1.880790849211783e-38 1768976227
21.654299 25.672356 9.008010 1.880790849211783e-38 1768976227
22.420111 26.580263 11.736249 1.880790849211783e-38 1768976227
21.812061 25.859390 11.092931 1.880790849211783e-38 1768976227
21.375139 25.341396 8.553039 1.880790849211783e-38 1768976227
22.610029 26.805422 8.631401 1.880790849211783e-38 1768976227
21.184649 25.115561 10.417876 1.880790849211783e-38 1768976227
22.409447 26.567623 10.622321 1.880790849211783e-38 1768976227
28.913965 34.279083 8.177828 1.880790849211783e-38 1768976227
34.931252 41.412907 9.392427 1.880790849211783e-38 1768976227
22.497303 26.671780 8.203204 1.880790849211783e-38 1768976227
22.435160 26.598108 7.967157 1.880790849211783e-38 1768976227
35.094028 41.605888 8.991141 1.880790849211783e-38 1768976227
30.163574 35.760563 7.316735 1.880790849211783e-38 1768976227
22.338488 26.483494 7.599960 1.880790849211783e-38 1768976227
22.265007 26.396383 7.320837 1.880790849211783e-38 1768976227
26.765108 31.538010 5.162763 1.880790849211783e-38 1768976227
26.434191 31.148083 4.890158 1.880790849211783e-38 1768976227
26.245562 30.925812 4.614811 1.880790849211783e-38 1768976227
29.608116 34.887997 4.888031 1.880790849211783e-38 1768976227
29.559288 34.830463 6.551517 1.880790849211783e-38 1768976227
29.183914 34.388145 6.219389 1.880790849211783e-38 1768976227
28.817162 33.955994 5.886324 1.880790849211783e-38 1768976227
29.826683 35.145535 4.076069 1.880790849211783e-38 1768976227
29.593552 34.870834 3.838530 1.880790849211783e-38 1768976227
29.293726 34.517544 3.512755 1.880790849211783e-38 1768976227
29.078100 34.263466 3.202125 1.880790849211783e-38 1768976227
28.906506 34.061272 2.954928 1.880790849211783e-38 1768976227
27.771738 32.724144 2.566948 1.880790849211783e-38 1768976227
22.708534 26.758045 14.621267 1.880790849211783e-38 1768976227
23.014311 27.118349 14.527324 1.880790849211783e-38 1768976227
26.049625 30.694937 8.082137 1.880790849211783e-38 1768976227
25.388704 29.916157 7.468024 1.880790849211783e-38 1768976227
23.226458 27.368326 14.316367 1.880790849211783e-38 1768976227
22.971483 27.067883 13.767325 1.880790849211783e-38 1768976227
25.721781 30.308628 17.918423 1.880790849211783e-38 1768976227
23.593472 27.800787 13.752512 1.880790849211783e-38 1768976227
23.965200 28.238806 13.492218 1.880790849211783e-38 1768976227
21.678280 25.544071 14.738651 1.880790849211783e-38 1768976227
22.366468 26.354980 14.718988 1.880790849211783e-38 1768976227
22.239290 26.205124 10.124765 1.880790849211783e-38 1768976227
22.130272 26.076662 9.816455 1.880790849211783e-38 1768976227
24.067486 28.359329 13.116414 1.880790849211783e-38 1768976227
24.372028 28.718178 13.043700 1.880790849211783e-38 1768976227
21.939016 25.851301 9.398934 1.880790849211783e-38 1768976227
21.632799 25.490477 8.967044 1.880790849211783e-38 1768976227
22.504230 26.517311 11.738368 1.880790849211783e-38 1768976227
21.829573 25.722340 11.062332 1.880790849211783e-38 1768976227
21.422968 25.243227 8.541673 1.880790849211783e-38 1768976227
22.629395 26.664791 8.608054 1.880790849211783e-38 1768976227
21.281828 25.076920 10.428424 1.880790849211783e-38 1768976227
22.483559 26.492950 10.619528 1.880790849211783e-38 1768976227
28.255766 33.294491 7.963232 1.880790849211783e-38 1768976227
35.024681 41.270473 9.384039 1.880790849211783e-38 1768976227
22.516876 26.532207 8.181127 1.880790849211783e-38 1768976227
22.454842 26.459110 7.945772 1.880790849211783e-38 1768976227
34.514339 40.669125 8.811160 1.880790849211783e-38 1768976227
35.328594 41.628582 8.539114 1.880790849211783e-38 1768976227
22.358347 26.345407 7.579649 1.880790849211783e-38 1768976227
22.284994 26.258978 7.301336 1.880790849211783e-38 1768976227
26.644564 31.204714 5.121334 1.880790849211783e-38 1768976227
26.451853 30.979021 4.876119 1.880790849211783e-38 1768976227
26.263634 30.758591 4.601657 1.880790849211783e-38 1768976227
29.787701 34.885792 4.900287 1.880790849211783e-38 1768976227
30.429552 35.637493 7.027085 1.880790849211783e-38 1768976227
29.635427 34.707458 6.545163 1.880790849211783e-38 1768976227
29.320946 34.339153 6.226493 1.880790849211783e-38 1768976227
27.691439 32.430759 5.636374 1.880790849211783e-38 1768976227
29.943354 35.068081 4.077541 1.880790849211783e-38 1768976227
29.709227 34.793884 3.839906 1.880790849211783e-38 1768976227
29.385469 34.414722 3.511295 1.880790849211783e-38 1768976227
29.136293 34.122898 3.197186 1.880790849211783e-38 1768976227
28.587234 33.479874 2.911956 1.880790849211783e-38 1768976227
27.801569 32.559738 2.560617 1.880790849211783e-38 1768976227
22.799730 26.701847 14.628067 1.880790849211783e-38 1768976227
23.114094 27.070015 14.538708 1.880790849211783e-38 1768976227
26.187775 30.669746 8.096264 1.880790849211783e-38 1768976227
27.497301 32.203400 8.059658 1.880790849211783e-38 1768976227
23.349928 27.346210 14.341571 1.880790849211783e-38 1768976227
23.048878 26.993635 13.764854 1.880790849211783e-38 1768976227
25.735374 30.139919 17.864489 1.880790849211783e-38 1768976227
23.725723 27.786325 13.780693 1.880790849211783e-38 1768976227
24.090363 28.213367 13.514716 1.880790849211783e-38 1768976227
21.753384 25.476423 14.737408 1.880790849211783e-38 1768976227
22.456133 26.299444 14.725731 1.880790849211783e-38 1768976227
22.331600 26.153599 10.130835 1.880790849211783e-38 1768976227
22.177845 25.973530 9.802764 1.880790849211783e-38 1768976227
24.193346 28.333977 13.138375 1.880790849211783e-38 1768976227
24.524534 28.721848 13.078900 1.880790849211783e-38 1768976227
22.020376 25.789112 9.400426 1.880790849211783e-38 1768976227
21.658716 25.365549 8.946035 1.880790849211783e-38 1768976227
22.692965 26.576807 11.794949 1.880790849211783e-38 1768976227
21.847160 25.586250 11.032091 1.880790849211783e-38 1768976227
21.470711 25.145370 8.530433 1.880790849211783e-38 1768976227
22.648676 26.524940 8.584920 1.880790849211783e-38 1768976227
21.379320 25.038338 10.439147 1.880790849211783e-38 1768976227
22.336702 26.159573 10.512852 1.880790849211783e-38 1768976227
28.478153 33.352119 7.997522 1.880790849211783e-38 1768976227
35.117916 41.128262 9.375743 1.880790849211783e-38 1768976227
22.536360 26.393402 8.159246 1.880790849211783e-38 1768976227
22.474445 26.320892 7.924583 1.880790849211783e-38 1768976227
34.730587 40.674644 8.835009 1.880790849211783e-38 1768976227
35.413853 41.474846 8.529449 1.880790849211783e-38 1768976227
22.378122 26.208082 7.559523 1.880790849211783e-38 1768976227
22.304895 26.122326 7.282011 1.880790849211783e-38 1768976227
