# .PCD v0.7 - Point Cloud Data file format
VERSION 0.7
FIELDS x y z rgb label
SIZE 4 4 4 4 4
TYPE F F F F U
COUNT 1 1 1 1 1
WIDTH 758
HEIGHT 1
VIEWPOINT 0 0 0 1 0 0 0
POINTS 758
DATA ascii
-11.086708 41.445591 13.603086 1.880790849211783e-38 1768976227
-11.569931 43.252033 13.683464 1.880790849211783e-38 1768976227
-10.053098 37.581635 7.094263 1.880790849211783e-38 1768976227
-10.329891 38.616375 6.930051 1.880790849211783e-38 1768976227
-12.297093 45.970402 11.187488 1.880790849211783e-38 1768976227
-13.514211 50.520359 11.974072 1.880790849211783e-38 1768976227
-10.313136 38.553741 6.592488 1.880790849211783e-38 1768976227
-10.263439 38.367958 6.211614 1.880790849211783e-38 1768976227
-10.650784 39.815979 9.040994 1.880790849211783e-38 1768976227
-10.442080 39.035778 8.566470 1.880790849211783e-38 1768976227
-9.891662 37.429985 4.832078 1.880790849211783e-38 1768976227
-9.763647 36.945576 4.574255 1.880790849211783e-38 1768976227
-9.666489 36.577930 4.304456 1.880790849211783e-38 1768976227
-9.679846 36.628475 4.047092 1.880790849211783e-38 1768976227
-10.068201 38.098007 5.909104 1.880790849211783e-38 1768976227
-9.863791 37.324520 5.536601 1.880790849211783e-38 1768976227
-9.746478 36.880608 3.903400 1.880790849211783e-38 1768976227
-9.953913 37.665543 3.731637 1.880790849211783e-38 1768976227
-9.942175 37.621128 5.365833 1.880790849211783e-38 1768976227
-9.833131 37.208504 5.086701 1.880790849211783e-38 1768976227
-9.676871 36.617218 2.017421 1.880790849211783e-38 1768976227
-9.926555 37.562016 3.435473 1.880790849211783e-38 1768976227
-9.628726 36.435036 3.162919 1.880790849211783e-38 1768976227
-12.157217 46.002831 1.980109 1.880790849211783e-38 1768976227
-12.148994 45.971714 1.755211 1.880790849211783e-38 1768976227
-9.782448 37.016720 2.970792 1.880790849211783e-38 1768976227
-9.787639 37.036362 2.729616 1.880790849211783e-38 1768976227
-12.282000 46.475010 1.450157 1.880790849211783e-38 1768976227
-12.011114 45.449974 1.187542 1.880790849211783e-38 1768976227
-9.759376 36.929413 2.526532 1.880790849211783e-38 1768976227
-9.828673 37.191635 2.300702 1.880790849211783e-38 1768976227
-11.446280 43.312645 18.664301 1.880790849211783e-38 1768976227
-9.909037 37.495728 15.840558 1.880790849211783e-38 1768976227
-14.761312 55.856709 11.598481 1.880790849211783e-38 1768976227
-10.196302 38.582745 7.595551 1.880790849211783e-38 1768976227
-9.948375 37.644588 15.529357 1.880790849211783e-38 1768976227
-10.269191 38.858551 15.586486 1.880790849211783e-38 1768976227
-10.174177 38.499020 15.018997 1.880790849211783e-38 1768976227
-10.379811 39.277142 14.799370 1.880790849211783e-38 1768976227
-10.842525 41.028049 18.668734 1.880790849211783e-38 1768976227
-11.187118 42.331982 18.644476 1.880790849211783e-38 1768976227
-11.447506 43.317291 13.198554 1.880790849211783e-38 1768976227
-11.567303 43.770603 12.994258 1.880790849211783e-38 1768976227
-11.145174 42.173267 15.382353 1.880790849211783e-38 1768976227
-11.241464 42.537628 15.236439 1.880790849211783e-38 1768976227
-11.685820 44.219067 12.678622 1.880790849211783e-38 1768976227
-11.691367 44.240059 12.273074 1.880790849211783e-38 1768976227
-10.033017 37.964870 13.253376 1.880790849211783e-38 1768976227
-11.521830 43.598526 14.786806 1.880790849211783e-38 1768976227
-13.082878 49.505520 13.210464 1.880790849211783e-38 1768976227
-12.520522 47.377575 12.061630 1.880790849211783e-38 1768976227
-11.058764 41.846291 13.723593 1.880790849211783e-38 1768976227
-11.299082 42.755653 13.515583 1.880790849211783e-38 1768976227
-10.627092 40.212845 7.584870 1.880790849211783e-38 1768976227
-10.333671 39.102543 7.011673 1.880790849211783e-38 1768976227
-13.279799 50.250679 12.219345 1.880790849211783e-38 1768976227
-13.263299 50.188236 11.885819 1.880790849211783e-38 1768976227
-10.101897 38.225513 6.531124 1.880790849211783e-38 1768976227
-10.121545 38.299862 6.195619 1.880790849211783e-38 1768976227
-10.623172 40.198017 9.120426 1.880790849211783e-38 1768976227
-14.365232 54.357941 11.919386 1.880790849211783e-38 1768976227
-9.741749 37.317989 4.813805 1.880790849211783e-38 1768976227
-9.608902 36.809086 4.553747 1.880790849211783e-38 1768976227
-9.433441 36.136948 4.249195 1.880790849211783e-38 1768976227
-9.490219 36.354446 4.013634 1.880790849211783e-38 1768976227
-9.899921 37.923901 5.877442 1.880790849211783e-38 1768976227
-9.818648 37.612572 5.574912 1.880790849211783e-38 1768976227
-9.408799 36.042545 3.811679 1.880790849211783e-38 1768976227
-9.721335 37.239792 3.686534 1.880790849211783e-38 1768976227
-9.794132 37.518654 5.346980 1.880790849211783e-38 1768976227
-9.781424 37.469975 5.118390 1.880790849211783e-38 1768976227
-9.598502 36.769249 2.024193 1.880790849211783e-38 1768976227
-9.668417 37.037075 3.384778 1.880790849211783e-38 1768976227
-9.568129 36.652893 3.179312 1.880790849211783e-38 1768976227
-12.054782 46.178585 1.986100 1.880790849211783e-38 1768976227
-12.019444 46.043213 1.756549 1.880790849211783e-38 1768976227
-9.694884 37.138462 2.978203 1.880790849211783e-38 1768976227
-9.642502 36.937801 2.720196 1.880790849211783e-38 1768976227
-12.196954 46.723213 1.456747 1.880790849211783e-38 1768976227
-11.964074 45.831108 1.196552 1.880790849211783e-38 1768976227
-9.719621 37.233223 2.545300 1.880790849211783e-38 1768976227
-9.736134 37.296478 2.305360 1.880790849211783e-38 1768976227
-11.294375 43.265678 18.629297 1.880790849211783e-38 1768976227
-9.663191 37.017056 15.625954 1.880790849211783e-38 1768976227
-14.611885 55.974155 11.613664 1.880790849211783e-38 1768976227
-10.099735 38.689339 7.610505 1.880790849211783e-38 1768976227
-9.737242 37.300724 15.375319 1.880790849211783e-38 1768976227
-10.270868 39.344902 15.769069 1.880790849211783e-38 1768976227
-10.270565 39.343735 15.336379 1.880790849211783e-38 1768976227
-10.369647 39.723297 14.955626 1.880790849211783e-38 1768976227
-10.755539 41.201546 18.732834 1.880790849211783e-38 1768976227
-11.193233 42.878231 18.870111 1.880790849211783e-38 1768976227
-11.226641 43.006207 13.093392 1.880790849211783e-38 1768976227
-11.401725 43.676907 12.956175 1.880790849211783e-38 1768976227
-10.429619 39.953033 14.561000 1.880790849211783e-38 1768976227
-10.964490 42.001976 15.032663 1.880790849211783e-38 1768976227
-11.657154 44.655384 12.793586 1.880790849211783e-38 1768976227
-11.656611 44.653305 12.377909 1.880790849211783e-38 1768976227
-11.298486 43.281422 15.097397 1.880790849211783e-38 1768976227
-11.235173 43.038887 14.585442 1.880790849211783e-38 1768976227
-12.764520 48.897400 13.037855 1.880790849211783e-38 1768976227
-12.480659 47.810009 12.162083 1.880790849211783e-38 1768976227
-11.083394 42.457466 13.913004 1.880790849211783e-38 1768976227
-11.298168 43.280209 13.670568 1.880790849211783e-38 1768976227
-10.492204 40.192780 7.575081 1.880790849211783e-38 1768976227
-10.180377 38.998253 6.987435 1.880790849211783e-38 1768976227
-13.143316 50.348469 12.233431 1.880790849211783e-38 1768976227
-13.106161 50.206139 11.880644 1.880790849211783e-38 1768976227
-10.009064 38.341999 6.545838 1.880790849211783e-38 1768976227
-9.848263 37.726017 6.097958 1.880790849211783e-38 1768976227
-13.335997 51.086575 11.581725 1.880790849211783e-38 1768976227
-14.274657 54.682323 11.981019 1.880790849211783e-38 1768976227
-9.532843 36.973648 4.765656 1.880790849211783e-38 1768976227
-9.597510 37.224468 4.601533 1.880790849211783e-38 1768976227
-9.367264 36.331448 4.268723 1.880790849211783e-38 1768976227
-9.349730 36.263439 4.000455 1.880790849211783e-38 1768976227
-9.789321 37.968418 5.879738 1.880790849211783e-38 1768976227
-9.560124 37.079464 5.491596 1.880790849211783e-38 1768976227
-9.327416 36.176895 3.822895 1.880790849211783e-38 1768976227
-9.773070 37.905388 3.749490 1.880790849211783e-38 1768976227
-9.599950 37.233932 5.302251 1.880790849211783e-38 1768976227
-9.555501 37.061535 5.058638 1.880790849211783e-38 1768976227
-11.841518 45.927979 2.526415 1.880790849211783e-38 1768976227
-11.465077 44.467930 2.220807 1.880790849211783e-38 1768976227
-9.641927 37.396740 3.414975 1.880790849211783e-38 1768976227
-9.488722 36.802525 3.189794 1.880790849211783e-38 1768976227
-11.908454 46.187592 1.984934 1.880790849211783e-38 1768976227
-11.929312 46.268490 1.763762 1.880790849211783e-38 1768976227
-9.619386 37.309315 2.989563 1.880790849211783e-38 1768976227
-9.582506 37.166271 2.734881 1.880790849211783e-38 1768976227
-11.883201 46.089645 1.435870 1.880790849211783e-38 1768976227
-12.011739 46.588184 1.215367 1.880790849211783e-38 1768976227
-9.473405 36.743114 2.509831 1.880790849211783e-38 1768976227
-9.419701 36.534828 2.256515 1.880790849211783e-38 1768976227
-9.617453 37.301815 16.048820 1.880790849211783e-38 1768976227
-9.650775 37.431061 15.788359 1.880790849211783e-38 1768976227
-14.331519 55.585583 11.524021 1.880790849211783e-38 1768976227
-9.639085 37.385723 7.348321 1.880790849211783e-38 1768976227
-9.866186 38.266541 15.761092 1.880790849211783e-38 1768976227
-10.121353 39.256222 15.721221 1.880790849211783e-38 1768976227
-9.989757 38.745819 15.091496 1.880790849211783e-38 1768976227
-10.271522 39.838657 14.987328 1.880790849211783e-38 1768976227
-10.610330 41.152744 18.696011 1.880790849211783e-38 1768976227
-11.207475 43.468807 19.115051 1.880790849211783e-38 1768976227
-11.234582 43.573940 13.255864 1.880790849211783e-38 1768976227
-11.286613 43.775749 12.975340 1.880790849211783e-38 1768976227
-10.336993 40.092594 14.600435 1.880790849211783e-38 1768976227
-10.984753 42.604965 15.236548 1.880790849211783e-38 1768976227
-11.430462 44.333675 12.691483 1.880790849211783e-38 1768976227
-11.146288 43.231487 11.974406 1.880790849211783e-38 1768976227
-11.127501 43.158623 15.042788 1.880790849211783e-38 1768976227
-11.067917 42.927517 14.536321 1.880790849211783e-38 1768976227
-12.700261 49.258656 13.123906 1.880790849211783e-38 1768976227
-12.253665 47.526508 12.080508 1.880790849211783e-38 1768976227
-10.713232 41.551857 13.605592 1.880790849211783e-38 1768976227
-11.144943 43.226269 13.642853 1.880790849211783e-38 1768976227
-11.369200 44.096066 8.304229 1.880790849211783e-38 1768976227
-9.878463 38.314159 6.859495 1.880790849211783e-38 1768976227
-12.813051 49.696121 12.065482 1.880790849211783e-38 1768976227
-13.121615 50.892902 12.033738 1.880790849211783e-38 1768976227
-9.862698 38.253010 6.525538 1.880790849211783e-38 1768976227
-9.811094 38.052864 6.145978 1.880790849211783e-38 1768976227
-14.024794 54.395924 12.322336 1.880790849211783e-38 1768976227
-14.107585 54.717041 11.979249 1.880790849211783e-38 1768976227
-9.375381 36.821869 4.742427 1.880790849211783e-38 1768976227
-9.172439 36.024807 4.449797 1.880790849211783e-38 1768976227
-9.290009 36.486565 4.283638 1.880790849211783e-38 1768976227
-9.264165 36.385059 4.010772 1.880790849211783e-38 1768976227
-9.604461 37.721577 5.837001 1.880790849211783e-38 1768976227
-9.537680 37.459293 5.543565 1.880790849211783e-38 1768976227
-9.561786 37.553970 3.965349 1.880790849211783e-38 1768976227
-9.495872 37.295094 3.686272 1.880790849211783e-38 1768976227
-9.507102 37.339199 5.313135 1.880790849211783e-38 1768976227
-9.483297 37.245708 5.079850 1.880790849211783e-38 1768976227
-11.475574 45.070381 2.477325 1.880790849211783e-38 1768976227
-11.278020 44.294487 2.210437 1.880790849211783e-38 1768976227
-9.339151 36.679573 3.346898 1.880790849211783e-38 1768976227
-9.419181 36.993889 3.203904 1.880790849211783e-38 1768976227
-11.676115 45.858009 1.969248 1.880790849211783e-38 1768976227
-11.714079 46.007114 1.752444 1.880790849211783e-38 1768976227
-9.320782 36.607426 2.931056 1.880790849211783e-38 1768976227
-9.408190 36.950722 2.716919 1.880790849211783e-38 1768976227
-11.851227 46.545769 1.448960 1.880790849211783e-38 1768976227
-11.780188 46.266754 1.206049 1.880790849211783e-38 1768976227
-9.342141 36.691315 2.504357 1.880790849211783e-38 1768976227
-9.486213 37.257156 2.299351 1.880790849211783e-38 1768976227
-9.682496 38.028061 16.348646 1.880790849211783e-38 1768976227
-9.524549 37.407722 15.766327 1.880790849211783e-38 1768976227
-10.126436 39.771637 8.239101 1.880790849211783e-38 1768976227
-9.732876 38.225929 7.507664 1.880790849211783e-38 1768976227
-9.750754 38.296143 15.761101 1.880790849211783e-38 1768976227
-10.067258 39.539215 15.822324 1.880790849211783e-38 1768976227
-9.817549 38.558479 15.006927 1.880790849211783e-38 1768976227
-10.031239 39.397751 14.810010 1.880790849211783e-38 1768976227
-10.584160 41.569351 18.870691 1.880790849211783e-38 1768976227
-10.990271 43.164356 18.966511 1.880790849211783e-38 1768976227
-10.996487 43.188766 13.128542 1.880790849211783e-38 1768976227
-11.052979 43.410637 12.857181 1.880790849211783e-38 1768976227
-10.175539 39.964493 14.542543 1.880790849211783e-38 1768976227
-10.501179 41.243443 14.738243 1.880790849211783e-38 1768976227
-11.356613 44.603165 12.758769 1.880790849211783e-38 1768976227
-11.111143 43.639080 12.077967 1.880790849211783e-38 1768976227
-10.987898 43.155033 15.029919 1.880790849211783e-38 1768976227
-10.337177 40.599327 13.737318 1.880790849211783e-38 1768976227
-12.455367 48.918526 13.023220 1.880790849211783e-38 1768976227
-12.650926 49.686588 12.619813 1.880790849211783e-38 1768976227
-10.556131 41.459267 13.564790 1.880790849211783e-38 1768976227
-10.947913 42.997993 13.560323 1.880790849211783e-38 1768976227
-10.007642 39.305069 7.396266 1.880790849211783e-38 1768976227
-9.883752 38.818493 6.944419 1.880790849211783e-38 1768976227
-12.827777 50.381172 12.222355 1.880790849211783e-38 1768976227
-12.928518 50.776833 11.997020 1.880790849211783e-38 1768976227
-9.717891 38.167076 6.505850 1.880790849211783e-38 1768976227
-9.670198 37.979763 6.129434 1.880790849211783e-38 1768976227
-13.945398 54.770638 12.397635 1.880790849211783e-38 1768976227
-13.946143 54.773560 11.982361 1.880790849211783e-38 1768976227
-9.183012 36.526699 4.700823 1.880790849211783e-38 1768976227
-9.170340 36.476295 4.502128 1.880790849211783e-38 1768976227
-9.266481 36.858715 4.324028 1.880790849211783e-38 1768976227
-9.157602 36.425632 4.012181 1.880790849211783e-38 1768976227
-9.476280 37.693214 5.828164 1.880790849211783e-38 1768976227
-9.263896 36.848431 5.449005 1.880790849211783e-38 1768976227
-9.463459 37.642220 3.971635 1.880790849211783e-38 1768976227
-9.421380 37.474846 3.701213 1.880790849211783e-38 1768976227
-9.259329 36.830265 5.236720 1.880790849211783e-38 1768976227
-9.236457 36.739288 5.006958 1.880790849211783e-38 1768976227
-11.217771 44.620235 2.224994 1.880790849211783e-38 1768976227
-9.330669 37.114029 3.383957 1.880790849211783e-38 1768976227
-9.216400 36.659508 3.172523 1.880790849211783e-38 1768976227
-11.579477 46.058979 1.976369 1.880790849211783e-38 1768976227
-11.432760 45.475388 1.730869 1.880790849211783e-38 1768976227
-9.374268 37.287445 2.983226 1.880790849211783e-38 1768976227
-9.436686 37.535725 2.757828 1.880790849211783e-38 1768976227
-11.844959 47.114964 1.465560 1.880790849211783e-38 1768976227
-11.724789 46.636971 1.214772 1.880790849211783e-38 1768976227
-9.220066 36.674088 2.501271 1.880790849211783e-38 1768976227
-9.390166 37.350685 16.045185 1.880790849211783e-38 1768976227
-9.585255 38.126675 16.057089 1.880790849211783e-38 1768976227
-9.954751 39.596401 8.196542 1.880790849211783e-38 1768976227
-9.664032 38.440029 7.543955 1.880790849211783e-38 1768976227
-9.641109 38.348850 15.770755 1.880790849211783e-38 1768976227
-9.970295 39.658226 15.857842 1.880790849211783e-38 1768976227
-9.768517 38.855629 15.111041 1.880790849211783e-38 1768976227
-9.979763 39.695889 14.910702 1.880790849211783e-38 1768976227
-10.528809 41.879795 18.997118 1.880790849211783e-38 1768976227
-10.735834 42.703270 18.749598 1.880790849211783e-38 1768976227
-10.856605 43.183647 13.116973 1.880790849211783e-38 1768976227
-11.034722 43.892139 12.989874 1.880790849211783e-38 1768976227
-10.079021 40.090702 14.577342 1.880790849211783e-38 1768976227
-10.490259 41.726460 14.899474 1.880790849211783e-38 1768976227
-11.250618 44.750893 12.791263 1.880790849211783e-38 1768976227
-10.917261 43.424919 12.009526 1.880790849211783e-38 1768976227
-10.833399 43.091343 14.996289 1.880790849211783e-38 1768976227
-10.667406 42.431087 14.346168 1.880790849211783e-38 1768976227
-12.347801 49.115089 13.065576 1.880790849211783e-38 1768976227
-12.615697 50.180683 12.735585 1.880790849211783e-38 1768976227
-10.510815 41.808220 13.668528 1.880790849211783e-38 1768976227
-10.791161 42.923332 13.526452 1.880790849211783e-38 1768976227
-9.926856 39.485443 7.424540 1.880790849211783e-38 1768976227
-9.799024 38.976974 6.967452 1.880790849211783e-38 1768976227
-12.819624 50.991829 12.361063 1.880790849211783e-38 1768976227
-12.752553 50.725048 11.975642 1.880790849211783e-38 1768976227
-9.630306 38.305878 6.524529 1.880790849211783e-38 1768976227
-9.530546 37.909069 6.113358 1.880790849211783e-38 1768976227
-13.513421 53.751503 12.157669 1.880790849211783e-38 1768976227
-13.957433 55.517624 12.135870 1.880790849211783e-38 1768976227
-9.102939 36.675632 4.716435 1.880790849211783e-38 1768976227
-9.056138 36.487076 4.500067 1.880790849211783e-38 1768976227
-8.998467 36.254723 4.249969 1.880790849211783e-38 1768976227
-9.294167 37.446091 4.121476 1.880790849211783e-38 1768976227
-9.269995 37.348701 5.770546 1.880790849211783e-38 1768976227
-9.226207 37.172279 5.492754 1.880790849211783e-38 1768976227
-9.454727 38.092987 4.016169 1.880790849211783e-38 1768976227
-9.093538 36.637764 3.615814 1.880790849211783e-38 1768976227
-11.693716 47.113850 6.693849 1.880790849211783e-38 1768976227
-11.761949 47.388760 6.453441 1.880790849211783e-38 1768976227
-10.967584 44.188274 2.201795 1.880790849211783e-38 1768976227
-9.174918 36.965641 3.367890 1.880790849211783e-38 1768976227
-9.191545 37.032627 3.202399 1.880790849211783e-38 1768976227
-11.343586 45.703178 1.959625 1.880790849211783e-38 1768976227
-11.184707 45.063049 1.713883 1.880790849211783e-38 1768976227
-9.095829 36.646992 2.929778 1.880790849211783e-38 1768976227
-9.176113 36.970455 2.714251 1.880790849211783e-38 1768976227
-11.425733 46.034149 1.430862 1.880790849211783e-38 1768976227
-11.548196 46.527554 1.211010 1.880790849211783e-38 1768976227
-9.090193 36.624287 2.495994 1.880790849211783e-38 1768976227
-10.710184 43.151211 2.659071 1.880790849211783e-38 1768976227
-9.283552 37.403324 16.055698 1.880790849211783e-38 1768976227
-9.424487 37.971149 15.979545 1.880790849211783e-38 1768976227
-9.804294 39.501389 8.170716 1.880790849211783e-38 1768976227
-9.429796 37.992546 7.450520 1.880790849211783e-38 1768976227
-9.524779 38.375229 15.769716 1.880790849211783e-38 1768976227
-9.690941 39.044689 15.600754 1.880790849211783e-38 1768976227
-9.652628 38.890327 15.113146 1.880790849211783e-38 1768976227
-9.981619 40.215828 15.094625 1.880790849211783e-38 1768976227
-10.328855 41.614838 18.862715 1.880790849211783e-38 1768976227
-10.579462 42.624531 18.700932 1.880790849211783e-38 1768976227
-10.821986 43.601662 13.233969 1.880790849211783e-38 1768976227
-10.982829 44.249695 13.085830 1.880790849211783e-38 1768976227
-10.071120 40.576427 14.742845 1.880790849211783e-38 1768976227
-10.345668 41.682575 14.872596 1.880790849211783e-38 1768976227
-11.058049 44.552753 12.725037 1.880790849211783e-38 1768976227
-10.866874 43.782509 12.099301 1.880790849211783e-38 1768976227
-10.438313 42.055847 14.624903 1.880790849211783e-38 1768976227
-10.329248 41.616428 14.060130 1.880790849211783e-38 1768976227
-12.398199 49.952202 13.278256 1.880790849211783e-38 1768976227
-12.313517 49.611012 12.581524 1.880790849211783e-38 1768976227
-10.352867 41.711582 13.626663 1.880790849211783e-38 1768976227
-10.723733 43.205799 13.605210 1.880790849211783e-38 1768976227
-9.744349 39.259869 7.376565 1.880790849211783e-38 1768976227
-9.774042 39.379505 7.034106 1.880790849211783e-38 1768976227
-12.660524 51.009109 12.355939 1.880790849211783e-38 1768976227
-12.969389 52.253525 12.327209 1.880790849211783e-38 1768976227
-9.624246 38.775978 6.599626 1.880790849211783e-38 1768976227
-9.498094 38.267712 6.166546 1.880790849211783e-38 1768976227
-13.529033 54.508320 12.319563 1.880790849211783e-38 1768976227
-13.730386 55.319572 12.083468 1.880790849211783e-38 1768976227
-9.058372 36.972668 4.751099 1.880790849211783e-38 1768976227
-8.872793 36.215210 4.463216 1.880790849211783e-38 1768976227
-9.187537 37.499870 4.392663 1.880790849211783e-38 1768976227
-9.145741 37.329277 4.105564 1.880790849211783e-38 1768976227
-9.350273 38.164093 5.892143 1.880790849211783e-38 1768976227
-9.195845 37.533779 3.954269 1.880790849211783e-38 1768976227
-9.027380 36.846172 3.633678 1.880790849211783e-38 1768976227
-11.632676 47.479958 6.740849 1.880790849211783e-38 1768976227
-11.532016 47.069099 6.405144 1.880790849211783e-38 1768976227
-10.795060 44.061138 2.193828 1.880790849211783e-38 1768976227
-9.092492 37.111935 3.378704 1.880790849211783e-38 1768976227
-9.067148 37.008492 3.197932 1.880790849211783e-38 1768976227
-11.415740 46.594509 1.996357 1.880790849211783e-38 1768976227
-11.475882 46.839985 1.780141 1.880790849211783e-38 1768976227
-9.043767 36.913055 2.948854 1.880790849211783e-38 1768976227
-9.063362 36.993038 2.713890 1.880790849211783e-38 1768976227
-11.280719 46.043404 1.430086 1.880790849211783e-38 1768976227
-11.319666 46.202374 1.201652 1.880790849211783e-38 1768976227
-10.852310 44.294811 3.016506 1.880790849211783e-38 1768976227
-11.288976 46.077106 2.837260 1.880790849211783e-38 1768976227
-11.360456 46.368862 0.825387 1.880790849211783e-38 1768976227
-9.137827 37.296974 15.998142 1.880790849211783e-38 1768976227
-9.267628 37.826771 15.906950 1.880790849211783e-38 1768976227
-9.631249 39.310925 8.125275 1.880790849211783e-38 1768976227
-9.327068 38.069382 7.460038 1.880790849211783e-38 1768976227
-9.525551 38.879505 15.965063 1.880790849211783e-38 1768976227
-9.700580 39.593903 15.808436 1.880790849211783e-38 1768976227
-9.491299 38.739704 15.043420 1.880790849211783e-38 1768976227
-9.766105 39.861351 14.950453 1.880790849211783e-38 1768976227
-10.100259 41.225235 18.672228 1.880790849211783e-38 1768976227
-10.480316 42.776478 18.753643 1.880790849211783e-38 1768976227
-10.642833 43.439808 13.175041 1.880790849211783e-38 1768976227
-10.755739 43.900646 12.972955 1.880790849211783e-38 1768976227
-9.895702 40.390320 14.664314 1.880790849211783e-38 1768976227
-10.285744 41.982307 14.968405 1.880790849211783e-38 1768976227
-10.926056 44.595806 12.727865 1.880790849211783e-38 1768976227
-10.714062 43.730534 12.075954 1.880790849211783e-38 1768976227
-10.442720 42.623032 14.811120 1.880790849211783e-38 1768976227
-10.392264 42.417088 14.319979 1.880790849211783e-38 1768976227
-12.375988 50.513855 13.417571 1.880790849211783e-38 1768976227
-12.120633 49.471600 12.536840 1.880790849211783e-38 1768976227
-10.324379 42.140003 13.756389 1.880790849211783e-38 1768976227
-10.621917 43.354439 13.641867 1.880790849211783e-38 1768976227
-9.761959 39.844429 7.480832 1.880790849211783e-38 1768976227
-9.488890 38.729870 6.912922 1.880790849211783e-38 1768976227
-12.841620 52.414383 12.686900 1.880790849211783e-38 1768976227
-12.899886 52.652203 12.412026 1.880790849211783e-38 1768976227
-9.547304 38.968292 6.627427 1.880790849211783e-38 1768976227
-9.312757 38.010963 6.120620 1.880790849211783e-38 1768976227
-13.321312 54.372292 12.279683 1.880790849211783e-38 1768976227
-13.314568 54.344765 11.861718 1.880790849211783e-38 1768976227
-9.477952 39.196323 5.033148 1.880790849211783e-38 1768976227
-9.426286 38.982658 4.800754 1.880790849211783e-38 1768976227
-9.315712 38.525379 4.509477 1.880790849211783e-38 1768976227
-9.042101 37.393848 4.109648 1.880790849211783e-38 1768976227
-11.582240 47.898666 7.389635 1.880790849211783e-38 1768976227
-9.118137 37.708305 3.969740 1.880790849211783e-38 1768976227
-9.059364 37.465244 3.692018 1.880790849211783e-38 1768976227
-10.563475 43.685535 2.173530 1.880790849211783e-38 1768976227
-8.914066 36.864361 3.353702 1.880790849211783e-38 1768976227
-8.923821 36.904701 3.186624 1.880790849211783e-38 1768976227
-11.292285 46.699547 1.999389 1.880790849211783e-38 1768976227
-11.271217 46.612419 1.770192 1.880790849211783e-38 1768976227
-8.851798 36.606850 2.922246 1.880790849211783e-38 1768976227
-8.895057 36.785744 2.696702 1.880790849211783e-38 1768976227
-11.407974 47.177982 1.464250 1.880790849211783e-38 1768976227
-11.105307 45.926292 1.193595 1.880790849211783e-38 1768976227
-10.267720 42.462433 2.889598 1.880790849211783e-38 1768976227
-11.059354 45.736256 2.814206 1.880790849211783e-38 1768976227
-11.119098 45.983330 0.817924 1.880790849211783e-38 1768976227
-11.157160 46.140732 0.578132 1.880790849211783e-38 1768976227
-11.305090 46.752502 0.290826 1.880790849211783e-38 1768976227
-9.011888 37.268902 15.974371 1.880790849211783e-38 1768976227
-9.212318 38.097794 16.009163 1.880790849211783e-38 1768976227
-9.553678 39.509487 8.160323 1.880790849211783e-38 1768976227
-9.276663 38.363888 7.512232 1.880790849211783e-38 1768976227
-9.425273 38.978470 15.993955 1.880790849211783e-38 1768976227
-9.515228 39.350483 15.699718 1.880790849211783e-38 1768976227
-9.350069 38.667461 15.004347 1.880790849211783e-38 1768976227
-9.606324 39.727211 14.889208 1.880790849211783e-38 1768976227
-10.026334 41.464172 18.766668 1.880790849211783e-38 1768976227
-10.334409 42.738224 18.723122 1.880790849211783e-38 1768976227
-10.445724 43.198566 13.092259 1.880790849211783e-38 1768976227
-10.639540 44.000103 12.992803 1.880790849211783e-38 1768976227
-9.781527 40.451767 14.675845 1.880790849211783e-38 1768976227
-10.123087 41.864292 14.915375 1.880790849211783e-38 1768976227
-10.763977 44.514721 12.695397 1.880790849211783e-38 1768976227
-10.692467 44.218987 12.201876 1.880790849211783e-38 1768976227
-10.072150 41.653645 14.463646 1.880790849211783e-38 1768976227
-10.210539 42.225960 14.244993 1.880790849211783e-38 1768976227
-12.284172 50.801521 13.484079 1.880790849211783e-38 1768976227
-12.168180 50.321835 12.742945 1.880790849211783e-38 1768976227
-10.136071 41.917995 13.673873 1.880790849211783e-38 1768976227
-10.506608 43.450363 13.662017 1.880790849211783e-38 1768976227
-10.864571 44.930725 8.429599 1.880790849211783e-38 1768976227
-10.844957 44.849613 7.999366 1.880790849211783e-38 1768976227
-12.658710 52.350437 12.662122 1.880790849211783e-38 1768976227
-12.738507 52.680439 12.409570 1.880790849211783e-38 1768976227
-10.888949 45.031544 7.652997 1.880790849211783e-38 1768976227
-10.919061 45.156063 7.265806 1.880790849211783e-38 1768976227
-13.160628 54.426136 12.282823 1.880790849211783e-38 1768976227
-13.030048 53.886116 11.752978 1.880790849211783e-38 1768976227
-9.277261 38.879276 4.988821 1.880790849211783e-38 1768976227
-9.201637 38.562347 4.745553 1.880790849211783e-38 1768976227
-9.055274 37.948971 4.438791 1.880790849211783e-38 1768976227
-8.946283 37.492210 4.117474 1.880790849211783e-38 1768976227
-11.492365 48.162365 7.424936 1.880790849211783e-38 1768976227
-8.816569 36.948601 3.886946 1.880790849211783e-38 1768976227
-8.894703 37.276043 3.670713 1.880790849211783e-38 1768976227
-9.320493 39.060448 5.307582 1.880790849211783e-38 1768976227
-10.411967 43.634617 2.169424 1.880790849211783e-38 1768976227
-8.716447 36.529007 3.320787 1.880790849211783e-38 1768976227
-8.746594 36.655350 3.162800 1.880790849211783e-38 1768976227
-11.149446 46.725254 1.999041 1.880790849211783e-38 1768976227
-11.148156 46.719849 1.772987 1.880790849211783e-38 1768976227
-8.689959 36.417999 2.905066 1.880790849211783e-38 1768976227
-10.265621 43.021309 3.151537 1.880790849211783e-38 1768976227
-11.180863 46.856918 1.453232 1.880790849211783e-38 1768976227
-11.160735 46.772564 1.214709 1.880790849211783e-38 1768976227
-10.951692 45.896503 3.121027 1.880790849211783e-38 1768976227
-10.981417 46.021072 2.829680 1.880790849211783e-38 1768976227
-11.000219 46.099869 0.819403 1.880790849211783e-38 1768976227
-10.959180 45.927883 0.575048 1.880790849211783e-38 1768976227
-10.997597 46.088879 0.286490 1.880790849211783e-38 1768976227
-11.007062 46.128551 0.034689 1.880790849211783e-38 1768976227
-9.087868 38.085564 16.312590 1.880790849211783e-38 1768976227
-9.062885 37.980869 15.948472 1.880790849211783e-38 1768976227
-9.482663 39.740078 8.202004 1.880790849211783e-38 1768976227
-9.170732 38.432835 7.520282 1.880790849211783e-38 1768976227
-9.130312 38.263439 15.689187 1.880790849211783e-38 1768976227
-9.466127 39.670776 15.816043 1.880790849211783e-38 1768976227
-9.325180 39.080090 15.153481 1.880790849211783e-38 1768976227
-9.606074 40.257271 15.076941 1.880790849211783e-38 1768976227
-9.810716 41.114883 18.595104 1.880790849211783e-38 1768976227
-10.147041 42.524361 18.615938 1.880790849211783e-38 1768976227
-10.282025 43.090057 13.049915 1.880790849211783e-38 1768976227
-10.607561 44.454315 13.117420 1.880790849211783e-38 1768976227
-9.528392 39.931717 14.476681 1.880790849211783e-38 1768976227
-9.954949 41.719337 14.852965 1.880790849211783e-38 1768976227
-10.469184 43.874397 12.503719 1.880790849211783e-38 1768976227
-10.637364 44.579216 12.292371 1.880790849211783e-38 1768976227
-10.079968 42.243271 14.657763 1.880790849211783e-38 1768976227
-10.097894 42.318394 14.265838 1.880790849211783e-38 1768976227
-12.104420 50.727371 13.454646 1.880790849211783e-38 1768976227
-12.048746 50.494057 12.777295 1.880790849211783e-38 1768976227
-9.557545 40.053890 13.056329 1.880790849211783e-38 1768976227
-10.243657 42.929260 13.488393 1.880790849211783e-38 1768976227
-10.498431 43.996971 8.248437 1.880790849211783e-38 1768976227
-10.765372 45.115669 8.040992 1.880790849211783e-38 1768976227
-12.542033 52.561325 12.703923 1.880790849211783e-38 1768976227
-10.553452 44.227551 10.410836 1.880790849211783e-38 1768976227
-10.846455 45.455475 7.719449 1.880790849211783e-38 1768976227
-10.793554 45.233776 7.273039 1.880790849211783e-38 1768976227
-12.843987 53.826763 12.138760 1.880790849211783e-38 1768976227
-12.821121 53.730938 11.710645 1.880790849211783e-38 1768976227
-9.209723 39.118454 5.015924 1.880790849211783e-38 1768976227
-9.093282 38.623867 4.749727 1.880790849211783e-38 1768976227
-10.704098 45.465836 -0.271369 1.880790849211783e-38 1768976227
-11.045176 46.914562 -0.555880 1.880790849211783e-38 1768976227
-9.023753 38.328541 4.479984 1.880790849211783e-38 1768976227
-8.883413 37.732445 4.140895 1.880790849211783e-38 1768976227
-11.270348 47.870987 7.374742 1.880790849211783e-38 1768976227
-9.087188 38.597977 4.057556 1.880790849211783e-38 1768976227
-8.806246 37.404678 3.680748 1.880790849211783e-38 1768976227
-9.196828 39.063679 5.533927 1.880790849211783e-38 1768976227
-9.196686 39.063076 5.304146 1.880790849211783e-38 1768976227
-10.839785 46.042164 2.287487 1.880790849211783e-38 1768976227
-8.708686 36.990288 3.360318 1.880790849211783e-38 1768976227
-8.609444 36.568752 3.153074 1.880790849211783e-38 1768976227
-11.032473 46.860611 2.003399 1.880790849211783e-38 1768976227
-10.967430 46.584339 1.766581 1.880790849211783e-38 1768976227
-8.775736 37.275082 2.971310 1.880790849211783e-38 1768976227
-9.959752 42.304211 3.096791 1.880790849211783e-38 1768976227
-11.082462 47.072941 1.458888 1.880790849211783e-38 1768976227
-10.797952 45.864479 3.116620 1.880790849211783e-38 1768976227
-11.304183 48.014706 2.950152 1.880790849211783e-38 1768976227
-10.871620 46.177387 0.286835 1.880790849211783e-38 1768976227
-10.896955 46.285000 0.034782 1.880790849211783e-38 1768976227
-8.897467 37.792137 16.175343 1.880790849211783e-38 1768976227
-8.962976 38.070389 15.974640 1.880790849211783e-38 1768976227
-9.236917 39.233955 8.091759 1.880790849211783e-38 1768976227
-9.222175 39.171337 7.659311 1.880790849211783e-38 1768976227
-8.995953 38.210457 15.656268 1.880790849211783e-38 1768976227
-9.268038 39.366142 15.683376 1.880790849211783e-38 1768976227
-9.249592 39.287792 15.223130 1.880790849211783e-38 1768976227
-9.389174 39.880672 14.925224 1.880790849211783e-38 1768976227
-9.725379 41.308708 18.669415 1.880790849211783e-38 1768976227
-10.086515 42.842640 18.741871 1.880790849211783e-38 1768976227
-10.287985 43.698383 13.224691 1.880790849211783e-38 1768976227
-10.388081 44.123547 13.010514 1.880790849211783e-38 1768976227
-9.520291 40.437595 14.649604 1.880790849211783e-38 1768976227
-9.910521 42.095097 14.976033 1.880790849211783e-38 1768976227
-10.160432 43.156601 12.290366 1.880790849211783e-38 1768976227
-10.475356 44.494251 12.260174 1.880790849211783e-38 1768976227
-9.844465 41.814526 14.498627 1.880790849211783e-38 1768976227
-9.817278 41.699047 14.047007 1.880790849211783e-38 1768976227
-11.544057 49.033569 12.996099 1.880790849211783e-38 1768976227
-12.613948 53.577950 13.547973 1.880790849211783e-38 1768976227
-9.559303 40.603298 13.225961 1.880790849211783e-38 1768976227
-10.204847 43.345261 13.609367 1.880790849211783e-38 1768976227
-10.515744 44.665794 8.367843 1.880790849211783e-38 1768976227
-10.629134 45.147419 8.040901 1.880790849211783e-38 1768976227
-12.364024 52.516399 12.683994 1.880790849211783e-38 1768976227
-10.421577 44.265823 10.412398 1.880790849211783e-38 1768976227
-10.655420 45.259071 7.271905 1.880790849211783e-38 1768976227
-10.722703 45.544853 10.263722 1.880790849211783e-38 1768976227
-12.692879 53.913208 11.741975 1.880790849211783e-38 1768976227
-8.938546 38.486534 4.931418 1.880790849211783e-38 1768976227
-8.860890 38.152168 4.688414 1.880790849211783e-38 1768976227
-10.726340 46.184200 -0.275463 1.880790849211783e-38 1768976227
-10.675326 45.964554 -0.544240 1.880790849211783e-38 1768976227
-8.867352 38.179993 4.459476 1.880790849211783e-38 1768976227
-8.799926 37.889675 4.155220 1.880790849211783e-38 1768976227
-11.162902 48.063896 7.399241 1.880790849211783e-38 1768976227
-8.901962 38.329010 4.026441 1.880790849211783e-38 1768976227
-8.882754 38.246311 3.760915 1.880790849211783e-38 1768976227
-9.092916 39.151196 5.542416 1.880790849211783e-38 1768976227
-9.017404 38.826065 5.268248 1.880790849211783e-38 1768976227
-11.189429 48.178112 2.634571 1.880790849211783e-38 1768976227
-10.652115 45.864609 2.277060 1.880790849211783e-38 1768976227
-10.907724 46.965187 2.006455 1.880790849211783e-38 1768976227
-10.923662 47.033806 1.782369 1.880790849211783e-38 1768976227
-10.060642 43.317921 3.450569 1.880790849211783e-38 1768976227
-9.808698 42.233124 3.089408 1.880790849211783e-38 1768976227
-10.924464 47.037266 1.456755 1.880790849211783e-38 1768976227
-10.558236 45.460400 3.086984 1.880790849211783e-38 1768976227
-10.644569 45.832127 -0.840834 1.880790849211783e-38 1768976227
-10.716329 46.141094 0.034649 1.880790849211783e-38 1768976227
-8.717922 37.536594 16.054644 1.880790849211783e-38 1768976227
-8.833143 38.032700 15.947576 1.880790849211783e-38 1768976227
-9.328187 40.164196 8.277777 1.880790849211783e-38 1768976227
-8.959661 38.577450 7.537868 1.880790849211783e-38 1768976227
-8.983936 38.681969 15.838290 1.880790849211783e-38 1768976227
-8.859888 38.147854 15.187299 1.880790849211783e-38 1768976227
-9.112055 39.233604 15.191419 1.880790849211783e-38 1768976227
-9.194218 39.587372 14.805015 1.880790849211783e-38 1768976227
-9.772582 42.077625 19.003521 1.880790849211783e-38 1768976227
-9.882985 42.552982 18.602036 1.880790849211783e-38 1768976227
-10.253303 44.147453 13.351178 1.880790849211783e-38 1768976227
-10.272749 44.231182 13.033059 1.880790849211783e-38 1768976227
-9.295640 40.024067 14.489571 1.880790849211783e-38 1768976227
-9.728613 41.888302 14.891958 1.880790849211783e-38 1768976227
-9.843946 42.384892 12.062086 1.880790849211783e-38 1768976227
-10.408142 44.814144 12.339615 1.880790849211783e-38 1768976227
-9.784798 42.130219 14.597791 1.880790849211783e-38 1768976227
-9.957157 42.872349 14.432070 1.880790849211783e-38 1768976227
-11.392888 49.054146 12.992387 1.880790849211783e-38 1768976227
-12.070595 51.972134 13.132655 1.880790849211783e-38 1768976227
-9.429049 40.598480 13.215069 1.880790849211783e-38 1768976227
-9.785647 42.133877 13.219697 1.880790849211783e-38 1768976227
-10.364598 44.626659 8.354616 1.880790849211783e-38 1768976227
-10.559839 45.467304 8.092165 1.880790849211783e-38 1768976227
-9.947263 42.829746 10.337138 1.880790849211783e-38 1768976227
-10.375483 44.673527 10.500893 1.880790849211783e-38 1768976227
-10.744594 46.262794 7.845404 1.880790849211783e-38 1768976227
-10.425957 44.890846 7.207657 1.880790849211783e-38 1768976227
-10.582951 45.566811 10.261432 1.880790849211783e-38 1768976227
-12.905805 55.568283 12.093907 1.880790849211783e-38 1768976227
-8.868961 38.716438 4.957427 1.880790849211783e-38 1768976227
-8.893219 38.822334 4.767451 1.880790849211783e-38 1768976227
-10.570999 46.146492 -0.275046 1.880790849211783e-38 1768976227
-10.557311 46.086735 -0.545307 1.880790849211783e-38 1768976227
-8.634143 37.691364 4.399342 1.880790849211783e-38 1768976227
-8.660295 37.805531 4.143108 1.880790849211783e-38 1768976227
-11.105731 48.480801 7.458232 1.880790849211783e-38 1768976227
-9.051262 39.512253 5.813364 1.880790849211783e-38 1768976227
-8.648170 37.752605 3.963132 1.880790849211783e-38 1768976227
-8.514382 37.168568 3.652394 1.880790849211783e-38 1768976227
-8.999269 39.285282 5.557530 1.880790849211783e-38 1768976227
-8.802364 38.425720 5.210299 1.880790849211783e-38 1768976227
-10.993847 47.992386 2.622589 1.880790849211783e-38 1768976227
-10.345226 45.160908 2.240563 1.880790849211783e-38 1768976227
-8.652506 37.771530 3.426485 1.880790849211783e-38 1768976227
-10.100182 44.091198 3.796361 1.880790849211783e-38 1768976227
-10.687462 46.654896 1.991813 1.880790849211783e-38 1768976227
-10.790698 47.105560 1.783847 1.880790849211783e-38 1768976227
-9.815209 42.847179 3.410698 1.880790849211783e-38 1768976227
-9.627084 42.025936 3.072114 1.880790849211783e-38 1768976227
-10.910954 47.630524 1.474103 1.880790849211783e-38 1768976227
-10.397708 45.390007 3.080061 1.880790849211783e-38 1768976227
-10.604818 46.294128 -0.848719 1.880790849211783e-38 1768976227
-10.597079 46.260342 -1.110034 1.880790849211783e-38 1768976227
-10.534239 45.986019 -1.392764 1.880790849211783e-38 1768976227
-9.795920 42.762970 18.277281 1.880790849211783e-38 1768976227
-9.926869 43.334621 18.158098 1.880790849211783e-38 1768976227
-9.264463 40.442963 8.329432 1.880790849211783e-38 1768976227
-9.907292 43.249153 8.444823 1.880790849211783e-38 1768976227
-10.003623 43.669678 17.868069 1.880790849211783e-38 1768976227
-8.690282 37.936436 15.092628 1.880790849211783e-38 1768976227
-10.240454 44.703529 20.672279 1.880790849211783e-38 1768976227
-9.063333 39.564941 15.309059 1.880790849211783e-38 1768976227
-9.100537 39.727360 14.847034 1.880790849211783e-38 1768976227
-9.623360 42.009682 18.959641 1.880790849211783e-38 1768976227
-9.842012 42.964184 18.768730 1.880790849211783e-38 1768976227
-10.123953 44.194962 13.356252 1.880790849211783e-38 1768976227
-10.240467 44.703590 13.163097 1.880790849211783e-38 1768976227
-9.141996 39.908340 14.437629 1.880790849211783e-38 1768976227
-9.580976 41.824661 14.858992 1.880790849211783e-38 1768976227
-9.836369 42.939545 12.211433 1.880790849211783e-38 1768976227
-10.327414 45.083149 12.405052 1.880790849211783e-38 1768976227
-9.721813 42.439472 14.694717 1.880790849211783e-38 1768976227
-9.638482 42.075695 14.154045 1.880790849211783e-38 1768976227
-11.417063 49.839886 13.191317 1.880790849211783e-38 1768976227
-11.729813 51.205162 12.929853 1.880790849211783e-38 1768976227
-9.455941 41.278831 13.427184 1.880790849211783e-38 1768976227
-9.626865 42.024986 13.176363 1.880790849211783e-38 1768976227
-10.293507 44.935131 8.406516 1.880790849211783e-38 1768976227
-10.382905 45.325386 8.061296 1.880790849211783e-38 1768976227
-10.025795 43.766464 10.555874 1.880790849211783e-38 1768976227
-10.341859 45.146202 10.604620 1.880790849211783e-38 1768976227
-10.581057 46.190392 7.827678 1.880790849211783e-38 1768976227
-10.286578 44.904888 7.204897 1.880790849211783e-38 1768976227
-10.444331 45.593536 10.260310 1.880790849211783e-38 1768976227
-12.620206 55.092072 11.981926 1.880790849211783e-38 1768976227
-8.564365 37.911739 4.851060 1.880790849211783e-38 1768976227
-8.526941 37.746075 4.632105 1.880790849211783e-38 1768976227
-8.545458 37.828041 4.412267 1.880790849211783e-38 1768976227
-8.550994 37.852547 4.145416 1.880790849211783e-38 1768976227
-8.884418 39.328503 6.046103 1.880790849211783e-38 1768976227
-8.896729 39.383011 5.790374 1.880790849211783e-38 1768976227
-8.487742 37.572552 3.941526 1.880790849211783e-38 1768976227
-8.387905 37.130600 3.646161 1.880790849211783e-38 1768976227
-8.889724 39.351997 5.563150 1.880790849211783e-38 1768976227
-8.731443 38.651340 5.237298 1.880790849211783e-38 1768976227
-10.305624 45.619743 2.261775 1.880790849211783e-38 1768976227
-8.386889 37.126106 3.365625 1.880790849211783e-38 1768976227
-9.834182 43.532814 3.745712 1.880790849211783e-38 1768976227
-10.639981 47.099838 2.009429 1.880790849211783e-38 1768976227
-10.668525 47.226185 1.787188 1.880790849211783e-38 1768976227
-9.686116 42.877373 3.410761 1.880790849211783e-38 1768976227
-10.416950 46.112545 3.368535 1.880790849211783e-38 1768976227
-10.765052 47.653481 1.473801 1.880790849211783e-38 1768976227
-10.454110 46.277042 3.138099 1.880790849211783e-38 1768976227
-10.389922 45.992897 -0.842618 1.880790849211783e-38 1768976227
-10.360861 45.864254 -1.099775 1.880790849211783e-38 1768976227
-10.347647 45.805763 -1.386353 1.880790849211783e-38 1768976227
-10.647110 47.131393 -1.663526 1.880790849211783e-38 1768976227
-9.830036 43.514458 18.585716 1.880790849211783e-38 1768976227
-9.778034 43.284267 18.124561 1.880790849211783e-38 1768976227
-9.098147 40.274620 8.289073 1.880790849211783e-38 1768976227
-11.932033 52.819332 10.306421 1.880790849211783e-38 1768976227
-8.482274 37.548344 15.352901 1.880790849211783e-38 1768976227
-8.730162 38.645668 15.364243 1.880790849211783e-38 1768976227
-9.950580 44.048073 20.355206 1.880790849211783e-38 1768976227
-8.760142 38.778381 14.994420 1.880790849211783e-38 1768976227
-8.934457 39.550018 14.770620 1.880790849211783e-38 1768976227
-9.508111 42.089405 18.982592 1.880790849211783e-38 1768976227
-9.839874 43.558014 19.015091 1.880790849211783e-38 1768976227
-10.015452 44.335239 13.389454 1.880790849211783e-38 1768976227
-10.043779 44.460636 13.082580 1.880790849211783e-38 1768976227
-9.106119 40.309906 14.572902 1.880790849211783e-38 1768976227
-9.410934 41.659229 14.790069 1.880790849211783e-38 1768976227
-9.721582 43.034374 12.230007 1.880790849211783e-38 1768976227
-10.155124 44.953518 12.360901 1.880790849211783e-38 1768976227
-9.577012 42.394405 14.669045 1.880790849211783e-38 1768976227
-9.559024 42.314777 14.224707 1.880790849211783e-38 1768976227
-11.591457 51.311714 13.571556 1.880790849211783e-38 1768976227
-11.651272 51.576500 13.014688 1.880790849211783e-38 1768976227
-9.364176 41.452244 13.474344 1.880790849211783e-38 1768976227
-9.620468 42.586769 13.343344 1.880790849211783e-38 1768976227
-10.071280 44.582375 8.334802 1.880790849211783e-38 1768976227
-10.135830 44.868114 7.974496 1.880790849211783e-38 1768976227
-9.828470 43.507526 10.486225 1.880790849211783e-38 1768976227
-10.020926 44.359470 10.412674 1.880790849211783e-38 1768976227
-10.381965 45.957672 7.782898 1.880790849211783e-38 1768976227
-10.240107 45.329716 7.268072 1.880790849211783e-38 1768976227
-10.457816 46.293446 10.410671 1.880790849211783e-38 1768976227
-12.482127 55.254429 12.008995 1.880790849211783e-38 1768976227
-8.517775 38.241749 4.889977 1.880790849211783e-38 1768976227
-8.452877 37.950382 4.654027 1.880790849211783e-38 1768976227
-8.350536 37.490910 4.369986 1.880790849211783e-38 1768976227
-8.445501 37.917267 4.149695 1.880790849211783e-38 1768976227
-8.739910 39.239056 6.028272 1.880790849211783e-38 1768976227
-8.706189 39.087662 5.743063 1.880790849211783e-38 1768976227
-8.329017 37.394291 3.920172 1.880790849211783e-38 1768976227
-8.351305 37.494354 3.679390 1.880790849211783e-38 1768976227
-8.537692 38.331173 5.415172 1.880790849211783e-38 1768976227
-8.627571 38.734695 5.245043 1.880790849211783e-38 1768976227
-10.051408 45.127209 2.235843 1.880790849211783e-38 1768976227
-8.323492 37.369488 3.385397 1.880790849211783e-38 1768976227
-8.211207 36.865368 3.169877 1.880790849211783e-38 1768976227
-10.557323 47.398582 2.020807 1.880790849211783e-38 1768976227
-10.599807 47.589325 1.799712 1.880790849211783e-38 1768976227
-9.562733 42.933231 3.412894 1.880790849211783e-38 1768976227
-10.220378 45.885818 3.349706 1.880790849211783e-38 1768976227
-10.611229 47.640606 1.472407 1.880790849211783e-38 1768976227
-10.266367 46.092297 3.123458 1.880790849211783e-38 1768976227
-10.310960 46.292503 -1.109293 1.880790849211783e-38 1768976227
-10.414975 46.759499 -1.414261 1.880790849211783e-38 1768976227
-10.315926 46.314800 -1.633598 1.880790849211783e-38 1768976227
-9.863767 44.284763 18.901934 1.880790849211783e-38 1768976227
-8.232173 36.959499 15.465702 1.880790849211783e-38 1768976227
-9.004022 40.424820 8.314360 1.880790849211783e-38 1768976227
-11.789519 52.930706 10.321168 1.880790849211783e-38 1768976227
-8.348164 37.480255 15.314696 1.880790849211783e-38 1768976227
-8.476092 38.054607 15.119024 1.880790849211783e-38 1768976227
-9.097320 40.843693 18.861652 1.880790849211783e-38 1768976227
-8.640148 38.791161 14.989217 1.880790849211783e-38 1768976227
-8.849627 39.731647 14.828418 1.880790849211783e-38 1768976227
-9.438011 42.373276 19.097694 1.880790849211783e-38 1768976227
-9.743141 43.743202 19.083017 1.880790849211783e-38 1768976227
-9.834508 44.153412 13.325522 1.880790849211783e-38 1768976227
-9.802331 44.008945 12.940911 1.880790849211783e-38 1768976227
-9.065951 40.702866 14.705011 1.880790849211783e-38 1768976227
-9.416860 42.278316 14.999707 1.880790849211783e-38 1768976227
-9.510849 42.700294 12.126858 1.880790849211783e-38 1768976227
-10.124668 45.456123 12.490647 1.880790849211783e-38 1768976227
-9.382018 42.121891 14.564895 1.880790849211783e-38 1768976227
-9.471558 42.523891 14.285336 1.880790849211783e-38 1768976227
-11.409925 51.226460 13.539845 1.880790849211783e-38 1768976227
-9.718098 43.630768 11.002234 1.880790849211783e-38 1768976227
-9.392962 42.171021 13.698716 1.880790849211783e-38 1768976227
-9.487568 42.595768 13.337136 1.880790849211783e-38 1768976227
-10.044071 45.094273 8.424800 1.880790849211783e-38 1768976227
-10.042438 45.086937 8.007968 1.880790849211783e-38 1768976227
-9.660949 43.374187 10.447017 1.880790849211783e-38 1768976227
-9.977458 44.795200 10.507843 1.880790849211783e-38 1768976227
-10.302595 46.254948 7.827944 1.880790849211783e-38 1768976227
-9.945346 44.651028 7.154411 1.880790849211783e-38 1768976227
-10.239125 45.969990 10.330940 1.880790849211783e-38 1768976227
-12.249287 54.994892 11.944504 1.880790849211783e-38 1768976227
-8.351402 38.035007 4.860299 1.880790849211783e-38 1768976227
-8.403598 38.272720 4.690428 1.880790849211783e-38 1768976227
-8.231282 37.487942 4.366726 1.880790849211783e-38 1768976227
-8.113520 36.951611 4.041317 1.880790849211783e-38 1768976227
-8.642525 39.360870 6.042954 1.880790849211783e-38 1768976227
-8.447530 38.472801 5.648953 1.880790849211783e-38 1768976227
-8.221428 37.443062 3.922668 1.880790849211783e-38 1768976227
-8.247429 37.561474 3.683520 1.880790849211783e-38 1768976227
-8.429634 38.391300 5.420050 1.880790849211783e-38 1768976227
-8.435511 38.418064 5.198699 1.880790849211783e-38 1768976227
-9.934358 45.244301 2.240149 1.880790849211783e-38 1768976227
-8.059189 36.704174 3.322908 1.880790849211783e-38 1768976227
-8.152670 37.129913 3.190495 1.880790849211783e-38 1768976227
-10.221832 46.553555 1.983456 1.880790849211783e-38 1768976227
-10.404172 47.383987 1.790752 1.880790849211783e-38 1768976227
-9.442298 43.003300 3.416185 1.880790849211783e-38 1768976227
-10.164733 46.293499 3.377214 1.880790849211783e-38 1768976227
-10.519465 47.909073 1.479717 1.880790849211783e-38 1768976227
-10.173090 46.331562 -1.633100 1.880790849211783e-38 1768976227
-9.607762 43.756882 18.664165 1.880790849211783e-38 1768976227
