# .PCD v0.7 - Point Cloud Data file format
VERSION 0.7
FIELDS x y z rgb label
SIZE 4 4 4 4 4
TYPE F F F F U
COUNT 1 1 1 1 1
WIDTH 741
HEIGHT 1
VIEWPOINT 0 0 0 1 0 0 0
POINTS 741
DATA ascii
-50.677616 -29.508352 19.792435 1.880790849211783e-38 1768976227
-44.114040 -25.686539 13.169814 1.880790849211783e-38 1768976227
-48.008465 -27.954168 13.673806 1.880790849211783e-38 1768976227
-49.575821 -28.866802 18.189436 1.880790849211783e-38 1768976227
-50.279797 -29.276712 17.781698 1.880790849211783e-38 1768976227
-49.912655 -29.062935 10.532525 1.880790849211783e-38 1768976227
-50.521904 -29.417685 10.135261 1.880790849211783e-38 1768976227
-48.127922 -28.023727 13.093074 1.880790849211783e-38 1768976227
-48.461475 -28.217947 12.839918 1.880790849211783e-38 1768976227
-53.090809 -30.913498 10.148280 1.880790849211783e-38 1768976227
-51.721199 -30.116009 9.360405 1.880790849211783e-38 1768976227
-48.269054 -28.105906 12.252305 1.880790849211783e-38 1768976227
-48.637196 -28.320267 11.931579 1.880790849211783e-38 1768976227
-57.001610 -32.960857 8.218261 1.880790849211783e-38 1768976227
-60.633072 -35.060734 8.383900 1.880790849211783e-38 1768976227
-51.411186 -29.728230 6.756711 1.880790849211783e-38 1768976227
-51.149525 -29.576925 6.311672 1.880790849211783e-38 1768976227
-51.597038 -29.835699 8.937635 1.880790849211783e-38 1768976227
-51.461647 -29.757404 8.525329 1.880790849211783e-38 1768976227
-51.510643 -29.785740 6.088643 1.880790849211783e-38 1768976227
-57.285027 -33.124744 9.124833 1.880790849211783e-38 1768976227
-57.133053 -33.036869 8.722882 1.880790849211783e-38 1768976227
-57.345238 -33.159561 3.528478 1.880790849211783e-38 1768976227
-57.925949 -33.495358 5.615918 1.880790849211783e-38 1768976227
-51.186821 -29.598494 4.587872 1.880790849211783e-38 1768976227
-59.427448 -34.363590 4.891466 1.880790849211783e-38 1768976227
-59.803394 -34.580978 4.569376 1.880790849211783e-38 1768976227
-49.026608 -28.349360 11.369361 1.880790849211783e-38 1768976227
-49.701954 -28.739876 10.927433 1.880790849211783e-38 1768976227
-46.384411 -26.821524 15.783945 1.880790849211783e-38 1768976227
-48.183907 -27.862070 15.975312 1.880790849211783e-38 1768976227
-45.893002 -26.537369 14.695601 1.880790849211783e-38 1768976227
-46.685497 -26.995626 14.464323 1.880790849211783e-38 1768976227
-50.845154 -29.400925 19.823145 1.880790849211783e-38 1768976227
-44.059376 -25.477085 13.130496 1.880790849211783e-38 1768976227
-57.428387 -33.207645 16.328197 1.880790849211783e-38 1768976227
-47.540543 -27.490051 17.412191 1.880790849211783e-38 1768976227
-50.283726 -29.076283 17.751993 1.880790849211783e-38 1768976227
-50.013222 -28.919861 10.535293 1.880790849211783e-38 1768976227
-50.613918 -29.267214 10.135965 1.880790849211783e-38 1768976227
-47.798420 -27.639166 12.980696 1.880790849211783e-38 1768976227
-48.515636 -28.053894 12.831793 1.880790849211783e-38 1768976227
-53.157925 -30.738272 10.143342 1.880790849211783e-38 1768976227
-51.816154 -29.962404 9.361194 1.880790849211783e-38 1768976227
-48.315918 -27.938406 12.242755 1.880790849211783e-38 1768976227
-48.684132 -28.151323 11.922208 1.880790849211783e-38 1768976227
-56.998894 -32.730301 8.203600 1.880790849211783e-38 1768976227
-58.936378 -33.842854 8.135141 1.880790849211783e-38 1768976227
-49.226456 -28.267155 6.458349 1.880790849211783e-38 1768976227
-51.021255 -29.297777 6.284912 1.880790849211783e-38 1768976227
-51.691643 -29.682734 8.938475 1.880790849211783e-38 1768976227
-51.545200 -29.598642 8.524343 1.880790849211783e-38 1768976227
-51.536541 -29.593668 6.081127 1.880790849211783e-38 1768976227
-57.276741 -32.889847 9.107672 1.880790849211783e-38 1768976227
-57.125080 -32.802761 8.706520 1.880790849211783e-38 1768976227
-58.724991 -33.721474 5.254377 1.880790849211783e-38 1768976227
-59.329010 -34.068314 4.874884 1.880790849211783e-38 1768976227
-49.084522 -28.185654 11.363027 1.880790849211783e-38 1768976227
-49.792145 -28.591991 10.928253 1.880790849211783e-38 1768976227
-46.563076 -26.737770 15.817229 1.880790849211783e-38 1768976227
-48.189342 -27.671619 15.949374 1.880790849211783e-38 1768976227
-45.585312 -26.176315 14.571730 1.880790849211783e-38 1768976227
-44.471497 -25.536732 13.754445 1.880790849211783e-38 1768976227
-51.013031 -29.293056 19.854063 1.880790849211783e-38 1768976227
-43.434814 -24.941441 12.921889 1.880790849211783e-38 1768976227
-57.572193 -33.059502 16.340660 1.880790849211783e-38 1768976227
-47.922001 -27.518103 17.521427 1.880790849211783e-38 1768976227
-50.282200 -28.873394 17.720633 1.880790849211783e-38 1768976227
-50.257416 -28.859161 10.568350 1.880790849211783e-38 1768976227
-50.705936 -29.116713 10.136761 1.880790849211783e-38 1768976227
-47.471531 -27.259430 12.869536 1.880790849211783e-38 1768976227
-48.569656 -27.890003 12.823774 1.880790849211783e-38 1768976227
-53.337132 -30.627619 10.159865 1.880790849211783e-38 1768976227
-51.911179 -29.808798 9.362076 1.880790849211783e-38 1768976227
-48.362606 -27.771109 12.233307 1.880790849211783e-38 1768976227
-48.730892 -27.982590 11.912938 1.880790849211783e-38 1768976227
-59.341228 -33.837753 8.176901 1.880790849211783e-38 1768976227
-50.071030 -28.551674 6.557827 1.880790849211783e-38 1768976227
-50.893959 -29.020926 6.258421 1.880790849211783e-38 1768976227
-51.786304 -29.529762 8.939404 1.880790849211783e-38 1768976227
-51.628757 -29.439924 8.523439 1.880790849211783e-38 1768976227
-51.453930 -29.340231 6.060910 1.880790849211783e-38 1768976227
-57.268520 -32.655849 9.090661 1.880790849211783e-38 1768976227
-57.117168 -32.569542 8.690302 1.880790849211783e-38 1768976227
-58.630146 -33.432281 5.236845 1.880790849211783e-38 1768976227
-49.319000 -28.122847 11.397622 1.880790849211783e-38 1768976227
-49.846218 -28.423477 10.921256 1.880790849211783e-38 1768976227
-46.820927 -26.698387 15.877395 1.880790849211783e-38 1768976227
-48.194584 -27.481680 15.923604 1.880790849211783e-38 1768976227
-42.801174 -24.406227 13.658163 1.880790849211783e-38 1768976227
-44.410534 -25.323925 13.711906 1.880790849211783e-38 1768976227
-43.455788 -24.779505 12.905837 1.880790849211783e-38 1768976227
-58.441250 -33.324566 16.558722 1.880790849211783e-38 1768976227
-48.369110 -27.581196 17.654406 1.880790849211783e-38 1768976227
-50.185032 -28.616680 17.655890 1.880790849211783e-38 1768976227
-50.503010 -28.797997 10.601682 1.880790849211783e-38 1768976227
-50.797955 -28.966179 10.137645 1.880790849211783e-38 1768976227
-48.376648 -27.585491 13.092299 1.880790849211783e-38 1768976227
-47.115898 -26.866585 12.418490 1.880790849211783e-38 1768976227
-53.517494 -30.516924 10.176642 1.880790849211783e-38 1768976227
-52.006287 -29.655199 9.363055 1.880790849211783e-38 1768976227
-48.451157 -27.627979 12.234572 1.880790849211783e-38 1768976227
-49.140438 -28.021025 11.992342 1.880790849211783e-38 1768976227
-59.646362 -33.773773 8.555161 1.880790849211783e-38 1768976227
-60.118515 -34.041119 8.269821 1.880790849211783e-38 1768976227
-56.612015 -32.055626 7.401807 1.880790849211783e-38 1768976227
-50.686413 -28.700348 6.222227 1.880790849211783e-38 1768976227
-51.881054 -29.376795 8.940423 1.880790849211783e-38 1768976227
-51.712334 -29.281260 8.522618 1.880790849211783e-38 1768976227
-51.323822 -29.061270 6.035232 1.880790849211783e-38 1768976227
-57.261749 -32.423523 9.074022 1.880790849211783e-38 1768976227
-57.109303 -32.337204 8.674227 1.880790849211783e-38 1768976227
-52.779850 -29.885721 4.321868 1.880790849211783e-38 1768976227
-49.538334 -28.050268 11.428706 1.880790849211783e-38 1768976227
-50.050320 -28.340170 10.947198 1.880790849211783e-38 1768976227
-48.199631 -27.292248 15.898002 1.880790849211783e-38 1768976227
-43.156387 -24.436594 13.747934 1.880790849211783e-38 1768976227
-44.359207 -25.117672 13.672606 1.880790849211783e-38 1768976227
-43.476898 -24.618078 12.889997 1.880790849211783e-38 1768976227
-47.991901 -27.174625 13.574723 1.880790849211783e-38 1768976227
-50.076836 -28.355185 17.587658 1.880790849211783e-38 1768976227
-50.806931 -28.768587 10.647219 1.880790849211783e-38 1768976227
-50.889984 -28.815617 10.138621 1.880790849211783e-38 1768976227
-48.513374 -27.469898 13.106820 1.880790849211783e-38 1768976227
-46.827763 -26.515451 12.321411 1.880790849211783e-38 1768976227
-53.699066 -30.406212 10.193685 1.880790849211783e-38 1768976227
-52.101456 -29.501591 9.364126 1.880790849211783e-38 1768976227
-48.816250 -27.641397 12.305656 1.880790849211783e-38 1768976227
-49.457909 -28.004728 12.049152 1.880790849211783e-38 1768976227
-59.632576 -33.528854 8.538641 1.880790849211783e-38 1768976227
-57.101318 -32.105633 7.841424 1.880790849211783e-38 1768976227
-56.568092 -31.805826 7.383489 1.880790849211783e-38 1768976227
-49.789940 -27.994759 6.101783 1.880790849211783e-38 1768976227
-51.975868 -29.223816 8.941533 1.880790849211783e-38 1768976227
-51.795906 -29.122627 8.521877 1.880790849211783e-38 1768976227
-51.194687 -28.784590 6.009811 1.880790849211783e-38 1768976227
-57.286827 -32.209942 9.062561 1.880790849211783e-38 1768976227
-57.101521 -32.105747 8.658298 1.880790849211783e-38 1768976227
-49.703255 -27.946020 11.447257 1.880790849211783e-38 1768976227
-50.293114 -28.277672 10.981598 1.880790849211783e-38 1768976227
-50.823166 -28.575697 17.175825 1.880790849211783e-38 1768976227
-48.204483 -27.103325 15.872567 1.880790849211783e-38 1768976227
-43.516693 -24.467581 13.839143 1.880790849211783e-38 1768976227
-44.379822 -24.952883 13.655702 1.880790849211783e-38 1768976227
-43.498165 -24.457163 12.874374 1.880790849211783e-38 1768976227
-48.145687 -27.070267 13.595066 1.880790849211783e-38 1768976227
-49.777924 -27.988005 17.452950 1.880790849211783e-38 1768976227
-50.887787 -28.612034 10.646031 1.880790849211783e-38 1768976227
-50.982021 -28.665014 10.139688 1.880790849211783e-38 1768976227
-48.726696 -27.396942 13.142070 1.880790849211783e-38 1768976227
-47.124470 -26.496078 12.378398 1.880790849211783e-38 1768976227
-55.135300 -31.000227 10.448529 1.880790849211783e-38 1768976227
-52.196690 -29.347977 9.365293 1.880790849211783e-38 1768976227
-48.997875 -27.549414 12.330440 1.880790849211783e-38 1768976227
-49.643234 -27.912271 12.073737 1.880790849211783e-38 1768976227
-57.419304 -32.056889 8.207847 1.880790849211783e-38 1768976227
-57.590328 -32.152370 7.895225 1.880790849211783e-38 1768976227
-56.541245 -31.566675 7.367525 1.880790849211783e-38 1768976227
-55.703320 -31.098862 6.814946 1.880790849211783e-38 1768976227
-52.070736 -29.070810 8.942729 1.880790849211783e-38 1768976227
-51.879505 -28.964046 8.521220 1.880790849211783e-38 1768976227
-51.066525 -28.510168 5.984645 1.880790849211783e-38 1768976227
-57.311909 -31.996929 9.051221 1.880790849211783e-38 1768976227
-57.093777 -31.875149 8.642509 1.880790849211783e-38 1768976227
-49.868549 -27.841343 11.465936 1.880790849211783e-38 1768976227
-50.537285 -28.214695 11.016283 1.880790849211783e-38 1768976227
-50.746956 -28.331751 17.121115 1.880790849211783e-38 1768976227
-48.155788 -26.885117 15.829762 1.880790849211783e-38 1768976227
-43.882195 -24.499193 13.931817 1.880790849211783e-38 1768976227
-42.827152 -23.910168 13.155695 1.880790849211783e-38 1768976227
-43.551361 -24.314491 12.868356 1.880790849211783e-38 1768976227
-48.270882 -26.949371 13.607404 1.880790849211783e-38 1768976227
-49.483250 -27.626228 17.320337 1.880790849211783e-38 1768976227
-50.968601 -28.455494 10.644935 1.880790849211783e-38 1768976227
-51.074066 -28.514376 10.140843 1.880790849211783e-38 1768976227
-48.856800 -27.276489 13.154913 1.880790849211783e-38 1768976227
-47.712162 -26.637444 12.511611 1.880790849211783e-38 1768976227
-55.400139 -30.929600 10.480993 1.880790849211783e-38 1768976227
-52.328541 -29.214743 9.373097 1.880790849211783e-38 1768976227
-49.180050 -27.456957 12.355390 1.880790849211783e-38 1768976227
-49.829147 -27.819344 12.098492 1.880790849211783e-38 1768976227
-57.318054 -31.774021 8.179639 1.880790849211783e-38 1768976227
-57.898605 -32.095848 7.924182 1.880790849211783e-38 1768976227
-56.514648 -31.328655 7.351715 1.880790849211783e-38 1768976227
-62.161297 -34.458855 7.592291 1.880790849211783e-38 1768976227
-52.165676 -28.917828 8.944018 1.880790849211783e-38 1768976227
-51.963104 -28.805531 8.520646 1.880790849211783e-38 1768976227
-62.467068 -34.628357 7.308438 1.880790849211783e-38 1768976227
-57.336998 -31.784523 9.040005 1.880790849211783e-38 1768976227
-57.086117 -31.645451 8.626864 1.880790849211783e-38 1768976227
-49.981037 -27.706778 11.472535 1.880790849211783e-38 1768976227
-50.690159 -28.099878 11.031086 1.880790849211783e-38 1768976227
-50.439331 -27.960833 16.988804 1.880790849211783e-38 1768976227
-47.978321 -26.596582 15.744989 1.880790849211783e-38 1768976227
-48.815983 -27.060936 15.472230 1.880790849211783e-38 1768976227
-43.157188 -23.924007 13.234856 1.880790849211783e-38 1768976227
-43.671089 -24.208885 12.882104 1.880790849211783e-38 1768976227
-48.341354 -26.797829 13.604430 1.880790849211783e-38 1768976227
-48.235203 -26.738983 16.855194 1.880790849211783e-38 1768976227
-51.049355 -28.298994 10.643929 1.880790849211783e-38 1768976227
-51.166111 -28.363716 10.142090 1.880790849211783e-38 1768976227
-48.987030 -27.155752 13.167869 1.880790849211783e-38 1768976227
-48.311932 -26.781519 12.647655 1.880790849211783e-38 1768976227
-56.650169 -31.403782 10.699517 1.880790849211783e-38 1768976227
-52.469112 -29.086033 9.382524 1.880790849211783e-38 1768976227
-49.362782 -27.364048 12.380508 1.880790849211783e-38 1768976227
-50.015629 -27.725954 12.123415 1.880790849211783e-38 1768976227
-57.006844 -31.377111 8.121686 1.880790849211783e-38 1768976227
-58.209175 -32.038887 7.953427 1.880790849211783e-38 1768976227
-56.488266 -31.091684 7.336052 1.880790849211783e-38 1768976227
-62.292698 -34.286491 7.595675 1.880790849211783e-38 1768976227
-52.282505 -28.776791 8.949126 1.880790849211783e-38 1768976227
-52.046726 -28.647015 8.520151 1.880790849211783e-38 1768976227
-62.596375 -34.453644 7.311376 1.880790849211783e-38 1768976227
-57.362072 -31.572638 9.028904 1.880790849211783e-38 1768976227
-58.810608 -32.369923 8.872676 1.880790849211783e-38 1768976227
-50.018066 -27.530422 11.461925 1.880790849211783e-38 1768976227
-50.775578 -27.947363 11.031281 1.880790849211783e-38 1768976227
-46.730030 -25.720655 15.309812 1.880790849211783e-38 1768976227
-48.862171 -26.894205 15.461089 1.880790849211783e-38 1768976227
-43.491531 -23.938154 13.315184 1.880790849211783e-38 1768976227
-43.791275 -24.103138 12.896054 1.880790849211783e-38 1768976227
-48.411648 -26.646235 13.601533 1.880790849211783e-38 1768976227
-51.130070 -28.142481 10.643013 1.880790849211783e-38 1768976227
-51.258179 -28.212994 10.143428 1.880790849211783e-38 1768976227
-49.117435 -27.034706 13.180945 1.880790849211783e-38 1768976227
-46.220299 -25.440094 12.079940 1.880790849211783e-38 1768976227
-59.615112 -32.812729 11.240766 1.880790849211783e-38 1768976227
-52.623219 -28.964323 9.394417 1.880790849211783e-38 1768976227
-49.546101 -27.270647 12.405801 1.880790849211783e-38 1768976227
-50.123928 -27.588690 12.129441 1.880790849211783e-38 1768976227
-58.370911 -31.898907 8.302279 1.880790849211783e-38 1768976227
-58.522015 -31.981483 7.982956 1.880790849211783e-38 1768976227
-61.925400 -33.841389 8.028873 1.880790849211783e-38 1768976227
-62.421276 -34.112377 7.598773 1.880790849211783e-38 1768976227
-52.422592 -28.648232 8.958275 1.880790849211783e-38 1768976227
-52.131733 -28.489283 8.519962 1.880790849211783e-38 1768976227
-62.725704 -34.278740 7.314373 1.880790849211783e-38 1768976227
-57.387180 -31.361311 9.017927 1.880790849211783e-38 1768976227
-57.778214 -31.575006 8.702513 1.880790849211783e-38 1768976227
-50.054794 -27.354263 11.451384 1.880790849211783e-38 1768976227
-50.860977 -27.794828 11.031571 1.880790849211783e-38 1768976227
-55.306728 -30.224373 18.089785 1.880790849211783e-38 1768976227
-48.900528 -26.723473 15.447654 1.880790849211783e-38 1768976227
-43.830196 -23.952604 13.396691 1.880790849211783e-38 1768976227
-42.804516 -23.392084 12.584630 1.880790849211783e-38 1768976227
-48.481743 -26.494612 13.598714 1.880790849211783e-38 1768976227
-51.210743 -27.985975 10.642188 1.880790849211783e-38 1768976227
-51.350262 -28.062222 10.144856 1.880790849211783e-38 1768976227
-49.247971 -26.913345 13.194133 1.880790849211783e-38 1768976227
-46.338165 -25.323174 12.090728 1.880790849211783e-38 1768976227
-59.797318 -32.678417 11.256484 1.880790849211783e-38 1768976227
-52.804012 -28.856672 9.411112 1.880790849211783e-38 1768976227
-49.705067 -27.163143 12.425036 1.880790849211783e-38 1768976227
-50.182690 -27.424156 12.123591 1.880790849211783e-38 1768976227
-58.684673 -31.840900 8.333209 1.880790849211783e-38 1768976227
-57.654011 -31.281687 7.851647 1.880790849211783e-38 1768976227
-62.084061 -33.685326 8.036236 1.880790849211783e-38 1768976227
-62.549911 -33.938087 7.601938 1.880790849211783e-38 1768976227
-52.563034 -28.519445 8.967534 1.880790849211783e-38 1768976227
-52.232162 -28.339922 8.522368 1.880790849211783e-38 1768976227
-62.855095 -34.103672 7.317434 1.880790849211783e-38 1768976227
-57.433475 -31.162031 9.010392 1.880790849211783e-38 1768976227
-57.618935 -31.262659 8.664282 1.880790849211783e-38 1768976227
-50.091251 -27.178318 11.440919 1.880790849211783e-38 1768976227
-50.946362 -27.642279 11.031960 1.880790849211783e-38 1768976227
-57.572819 -31.237635 18.800079 1.880790849211783e-38 1768976227
-48.798775 -26.477049 15.390213 1.880790849211783e-38 1768976227
-44.317631 -24.045687 13.523448 1.880790849211783e-38 1768976227
-43.133369 -23.403135 12.660504 1.880790849211783e-38 1768976227
-48.551636 -26.342958 13.595971 1.880790849211783e-38 1768976227
-51.291382 -27.829479 10.641455 1.880790849211783e-38 1768976227
-51.442360 -27.911396 10.146374 1.880790849211783e-38 1768976227
-49.378662 -26.791679 13.207438 1.880790849211783e-38 1768976227
-46.456562 -25.206219 12.101731 1.880790849211783e-38 1768976227
-59.549473 -32.310120 11.191435 1.880790849211783e-38 1768976227
-52.985565 -28.748701 9.427974 1.880790849211783e-38 1768976227
-49.757099 -26.997013 12.417633 1.880790849211783e-38 1768976227
-50.241032 -27.259583 12.117768 1.880790849211783e-38 1768976227
-59.000755 -31.782442 8.364443 1.880790849211783e-38 1768976227
-57.575901 -31.014908 7.828235 1.880790849211783e-38 1768976227
-62.211571 -33.512043 8.039621 1.880790849211783e-38 1768976227
-62.678566 -33.763603 7.605164 1.880790849211783e-38 1768976227
-52.703846 -28.390432 8.976909 1.880790849211783e-38 1768976227
-58.320278 -31.415888 9.500222 1.880790849211783e-38 1768976227
-62.984520 -33.928410 7.320555 1.880790849211783e-38 1768976227
-58.842239 -31.697056 9.216365 1.880790849211783e-38 1768976227
-57.517689 -30.983547 8.634966 1.880790849211783e-38 1768976227
-50.127434 -27.002575 11.430530 1.880790849211783e-38 1768976227
-50.678185 -27.299250 10.956009 1.880790849211783e-38 1768976227
-56.167183 -30.256060 18.793724 1.880790849211783e-38 1768976227
-59.540497 -32.073193 18.747358 1.880790849211783e-38 1768976227
-46.099518 -24.832823 14.044270 1.880790849211783e-38 1768976227
-44.154556 -23.785114 12.939129 1.880790849211783e-38 1768976227
-48.621342 -26.191277 13.593308 1.880790849211783e-38 1768976227
-51.371983 -27.672987 10.640812 1.880790849211783e-38 1768976227
-51.534481 -27.760525 10.147985 1.880790849211783e-38 1768976227
-49.457943 -26.641937 13.207092 1.880790849211783e-38 1768976227
-46.575489 -25.089220 12.112945 1.880790849211783e-38 1768976227
-59.521935 -32.063190 11.168035 1.880790849211783e-38 1768976227
-53.167896 -28.640408 9.445004 1.880790849211783e-38 1768976227
-49.808773 -26.830921 12.410277 1.880790849211783e-38 1768976227
-50.294220 -27.092419 12.110833 1.880790849211783e-38 1768976227
-59.133141 -31.624031 8.369651 1.880790849211783e-38 1768976227
-59.474468 -31.806574 8.073292 1.880790849211783e-38 1768976227
-59.201653 -31.660671 7.638273 1.880790849211783e-38 1768976227
-62.769604 -33.568790 7.603890 1.880790849211783e-38 1768976227
-52.845024 -28.261185 8.986397 1.880790849211783e-38 1768976227
-58.761436 -31.425245 9.556602 1.880790849211783e-38 1768976227
-63.078060 -33.733749 7.319569 1.880790849211783e-38 1768976227
-58.877842 -31.487499 9.207025 1.880790849211783e-38 1768976227
-57.184502 -30.581915 8.571060 1.880790849211783e-38 1768976227
-50.163342 -26.827040 11.420217 1.880790849211783e-38 1768976227
-50.664730 -27.095179 10.935384 1.880790849211783e-38 1768976227
-59.765717 -31.962332 18.787834 1.880790849211783e-38 1768976227
-59.257496 -31.690535 18.023663 1.880790849211783e-38 1768976227
-44.715897 -23.913780 13.082429 1.880790849211783e-38 1768976227
-48.690853 -26.039564 13.590725 1.880790849211783e-38 1768976227
-51.435478 -27.507374 10.636732 1.880790849211783e-38 1768976227
-51.616856 -27.604368 10.147763 1.880790849211783e-38 1768976227
-49.528492 -26.487526 13.204536 1.880790849211783e-38 1768976227
-46.694988 -24.972185 12.124379 1.880790849211783e-38 1768976227
-59.514095 -31.827765 11.148502 1.880790849211783e-38 1768976227
-53.393291 -28.554399 9.469703 1.880790849211783e-38 1768976227
-49.833565 -26.650679 12.396371 1.880790849211783e-38 1768976227
-50.347298 -26.925419 12.104006 1.880790849211783e-38 1768976227
-59.187206 -31.423752 8.363851 1.880790849211783e-38 1768976227
-59.796703 -31.747349 8.103998 1.880790849211783e-38 1768976227
-59.359440 -31.515196 7.646333 1.880790849211783e-38 1768976227
-60.203560 -31.963358 7.281330 1.880790849211783e-38 1768976227
-52.986553 -28.131697 8.995996 1.880790849211783e-38 1768976227
-58.760448 -31.197178 9.541096 1.880790849211783e-38 1768976227
-63.156307 -33.531033 7.316880 1.880790849211783e-38 1768976227
-57.861916 -30.720127 9.033629 1.880790849211783e-38 1768976227
-58.698059 -31.164055 8.783791 1.880790849211783e-38 1768976227
-50.198971 -26.651709 11.409977 1.880790849211783e-38 1768976227
-51.112045 -27.136480 11.014217 1.880790849211783e-38 1768976227
-60.034725 -31.873716 18.842094 1.880790849211783e-38 1768976227
-60.607998 -32.178082 18.404827 1.880790849211783e-38 1768976227
-44.941376 -23.860338 13.127283 1.880790849211783e-38 1768976227
-48.760174 -25.887817 13.588219 1.880790849211783e-38 1768976227
-51.474510 -27.328920 10.627710 1.880790849211783e-38 1768976227
-51.697613 -27.447369 10.147320 1.880790849211783e-38 1768976227
-49.598850 -26.333090 13.202061 1.880790849211783e-38 1768976227
-46.815037 -24.855103 12.136031 1.880790849211783e-38 1768976227
-59.506145 -31.593086 11.129113 1.880790849211783e-38 1768976227
-53.644897 -28.481224 9.499049 1.880790849211783e-38 1768976227
-49.839962 -26.461102 12.378053 1.880790849211783e-38 1768976227
-50.400284 -26.758589 12.097286 1.880790849211783e-38 1768976227
-59.222504 -31.213934 8.355500 1.880790849211783e-38 1768976227
-60.121323 -31.687666 8.135006 1.880790849211783e-38 1768976227
-60.003113 -31.625364 7.716928 1.880790849211783e-38 1768976227
-60.515503 -31.895424 7.307392 1.880790849211783e-38 1768976227
-58.075806 -30.609550 9.844326 1.880790849211783e-38 1768976227
-58.748634 -30.964176 9.523973 1.880790849211783e-38 1768976227
-60.738884 -32.013161 7.025598 1.880790849211783e-38 1768976227
-62.886955 -33.145325 6.809060 1.880790849211783e-38 1768976227
-57.684429 -30.403271 8.991565 1.880790849211783e-38 1768976227
-58.894482 -31.041048 8.799136 1.880790849211783e-38 1768976227
-63.233372 -33.327911 6.320559 1.880790849211783e-38 1768976227
-63.446964 -33.440487 6.019374 1.880790849211783e-38 1768976227
-50.234318 -26.476601 11.399811 1.880790849211783e-38 1768976227
-51.102867 -26.934380 10.994686 1.880790849211783e-38 1768976227
-60.697617 -31.991409 18.402662 1.880790849211783e-38 1768976227
-44.686348 -23.552477 13.031986 1.880790849211783e-38 1768976227
-48.829292 -25.736065 13.585790 1.880790849211783e-38 1768976227
-51.513435 -27.150776 10.618794 1.880790849211783e-38 1768976227
-51.778336 -27.290392 10.146964 1.880790849211783e-38 1768976227
-49.668205 -26.178226 13.199451 1.880790849211783e-38 1768976227
-47.006847 -24.775526 12.166332 1.880790849211783e-38 1768976227
-53.778755 -28.344740 10.041919 1.880790849211783e-38 1768976227
-53.898300 -28.407749 9.528707 1.880790849211783e-38 1768976227
-49.846397 -26.272144 12.359920 1.880790849211783e-38 1768976227
-49.619411 -26.152508 11.890875 1.880790849211783e-38 1768976227
-59.234406 -30.992289 8.343953 1.880790849211783e-38 1768976227
-59.362740 -31.059435 8.019650 1.880790849211783e-38 1768976227
-60.295883 -31.547668 7.742308 1.880790849211783e-38 1768976227
-60.829685 -31.826963 7.333706 1.880790849211783e-38 1768976227
-57.983257 -30.337671 9.813085 1.880790849211783e-38 1768976227
-57.793499 -30.238384 9.354305 1.880790849211783e-38 1768976227
-61.055042 -31.944874 7.050991 1.880790849211783e-38 1768976227
-61.385838 -32.117947 6.636009 1.880790849211783e-38 1768976227
-57.276531 -29.967901 8.913856 1.880790849211783e-38 1768976227
-59.050564 -30.896099 8.808494 1.880790849211783e-38 1768976227
-63.278992 -33.108475 6.315109 1.880790849211783e-38 1768976227
-63.473713 -33.210358 6.012382 1.880790849211783e-38 1768976227
-63.767456 -33.364048 5.584152 1.880790849211783e-38 1768976227
-50.689941 -26.521702 11.485003 1.880790849211783e-38 1768976227
-51.093571 -26.732885 10.975289 1.880790849211783e-38 1768976227
-61.796730 -32.332935 18.706247 1.880790849211783e-38 1768976227
-44.925922 -23.505886 13.081119 1.880790849211783e-38 1768976227
-48.898220 -25.584249 13.583438 1.880790849211783e-38 1768976227
-51.552235 -26.972870 10.609975 1.880790849211783e-38 1768976227
-51.838737 -27.122770 10.142725 1.880790849211783e-38 1768976227
-49.690968 -25.999027 13.184602 1.880790849211783e-38 1768976227
-47.213799 -24.702936 12.200557 1.880790849211783e-38 1768976227
-53.890919 -28.196501 10.046938 1.880790849211783e-38 1768976227
-60.530693 -31.670521 10.684315 1.880790849211783e-38 1768976227
-49.324406 -25.807236 12.211131 1.880790849211783e-38 1768976227
-49.626186 -25.965130 11.873678 1.880790849211783e-38 1768976227
-59.237137 -30.766508 8.331229 1.880790849211783e-38 1768976227
-60.702526 -31.527599 8.187766 1.880790849211783e-38 1768976227
-60.543327 -31.444918 7.761868 1.880790849211783e-38 1768976227
-61.146107 -31.757986 7.360272 1.880790849211783e-38 1768976227
-57.835915 -30.038742 9.772771 1.880790849211783e-38 1768976227
-57.703934 -29.970194 9.325136 1.880790849211783e-38 1768976227
-61.373451 -31.876062 7.076627 1.880790849211783e-38 1768976227
-61.707176 -32.049393 6.660267 1.880790849211783e-38 1768976227
-57.593048 -29.912601 8.949033 1.880790849211783e-38 1768976227
-59.053566 -30.671165 8.795103 1.880790849211783e-38 1768976227
-62.184685 -32.297401 6.196150 1.880790849211783e-38 1768976227
-63.632980 -33.049618 6.017999 1.880790849211783e-38 1768976227
-63.887024 -33.181561 5.585833 1.880790849211783e-38 1768976227
-50.761517 -26.364450 11.483150 1.880790849211783e-38 1768976227
-51.084175 -26.532032 10.956032 1.880790849211783e-38 1768976227
-61.853615 -32.125454 18.694054 1.880790849211783e-38 1768976227
-45.167614 -23.459099 13.130832 1.880790849211783e-38 1768976227
-48.966965 -25.432400 13.581165 1.880790849211783e-38 1768976227
-51.571957 -26.785378 10.597359 1.880790849211783e-38 1768976227
-51.877411 -26.944021 10.134345 1.880790849211783e-38 1768976227
-49.713528 -25.820148 13.169865 1.880790849211783e-38 1768976227
-47.422230 -24.630098 12.235167 1.880790849211783e-38 1768976227
-54.003162 -28.048094 10.052048 1.880790849211783e-38 1768976227
-57.893784 -30.068800 10.202819 1.880790849211783e-38 1768976227
-49.308514 -25.609795 12.188020 1.880790849211783e-38 1768976227
-49.632999 -25.778324 11.856652 1.880790849211783e-38 1768976227
-59.098743 -30.468662 8.298804 1.880790849211783e-38 1768976227
-59.722549 -30.790266 8.043021 1.880790849211783e-38 1768976227
-60.806149 -31.348919 7.783405 1.880790849211783e-38 1768976227
-61.120399 -31.510937 7.345705 1.880790849211783e-38 1768976227
-57.752884 -29.774797 9.743523 1.880790849211783e-38 1768976227
-57.021809 -29.397888 9.200532 1.880790849211783e-38 1768976227
-61.635685 -31.776592 7.095781 1.880790849211783e-38 1768976227
-62.004566 -31.966772 6.681929 1.880790849211783e-38 1768976227
-58.876152 -30.353903 9.134141 1.880790849211783e-38 1768976227
-59.046051 -30.441492 8.780270 1.880790849211783e-38 1768976227
-62.414055 -32.177887 6.209307 1.880790849211783e-38 1768976227
-63.098038 -32.530518 5.958101 1.880790849211783e-38 1768976227
-63.983353 -32.986946 5.585531 1.880790849211783e-38 1768976227
-67.058678 -34.572441 5.375903 1.880790849211783e-38 1768976227
-67.378937 -34.737556 5.014177 1.880790849211783e-38 1768976227
-50.832981 -26.207203 11.481384 1.880790849211783e-38 1768976227
-51.074684 -26.331814 10.936914 1.880790849211783e-38 1768976227
-45.411446 -23.412102 13.181129 1.880790849211783e-38 1768976227
-60.304344 -31.090214 16.699547 1.880790849211783e-38 1768976227
-51.587559 -26.596231 10.584034 1.880790849211783e-38 1768976227
-53.732368 -27.702000 10.480347 1.880790849211783e-38 1768976227
-49.735897 -25.641598 13.155244 1.880790849211783e-38 1768976227
-47.864281 -24.676674 12.329959 1.880790849211783e-38 1768976227
-54.098701 -27.890862 10.054127 1.880790849211783e-38 1768976227
-57.765747 -29.781429 10.164379 1.880790849211783e-38 1768976227
-49.292580 -25.413040 12.165079 1.880790849211783e-38 1768976227
-49.639866 -25.592087 11.839800 1.880790849211783e-38 1768976227
-59.572456 -30.485811 8.352374 1.880790849211783e-38 1768976227
-59.818493 -30.611719 8.043472 1.880790849211783e-38 1768976227
-61.070366 -31.252356 7.805126 1.880790849211783e-38 1768976227
-61.345619 -31.393215 7.361360 1.880790849211783e-38 1768976227
-57.671379 -29.512947 9.714710 1.880790849211783e-38 1768976227
-57.403942 -29.376087 9.247852 1.880790849211783e-38 1768976227
-61.555946 -31.500847 7.075632 1.880790849211783e-38 1768976227
-62.210762 -31.835947 6.693772 1.880790849211783e-38 1768976227
-58.839153 -30.110548 9.114269 1.880790849211783e-38 1768976227
-59.033611 -30.210060 8.764831 1.880790849211783e-38 1768976227
-62.633213 -32.052132 6.221464 1.880790849211783e-38 1768976227
-62.840851 -32.158390 5.924631 1.880790849211783e-38 1768976227
-63.345665 -32.416725 5.521303 1.880790849211783e-38 1768976227
-64.248817 -32.878906 5.142672 1.880790849211783e-38 1768976227
-67.312828 -34.446896 5.001504 1.880790849211783e-38 1768976227
-65.943764 -33.746284 4.430362 1.880790849211783e-38 1768976227
-51.312836 -26.259005 11.571826 1.880790849211783e-38 1768976227
-51.065075 -26.132214 10.917931 1.880790849211783e-38 1768976227
-45.657467 -23.364908 13.232025 1.880790849211783e-38 1768976227
-54.369129 -27.823044 15.032653 1.880790849211783e-38 1768976227
-51.603039 -26.407515 10.570821 1.880790849211783e-38 1768976227
-53.720238 -27.490976 10.461761 1.880790849211783e-38 1768976227
-49.758083 -25.463371 13.140738 1.880790849211783e-38 1768976227
-50.141708 -25.659687 12.896634 1.880790849211783e-38 1768976227
-54.166210 -27.719200 10.051090 1.880790849211783e-38 1768976227
-57.638687 -29.496218 10.126322 1.880790849211783e-38 1768976227
-49.276585 -25.216969 12.142307 1.880790849211783e-38 1768976227
-49.646755 -25.406399 11.823113 1.880790849211783e-38 1768976227
-62.145573 -31.566435 8.699751 1.880790849211783e-38 1768976227
-61.140991 -31.056166 8.208670 1.880790849211783e-38 1768976227
-61.336037 -31.155237 7.827036 1.880790849211783e-38 1768976227
-61.613266 -31.296055 7.382117 1.880790849211783e-38 1768976227
-57.590393 -29.252659 9.686162 1.880790849211783e-38 1768976227
-57.438736 -29.175627 9.239239 1.880790849211783e-38 1768976227
-61.794006 -31.387859 7.092082 1.880790849211783e-38 1768976227
-62.144260 -31.565765 6.676342 1.880790849211783e-38 1768976227
-58.724529 -29.828737 9.082537 1.880790849211783e-38 1768976227
-59.021187 -29.979422 8.749522 1.880790849211783e-38 1768976227
-62.769295 -31.883251 6.225401 1.880790849211783e-38 1768976227
-62.968464 -31.984417 5.927541 1.880790849211783e-38 1768976227
-63.465427 -32.236847 5.523242 1.880790849211783e-38 1768976227
-63.605534 -32.308010 5.083358 1.880790849211783e-38 1768976227
-65.810005 -33.427761 4.882327 1.880790849211783e-38 1768976227
-66.064835 -33.557198 4.431676 1.880790849211783e-38 1768976227
-51.330601 -26.073042 11.558047 1.880790849211783e-38 1768976227
-51.714577 -26.268078 11.039807 1.880790849211783e-38 1768976227
-54.367619 -27.615675 15.009138 1.880790849211783e-38 1768976227
-51.618408 -26.219231 10.557723 1.880790849211783e-38 1768976227
-53.685417 -27.269154 10.438915 1.880790849211783e-38 1768976227
-49.780071 -25.285460 13.126347 1.880790849211783e-38 1768976227
-50.157852 -25.477352 12.880965 1.880790849211783e-38 1768976227
-54.173218 -27.516930 10.036945 1.880790849211783e-38 1768976227
-60.564777 -30.763481 10.624047 1.880790849211783e-38 1768976227
-46.626167 -23.683456 11.471562 1.880790849211783e-38 1768976227
-49.653694 -25.221266 11.806597 1.880790849211783e-38 1768976227
-62.163509 -31.340048 8.688991 1.880790849211783e-38 1768976227
-60.166752 -30.333372 8.065551 1.880790849211783e-38 1768976227
-61.405396 -30.957844 7.823936 1.880790849211783e-38 1768976227
-61.882404 -31.198328 7.403056 1.880790849211783e-38 1768976227
-57.509937 -28.993927 9.657880 1.880790849211783e-38 1768976227
-57.351471 -28.914034 9.211133 1.880790849211783e-38 1768976227
-62.064430 -31.290098 7.112256 1.880790849211783e-38 1768976227
-62.331116 -31.424549 6.686204 1.880790849211783e-38 1768976227
-58.596931 -29.541939 9.048981 1.880790849211783e-38 1768976227
-59.008759 -29.749565 8.734339 1.880790849211783e-38 1768976227
-66.467186 -33.509769 3.964956 1.880790849211783e-38 1768976227
-62.802425 -31.662159 6.219188 1.880790849211783e-38 1768976227
-63.096157 -31.810246 5.930502 1.880790849211783e-38 1768976227
-63.575218 -32.051769 5.524359 1.880790849211783e-38 1768976227
-63.688877 -32.109070 5.082257 1.880790849211783e-38 1768976227
-65.205971 -32.873920 4.830138 1.880790849211783e-38 1768976227
-66.243637 -33.397068 4.436893 1.880790849211783e-38 1768976227
-51.348225 -25.887466 11.544381 1.880790849211783e-38 1768976227
-51.805382 -26.117949 11.042327 1.880790849211783e-38 1768976227
-54.366226 -27.409006 14.985864 1.880790849211783e-38 1768976227
-51.633659 -26.031372 10.544737 1.880790849211783e-38 1768976227
-53.588779 -27.017057 10.404233 1.880790849211783e-38 1768976227
-49.801868 -25.107864 13.112066 1.880790849211783e-38 1768976227
-50.173862 -25.295406 12.865425 1.880790849211783e-38 1768976227
-54.137081 -27.293484 10.014954 1.880790849211783e-38 1768976227
-59.854874 -30.176136 10.483505 1.880790849211783e-38 1768976227
-46.919125 -23.654514 11.526034 1.880790849211783e-38 1768976227
-49.660667 -25.036680 11.790247 1.880790849211783e-38 1768976227
-62.246014 -31.146587 8.687355 1.880790849211783e-38 1768976227
-62.425083 -31.236191 8.355622 1.880790849211783e-38 1768976227
-61.573555 -30.810104 7.833488 1.880790849211783e-38 1768976227
-61.967815 -31.007383 7.402054 1.880790849211783e-38 1768976227
-57.430000 -28.736753 9.629859 1.880790849211783e-38 1768976227
-57.264759 -28.654074 9.183288 1.880790849211783e-38 1768976227
-62.327843 -31.187536 7.131632 1.880790849211783e-38 1768976227
-62.604954 -31.326189 6.705414 1.880790849211783e-38 1768976227
-58.742542 -29.393524 9.057738 1.880790849211783e-38 1768976227
-58.996338 -29.520519 8.719284 1.880790849211783e-38 1768976227
-66.610321 -33.330395 3.967481 1.880790849211783e-38 1768976227
-62.922085 -31.484877 6.221607 1.880790849211783e-38 1768976227
-63.223930 -31.635918 5.933518 1.880790849211783e-38 1768976227
-63.662571 -31.855406 5.523578 1.880790849211783e-38 1768976227
-63.772156 -31.910233 5.081200 1.880790849211783e-38 1768976227
-65.266785 -32.658119 4.827325 1.880790849211783e-38 1768976227
-65.425003 -32.737286 4.375431 1.880790849211783e-38 1768976227
-51.365719 -25.702318 11.530837 1.880790849211783e-38 1768976227
-55.056767 -27.549238 11.717599 1.880790849211783e-38 1768976227
-54.364918 -27.203054 14.962824 1.880790849211783e-38 1768976227
-51.648792 -25.843962 10.531863 1.880790849211783e-38 1768976227
-53.460571 -26.750536 10.363632 1.880790849211783e-38 1768976227
-49.823486 -24.930614 13.097903 1.880790849211783e-38 1768976227
-50.189735 -25.113882 12.850019 1.880790849211783e-38 1768976227
-54.101028 -27.071009 9.993137 1.880790849211783e-38 1768976227
-57.644638 -28.844156 10.081105 1.880790849211783e-38 1768976227
-47.370853 -23.703371 11.619392 1.880790849211783e-38 1768976227
-49.694866 -24.866259 11.780510 1.880790849211783e-38 1768976227
-62.336658 -30.957216 8.686935 1.880790849211783e-38 1768976227
-62.510010 -31.043306 8.354420 1.880790849211783e-38 1768976227
-61.742104 -30.661955 7.843131 1.880790849211783e-38 1768976227
-61.912537 -30.746593 7.384341 1.880790849211783e-38 1768976227
-57.350563 -28.481054 9.602092 1.880790849211783e-38 1768976227
-57.178604 -28.395655 9.155695 1.880790849211783e-38 1768976227
-62.471279 -31.024071 7.137304 1.880790849211783e-38 1768976227
-62.800423 -31.187529 6.716246 1.880790849211783e-38 1768976227
-58.884167 -29.242661 9.065935 1.880790849211783e-38 1768976227
-58.941536 -29.271156 8.698098 1.880790849211783e-38 1768976227
-66.753647 -33.150753 3.970044 1.880790849211783e-38 1768976227
-65.809135 -32.681690 3.553393 1.880790849211783e-38 1768976227
-63.144768 -31.358534 6.234245 1.880790849211783e-38 1768976227
-63.351833 -31.461363 5.936590 1.880790849211783e-38 1768976227
-65.902435 -32.728031 3.062072 1.880790849211783e-38 1768976227
-65.967628 -32.760406 2.718810 1.880790849211783e-38 1768976227
-63.745708 -31.656971 5.522481 1.880790849211783e-38 1768976227
-63.855400 -31.711445 5.080190 1.880790849211783e-38 1768976227
-64.671944 -32.116951 4.776143 1.880790849211783e-38 1768976227
-65.451515 -32.504097 4.370628 1.880790849211783e-38 1768976227
-53.268456 -26.453825 11.940008 1.880790849211783e-38 1768976227
-55.189644 -27.407917 11.728233 1.880790849211783e-38 1768976227
-54.363712 -26.997746 14.940014 1.880790849211783e-38 1768976227
-51.656609 -25.653362 10.517632 1.880790849211783e-38 1768976227
-53.205517 -26.422571 10.298694 1.880790849211783e-38 1768976227
-49.844898 -24.753645 13.083848 1.880790849211783e-38 1768976227
-50.205490 -24.932718 12.834743 1.880790849211783e-38 1768976227
-54.065022 -26.849411 9.971482 1.880790849211783e-38 1768976227
-57.564278 -28.587189 10.051928 1.880790849211783e-38 1768976227
-47.830509 -23.753269 11.714514 1.880790849211783e-38 1768976227
-49.739555 -24.701324 11.773389 1.880790849211783e-38 1768976227
-60.245190 -29.692394 8.382961 1.880790849211783e-38 1768976227
-60.928452 -30.029144 8.130904 1.880790849211783e-38 1768976227
-61.911015 -30.513409 7.852861 1.880790849211783e-38 1768976227
-61.721382 -30.419949 7.350566 1.880790849211783e-38 1768976227
-57.271629 -28.226847 9.574579 1.880790849211783e-38 1768976227
-57.092972 -28.138794 9.128353 1.880790849211783e-38 1768976227
-62.440403 -30.774323 7.123140 1.880790849211783e-38 1768976227
-62.878639 -30.990313 6.714584 1.880790849211783e-38 1768976227
-59.026157 -29.091581 9.074246 1.880790849211783e-38 1768976227
-60.488415 -29.812271 8.913064 1.880790849211783e-38 1768976227
-65.931793 -32.495087 3.915319 1.880790849211783e-38 1768976227
-65.999840 -32.528625 3.558377 1.880790849211783e-38 1768976227
-63.223324 -31.160194 6.232695 1.880790849211783e-38 1768976227
-63.435833 -31.264931 5.935598 1.880790849211783e-38 1768976227
-66.117401 -32.586567 3.067479 1.880790849211783e-38 1768976227
-66.188728 -32.621719 2.723855 1.880790849211783e-38 1768976227
-63.828793 -31.458605 5.521435 1.880790849211783e-38 1768976227
-63.938606 -31.512726 5.079225 1.880790849211783e-38 1768976227
-64.727592 -31.901585 4.773125 1.880790849211783e-38 1768976227
-65.477951 -32.271408 4.365874 1.880790849211783e-38 1768976227
-53.332653 -26.285484 11.936574 1.880790849211783e-38 1768976227
-55.322666 -27.266281 11.738972 1.880790849211783e-38 1768976227
-54.275879 -26.750362 14.893635 1.880790849211783e-38 1768976227
-54.194370 -26.710192 11.017885 1.880790849211783e-38 1768976227
-52.939079 -26.091511 10.231843 1.880790849211783e-38 1768976227
-49.866142 -24.576986 13.069908 1.880790849211783e-38 1768976227
-50.221107 -24.751934 12.819592 1.880790849211783e-38 1768976227
-53.940098 -26.584871 9.933610 1.880790849211783e-38 1768976227
-57.484436 -28.331732 10.023020 1.880790849211783e-38 1768976227
-50.117672 -24.700954 12.256377 1.880790849211783e-38 1768976227
-49.784271 -24.536633 11.766403 1.880790849211783e-38 1768976227
-61.427021 -30.044945 8.534762 1.880790849211783e-38 1768976227
-60.692146 -29.685505 8.087384 1.880790849211783e-38 1768976227
-61.438553 -30.050585 7.781402 1.880790849211783e-38 1768976227
-61.802155 -30.228428 7.349294 1.880790849211783e-38 1768976227
-57.193180 -27.974106 9.547316 1.880790849211783e-38 1768976227
-57.007881 -27.883472 9.101261 1.880790849211783e-38 1768976227
-61.396534 -30.030035 6.993693 1.880790849211783e-38 1768976227
-62.889542 -30.760286 6.705811 1.880790849211783e-38 1768976227
-59.168491 -28.940264 9.082668 1.880790849211783e-38 1768976227
-60.604443 -29.642609 8.916946 1.880790849211783e-38 1768976227
-66.163872 -32.361816 3.923288 1.880790849211783e-38 1768976227
-66.249626 -32.403759 3.566558 1.880790849211783e-38 1768976227
-63.301819 -30.961941 6.231199 1.880790849211783e-38 1768976227
-63.514534 -31.065981 5.934168 1.880790849211783e-38 1768976227
-66.345604 -32.450703 3.073512 1.880790849211783e-38 1768976227
-66.404991 -32.479748 2.728711 1.880790849211783e-38 1768976227
-63.484669 -31.051371 5.483541 1.880790849211783e-38 1768976227
-64.019295 -31.312870 5.078110 1.880790849211783e-38 1768976227
-64.783165 -31.686487 4.770154 1.880790849211783e-38 1768976227
-65.504326 -32.039223 4.361170 1.880790849211783e-38 1768976227
-49.350372 -24.138062 11.028942 1.880790849211783e-38 1768976227
-55.421513 -27.107555 11.742545 1.880790849211783e-38 1768976227
-56.116566 -27.447515 15.375946 1.880790849211783e-38 1768976227
-55.855736 -27.319939 11.338842 1.880790849211783e-38 1768976227
-55.401291 -27.097664 10.691883 1.880790849211783e-38 1768976227
-49.887184 -24.400625 13.056075 1.880790849211783e-38 1768976227
-50.236614 -24.571535 12.804575 1.880790849211783e-38 1768976227
-53.809818 -26.319250 9.894955 1.880790849211783e-38 1768976227
-57.456226 -28.102766 10.003277 1.880790849211783e-38 1768976227
-50.162525 -24.535299 12.249194 1.880790849211783e-38 1768976227
-49.829018 -24.372175 11.759553 1.880790849211783e-38 1768976227
-61.534264 -29.867752 8.537107 1.880790849211783e-38 1768976227
-60.837017 -29.529320 8.094785 1.880790849211783e-38 1768976227
-61.455101 -29.829327 7.772069 1.880790849211783e-38 1768976227
-61.747055 -29.971037 7.331959 1.880790849211783e-38 1768976227
-57.117683 -27.724014 9.520712 1.880790849211783e-38 1768976227
-56.923321 -27.629675 9.074416 1.880790849211783e-38 1768976227
-61.837833 -30.015097 7.033617 1.880790849211783e-38 1768976227
-62.884567 -30.523167 6.695434 1.880790849211783e-38 1768976227
-58.569408 -28.428656 8.977504 1.880790849211783e-38 1768976227
-60.652981 -29.439991 8.910983 1.880790849211783e-38 1768976227
-66.394310 -32.226742 3.931171 1.880790849211783e-38 1768976227
-66.475304 -32.266056 3.573453 1.880790849211783e-38 1768976227
-63.198872 -30.675724 6.211930 1.880790849211783e-38 1768976227
-63.593159 -30.867105 5.932789 1.880790849211783e-38 1768976227
-66.566048 -32.310101 3.079195 1.880790849211783e-38 1768976227
-66.613777 -32.333263 2.733271 1.880790849211783e-38 1768976227
-63.800587 -30.967789 5.502736 1.880790849211783e-38 1768976227
-64.088562 -31.107569 5.076138 1.880790849211783e-38 1768976227
-66.675766 -32.363350 2.235856 1.880790849211783e-38 1768976227
-64.838661 -31.471651 4.767230 1.880790849211783e-38 1768976227
-65.530624 -31.807524 4.356514 1.880790849211783e-38 1768976227
-49.372585 -23.964668 11.017704 1.880790849211783e-38 1768976227
-55.493980 -26.935894 11.740633 1.880790849211783e-38 1768976227
-48.323242 -23.455334 15.417163 1.880790849211783e-38 1768976227
-55.108376 -26.748726 15.803795 1.880790849211783e-38 1768976227
-56.341362 -27.347200 15.414870 1.880790849211783e-38 1768976227
-55.928696 -27.146900 11.336982 1.880790849211783e-38 1768976227
-55.261963 -26.823277 10.649334 1.880790849211783e-38 1768976227
-54.786587 -26.592535 14.317251 1.880790849211783e-38 1768976227
-50.251991 -24.391518 12.789685 1.880790849211783e-38 1768976227
-53.680408 -26.055614 9.856661 1.880790849211783e-38 1768976227
-57.474445 -27.897179 9.991755 1.880790849211783e-38 1768976227
-50.247528 -24.389349 12.251933 1.880790849211783e-38 1768976227
-49.896049 -24.218748 11.758081 1.880790849211783e-38 1768976227
-61.528622 -29.636057 8.523885 1.880790849211783e-38 1768976227
-60.982113 -29.372826 8.102266 1.880790849211783e-38 1768976227
-61.370697 -29.559988 7.750083 1.880790849211783e-38 1768976227
-61.692005 -29.714752 7.314747 1.880790849211783e-38 1768976227
-57.109890 -27.507717 9.505540 1.880790849211783e-38 1768976227
-58.987347 -28.412020 9.389749 1.880790849211783e-38 1768976227
-62.272774 -29.994488 7.072767 1.880790849211783e-38 1768976227
-61.168465 -29.462585 6.503227 1.880790849211783e-38 1768976227
-58.651382 -28.250196 8.976968 1.880790849211783e-38 1768976227
-58.877792 -28.359253 8.637571 1.880790849211783e-38 1768976227
-65.692200 -31.641499 3.883931 1.880790849211783e-38 1768976227
-66.524269 -32.042274 3.570873 1.880790849211783e-38 1768976227
-63.128712 -30.406763 6.195992 1.880790849211783e-38 1768976227
-63.598209 -30.632902 5.924614 1.880790849211783e-38 1768976227
-66.779900 -32.165405 3.084586 1.880790849211783e-38 1768976227
-66.823250 -32.186287 2.737871 1.880790849211783e-38 1768976227
-64.045471 -30.848333 5.515808 1.880790849211783e-38 1768976227
-63.883545 -30.770338 5.052527 1.880790849211783e-38 1768976227
-66.885544 -32.216290 2.239622 1.880790849211783e-38 1768976227
-64.248611 -30.946177 4.716963 1.880790849211783e-38 1768976227
-65.070778 -31.342184 4.319639 1.880790849211783e-38 1768976227
-49.473866 -23.829729 11.024217 1.880790849211783e-38 1768976227
-55.529087 -26.746302 11.730941 1.880790849211783e-38 1768976227
-47.418045 -22.839516 15.504394 1.880790849211783e-38 1768976227
-48.354446 -23.290546 15.404636 1.880790849211783e-38 1768976227
-55.107086 -26.543041 15.780396 1.880790849211783e-38 1768976227
-56.495903 -27.211981 15.434628 1.880790849211783e-38 1768976227
-56.001549 -26.973871 11.335207 1.880790849211783e-38 1768976227
-55.031651 -26.506704 10.589497 1.880790849211783e-38 1768976227
-54.811295 -26.400566 14.302835 1.880790849211783e-38 1768976227
-55.148819 -26.563143 14.015529 1.880790849211783e-38 1768976227
-53.421108 -25.730968 9.794755 1.880790849211783e-38 1768976227
-57.521336 -27.705896 9.985333 1.880790849211783e-38 1768976227
-50.466473 -24.307829 12.287387 1.880790849211783e-38 1768976227
-50.002945 -24.084566 11.766100 1.880790849211783e-38 1768976227
-60.473412 -28.903425 8.365586 1.880790849211783e-38 1768976227
-61.110554 -29.207947 8.107590 1.880790849211783e-38 1768976227
-61.415768 -29.353827 7.744561 1.880790849211783e-38 1768976227
-61.637001 -29.459568 7.297658 1.880790849211783e-38 1768976227
-57.102169 -27.292131 9.490512 1.880790849211783e-38 1768976227
-59.018532 -28.208061 9.381127 1.880790849211783e-38 1768976227
-62.117966 -29.689445 7.044982 1.880790849211783e-38 1768976227
-61.911110 -29.590578 6.572664 1.880790849211783e-38 1768976227
-58.794933 -28.101191 8.985927 1.880790849211783e-38 1768976227
-59.147461 -28.269684 8.664585 1.880790849211783e-38 1768976227
-65.701012 -31.401970 3.878835 1.880790849211783e-38 1768976227
-66.511490 -31.789339 3.565025 1.880790849211783e-38 1768976227
-63.039711 -30.129995 6.178309 1.880790849211783e-38 1768976227
-63.117161 -30.167011 5.871299 1.880790849211783e-38 1768976227
-66.989883 -32.017990 3.089811 1.880790849211783e-38 1768976227
