# .PCD v0.7 - Point Cloud Data file format
VERSION 0.7
FIELDS x y z rgb label
SIZE 4 4 4 4 4
TYPE F F F F U
COUNT 1 1 1 1 1
WIDTH 760
HEIGHT 1
VIEWPOINT 0 0 0 1 0 0 0
POINTS 760
DATA ascii
38.244301 7.654739 0.028531 1.880790849211783e-38 1768976227
39.005535 7.684822 4.961931 1.880790849211783e-38 1768976227
39.059532 7.695461 4.765355 1.880790849211783e-38 1768976227
38.332863 7.552293 -0.226986 1.880790849211783e-38 1768976227
38.889977 7.662055 -0.457156 1.880790849211783e-38 1768976227
38.652718 7.615310 4.482182 1.880790849211783e-38 1768976227
38.618816 7.608631 4.204685 1.880790849211783e-38 1768976227
39.024590 7.688576 4.069992 1.880790849211783e-38 1768976227
38.589149 7.602786 3.767303 1.880790849211783e-38 1768976227
38.631607 7.611151 2.097319 1.880790849211783e-38 1768976227
38.063141 7.499153 1.876130 1.880790849211783e-38 1768976227
38.446133 7.574609 3.464979 1.880790849211783e-38 1768976227
38.527252 7.590591 3.295697 1.880790849211783e-38 1768976227
38.079090 7.502294 1.615108 1.880790849211783e-38 1768976227
38.254562 7.536866 1.439237 1.880790849211783e-38 1768976227
38.444260 7.574240 3.040298 1.880790849211783e-38 1768976227
38.248947 7.535760 2.777814 1.880790849211783e-38 1768976227
38.249435 7.535857 1.176065 1.880790849211783e-38 1768976227
38.733559 7.631238 0.997272 1.880790849211783e-38 1768976227
39.483780 7.779046 2.661837 1.880790849211783e-38 1768976227
38.892612 7.662574 2.370787 1.880790849211783e-38 1768976227
38.251461 7.536255 -0.696705 1.880790849211783e-38 1768976227
39.081612 7.699810 -0.931672 1.880790849211783e-38 1768976227
37.845142 7.456203 0.666889 1.880790849211783e-38 1768976227
38.362709 7.558173 0.476193 1.880790849211783e-38 1768976227
38.538452 7.592797 -1.159602 1.880790849211783e-38 1768976227
38.993382 7.682427 -1.368268 1.880790849211783e-38 1768976227
38.842663 7.652733 0.239370 1.880790849211783e-38 1768976227
39.070553 7.697632 0.029130 1.880790849211783e-38 1768976227
38.650127 7.493782 4.913822 1.880790849211783e-38 1768976227
38.685268 7.500597 4.716912 1.880790849211783e-38 1768976227
38.584854 7.481127 -0.228344 1.880790849211783e-38 1768976227
38.866985 7.535829 -0.456617 1.880790849211783e-38 1768976227
38.383198 7.442029 4.448305 1.880790849211783e-38 1768976227
38.695812 7.502640 4.210585 1.880790849211783e-38 1768976227
38.871326 7.536670 4.051619 1.880790849211783e-38 1768976227
39.123138 7.585495 3.817184 1.880790849211783e-38 1768976227
38.502010 7.465065 2.089051 1.880790849211783e-38 1768976227
39.321571 7.623968 1.937016 1.880790849211783e-38 1768976227
39.202503 7.600882 3.531065 1.880790849211783e-38 1768976227
39.331440 7.625881 3.362506 1.880790849211783e-38 1768976227
39.175777 7.595700 1.660644 1.880790849211783e-38 1768976227
38.897816 7.541806 1.462576 1.880790849211783e-38 1768976227
39.634548 7.684650 3.132583 1.880790849211783e-38 1768976227
39.299278 7.619646 2.852412 1.880790849211783e-38 1768976227
39.183632 7.597223 1.204079 1.880790849211783e-38 1768976227
38.749790 7.513105 0.997102 1.880790849211783e-38 1768976227
39.175457 7.595638 2.639495 1.880790849211783e-38 1768976227
38.801189 7.523072 2.363820 1.880790849211783e-38 1768976227
38.741508 7.511500 -0.705214 1.880790849211783e-38 1768976227
39.023426 7.566161 -0.929736 1.880790849211783e-38 1768976227
38.807579 7.524311 0.683446 1.880790849211783e-38 1768976227
39.248318 7.609765 0.486898 1.880790849211783e-38 1768976227
38.609749 7.485954 -1.161062 1.880790849211783e-38 1768976227
38.244411 7.415120 -1.341196 1.880790849211783e-38 1768976227
39.351002 7.629673 0.242360 1.880790849211783e-38 1768976227
38.891251 7.540534 0.028979 1.880790849211783e-38 1768976227
38.350857 7.315819 4.872947 1.880790849211783e-38 1768976227
38.632442 7.369534 4.707739 1.880790849211783e-38 1768976227
38.698963 7.382223 -0.228886 1.880790849211783e-38 1768976227
39.206043 7.478954 -0.460333 1.880790849211783e-38 1768976227
39.053810 7.449914 4.523399 1.880790849211783e-38 1768976227
38.466507 7.337880 4.183207 1.880790849211783e-38 1768976227
39.280613 7.493178 4.091905 1.880790849211783e-38 1768976227
39.125290 7.463549 3.815180 1.880790849211783e-38 1768976227
38.993855 7.438477 2.114511 1.880790849211783e-38 1768976227
39.168076 7.471711 1.928336 1.880790849211783e-38 1768976227
39.250973 7.487524 3.533381 1.880790849211783e-38 1768976227
38.916656 7.423751 3.325117 1.880790849211783e-38 1768976227
39.145836 7.467469 1.658413 1.880790849211783e-38 1768976227
39.365547 7.509381 1.479305 1.880790849211783e-38 1768976227
39.256790 7.488635 3.100927 1.880790849211783e-38 1768976227
38.930565 7.426404 2.824012 1.880790849211783e-38 1768976227
38.842098 7.409528 1.192892 1.880790849211783e-38 1768976227
38.890469 7.418755 1.000141 1.880790849211783e-38 1768976227
38.797092 7.400943 2.612486 1.880790849211783e-38 1768976227
38.945599 7.429273 2.371242 1.880790849211783e-38 1768976227
39.294449 7.495819 -0.714865 1.880790849211783e-38 1768976227
38.785141 7.398663 -0.923523 1.880790849211783e-38 1768976227
38.800350 7.401564 0.682922 1.880790849211783e-38 1768976227
39.487186 7.532585 0.489578 1.880790849211783e-38 1768976227
38.604324 7.364170 -1.160226 1.880790849211783e-38 1768976227
38.651402 7.373150 -1.354683 1.880790849211783e-38 1768976227
39.381500 7.512424 0.242407 1.880790849211783e-38 1768976227
39.325821 7.501803 0.029286 1.880790849211783e-38 1768976227
39.604900 7.431316 5.029418 1.880790849211783e-38 1768976227
39.099476 7.336480 4.761934 1.880790849211783e-38 1768976227
39.363602 7.386040 -0.232684 1.880790849211783e-38 1768976227
39.840313 7.475488 -0.467513 1.880790849211783e-38 1768976227
38.501137 7.224210 4.456842 1.880790849211783e-38 1768976227
39.129227 7.342062 4.252850 1.880790849211783e-38 1768976227
39.023441 7.322213 4.062796 1.880790849211783e-38 1768976227
39.567024 7.424209 3.856054 1.880790849211783e-38 1768976227
39.616673 7.433524 2.147059 1.880790849211783e-38 1768976227
39.784428 7.465003 1.957563 1.880790849211783e-38 1768976227
38.751717 7.271227 3.486448 1.880790849211783e-38 1768976227
38.429428 7.210755 3.281614 1.880790849211783e-38 1768976227
39.065868 7.330174 1.654081 1.880790849211783e-38 1768976227
39.625313 7.435146 1.488217 1.880790849211783e-38 1768976227
39.743916 7.457400 3.137614 1.880790849211783e-38 1768976227
39.227547 7.360510 2.843931 1.880790849211783e-38 1768976227
39.212536 7.357695 1.203581 1.880790849211783e-38 1768976227
38.868729 7.293184 0.999012 1.880790849211783e-38 1768976227
39.660778 7.441802 2.669121 1.880790849211783e-38 1768976227
39.030617 7.323559 2.375063 1.880790849211783e-38 1768976227
39.620708 7.434283 -0.720389 1.880790849211783e-38 1768976227
38.989094 7.315769 -0.927850 1.880790849211783e-38 1768976227
39.631580 7.436322 0.697155 1.880790849211783e-38 1768976227
39.642063 7.438289 0.491218 1.880790849211783e-38 1768976227
39.200809 7.355494 -1.177481 1.880790849211783e-38 1768976227
39.113102 7.339036 -1.370083 1.880790849211783e-38 1768976227
39.316307 7.377165 0.241868 1.880790849211783e-38 1768976227
39.234104 7.361741 0.029201 1.880790849211783e-38 1768976227
39.155773 7.224866 4.766115 1.880790849211783e-38 1768976227
39.263695 7.244779 -0.231964 1.880790849211783e-38 1768976227
39.206604 7.234245 -0.459819 1.880790849211783e-38 1768976227
39.388489 7.267806 4.557003 1.880790849211783e-38 1768976227
39.558239 7.299127 4.297066 1.880790849211783e-38 1768976227
39.351784 7.261033 4.094682 1.880790849211783e-38 1768976227
39.137394 7.221475 3.812044 1.880790849211783e-38 1768976227
39.104034 7.215320 2.118087 1.880790849211783e-38 1768976227
39.830551 7.349373 1.958733 1.880790849211783e-38 1768976227
39.500183 7.288414 3.551792 1.880790849211783e-38 1768976227
39.354504 7.261535 3.358723 1.880790849211783e-38 1768976227
38.924793 7.182247 1.647183 1.880790849211783e-38 1768976227
39.263126 7.244674 1.473787 1.880790849211783e-38 1768976227
39.721161 7.329189 3.134059 1.880790849211783e-38 1768976227
39.416077 7.272896 2.855996 1.880790849211783e-38 1768976227
39.428268 7.275145 1.209524 1.880790849211783e-38 1768976227
39.827587 7.348826 1.023082 1.880790849211783e-38 1768976227
39.358658 7.262302 2.647303 1.880790849211783e-38 1768976227
39.581573 7.303433 2.407238 1.880790849211783e-38 1768976227
39.206581 7.234241 -0.712460 1.880790849211783e-38 1768976227
39.092518 7.213194 -0.929789 1.880790849211783e-38 1768976227
39.813061 7.346145 0.699954 1.880790849211783e-38 1768976227
39.666489 7.319101 0.491244 1.880790849211783e-38 1768976227
39.623608 7.311189 -1.189513 1.880790849211783e-38 1768976227
39.317039 7.254622 -1.376454 1.880790849211783e-38 1768976227
39.582638 7.303628 0.243369 1.880790849211783e-38 1768976227
39.018490 7.199534 0.029024 1.880790849211783e-38 1768976227
39.634518 7.189663 4.821727 1.880790849211783e-38 1768976227
39.134129 7.098893 -0.231071 1.880790849211783e-38 1768976227
39.601810 7.183729 -0.464198 1.880790849211783e-38 1768976227
38.955292 7.066453 4.504399 1.880790849211783e-38 1768976227
39.454144 7.156944 4.283394 1.880790849211783e-38 1768976227
39.303143 7.129552 4.087365 1.880790849211783e-38 1768976227
39.451817 7.156521 3.840549 1.880790849211783e-38 1768976227
39.654041 7.193204 2.146693 1.880790849211783e-38 1768976227
40.092232 7.272691 1.970514 1.880790849211783e-38 1768976227
39.038483 7.081542 3.508341 1.880790849211783e-38 1768976227
40.334415 7.316623 3.440455 1.880790849211783e-38 1768976227
39.905712 7.238858 1.687761 1.880790849211783e-38 1768976227
39.546616 7.173717 1.483609 1.880790849211783e-38 1768976227
40.488007 7.344485 3.192802 1.880790849211783e-38 1768976227
40.154629 7.284010 2.907905 1.880790849211783e-38 1768976227
39.770599 7.214347 1.219352 1.880790849211783e-38 1768976227
39.656445 7.193640 1.018124 1.880790849211783e-38 1768976227
39.653740 7.193150 2.665679 1.880790849211783e-38 1768976227
39.186798 7.108447 2.381914 1.880790849211783e-38 1768976227
39.495686 7.164479 -0.717317 1.880790849211783e-38 1768976227
40.356930 7.320707 -0.959333 1.880790849211783e-38 1768976227
39.492867 7.163967 0.693942 1.880790849211783e-38 1768976227
39.620907 7.187194 0.490409 1.880790849211783e-38 1768976227
39.336628 7.135627 -1.180246 1.880790849211783e-38 1768976227
39.822739 7.223806 -1.393389 1.880790849211783e-38 1768976227
39.998341 7.255660 0.245790 1.880790849211783e-38 1768976227
39.161709 7.103896 0.029115 1.880790849211783e-38 1768976227
40.131157 7.154807 4.879498 1.880790849211783e-38 1768976227
40.177452 7.163062 -0.237102 1.880790849211783e-38 1768976227
39.412289 7.026643 -0.461726 1.880790849211783e-38 1768976227
40.329800 7.190222 4.660804 1.880790849211783e-38 1768976227
39.822117 7.099710 4.321000 1.880790849211783e-38 1768976227
39.750645 7.086967 4.131662 1.880790849211783e-38 1768976227
39.647640 7.068603 3.857519 1.880790849211783e-38 1768976227
40.091473 7.147733 2.169197 1.880790849211783e-38 1768976227
39.588100 7.057988 1.944681 1.880790849211783e-38 1768976227
39.886696 7.111224 3.582625 1.880790849211783e-38 1768976227
40.606007 7.239466 3.461744 1.880790849211783e-38 1768976227
39.862675 7.106941 1.685027 1.880790849211783e-38 1768976227
40.025646 7.135996 1.500766 1.880790849211783e-38 1768976227
40.215725 7.169885 3.169611 1.880790849211783e-38 1768976227
39.540852 7.049565 2.861904 1.880790849211783e-38 1768976227
39.722702 7.081985 1.217224 1.880790849211783e-38 1768976227
39.404915 7.025329 1.011118 1.880790849211783e-38 1768976227
39.516220 7.045173 2.654994 1.880790849211783e-38 1768976227
40.159439 7.159850 2.439711 1.880790849211783e-38 1768976227
39.909748 7.115334 -0.724444 1.880790849211783e-38 1768976227
39.308369 7.008117 -0.933901 1.880790849211783e-38 1768976227
39.979927 7.127846 0.702119 1.880790849211783e-38 1768976227
40.495392 7.219745 0.500962 1.880790849211783e-38 1768976227
40.066906 7.143353 -1.201505 1.880790849211783e-38 1768976227
39.697903 7.077564 -1.388268 1.880790849211783e-38 1768976227
39.693943 7.076859 0.243787 1.880790849211783e-38 1768976227
39.678001 7.074017 0.029483 1.880790849211783e-38 1768976227
40.451591 7.086123 4.915839 1.880790849211783e-38 1768976227
40.255703 7.051809 -0.237438 1.880790849211783e-38 1768976227
40.616547 7.115020 -0.475580 1.880790849211783e-38 1768976227
39.935490 6.995716 4.612775 1.880790849211783e-38 1768976227
40.622826 7.116121 4.405534 1.880790849211783e-38 1768976227
40.093170 7.023337 4.165043 1.880790849211783e-38 1768976227
40.108875 7.026089 3.900316 1.880790849211783e-38 1768976227
40.173992 7.037496 2.172504 1.880790849211783e-38 1768976227
40.388706 7.075108 1.982952 1.880790849211783e-38 1768976227
40.739658 7.136586 3.657288 1.880790849211783e-38 1768976227
39.852219 6.981129 3.395671 1.880790849211783e-38 1768976227
40.131752 7.030096 1.695497 1.880790849211783e-38 1768976227
40.790897 7.145562 1.528644 1.880790849211783e-38 1768976227
40.426758 7.081773 3.184546 1.880790849211783e-38 1768976227
40.468727 7.089126 2.927501 1.880790849211783e-38 1768976227
40.421944 7.080931 1.237990 1.880790849211783e-38 1768976227
40.617970 7.115269 1.041689 1.880790849211783e-38 1768976227
40.357376 7.069619 2.710064 1.880790849211783e-38 1768976227
40.336090 7.065891 2.449137 1.880790849211783e-38 1768976227
40.606216 7.113211 -0.736694 1.880790849211783e-38 1768976227
40.302578 7.060020 -0.957011 1.880790849211783e-38 1768976227
39.864456 6.983273 0.699718 1.880790849211783e-38 1768976227
40.297379 7.059110 0.498246 1.880790849211783e-38 1768976227
40.226879 7.046760 -1.205660 1.880790849211783e-38 1768976227
40.403419 7.077685 -1.412187 1.880790849211783e-38 1768976227
40.589455 7.110275 0.249154 1.880790849211783e-38 1768976227
40.804817 7.148001 0.030304 1.880790849211783e-38 1768976227
41.044384 7.062450 4.985266 1.880790849211783e-38 1768976227
41.133911 7.077855 -0.242490 1.880790849211783e-38 1768976227
40.948559 7.045962 -0.479217 1.880790849211783e-38 1768976227
40.564625 6.979899 4.682992 1.880790849211783e-38 1768976227
40.605175 6.986876 4.401314 1.880790849211783e-38 1768976227
40.483913 6.966011 4.203434 1.880790849211783e-38 1768976227
40.840755 7.027412 3.969407 1.880790849211783e-38 1768976227
40.895134 7.036770 2.210344 1.880790849211783e-38 1768976227
40.646404 6.993971 1.994559 1.880790849211783e-38 1768976227
41.300289 7.106483 3.705676 1.880790849211783e-38 1768976227
40.437580 6.958038 3.443744 1.880790849211783e-38 1768976227
40.956425 7.047315 1.729432 1.880790849211783e-38 1768976227
40.800713 7.020522 1.528211 1.880790849211783e-38 1768976227
41.102631 7.072473 3.236091 1.880790849211783e-38 1768976227
41.638084 7.164607 3.010515 1.880790849211783e-38 1768976227
41.136780 7.078349 1.259224 1.880790849211783e-38 1768976227
40.194530 6.916217 1.030290 1.880790849211783e-38 1768976227
40.714359 7.005663 2.732605 1.880790849211783e-38 1768976227
40.735508 7.009302 2.472094 1.880790849211783e-38 1768976227
39.774162 6.843885 -0.721221 1.880790849211783e-38 1768976227
41.343666 7.113948 -0.981219 1.880790849211783e-38 1768976227
40.972050 7.050004 0.718783 1.880790849211783e-38 1768976227
41.018684 7.058029 0.506899 1.880790849211783e-38 1768976227
41.037560 7.061276 -1.229313 1.880790849211783e-38 1768976227
40.306431 6.935472 -1.408060 1.880790849211783e-38 1768976227
40.797459 7.019962 0.250300 1.880790849211783e-38 1768976227
40.467022 6.963105 0.030037 1.880790849211783e-38 1768976227
37.070171 -78.470779 10.831944 1.880790849211783e-38 1768976227
36.945217 -78.206276 10.353417 1.880790849211783e-38 1768976227
36.539215 -77.346848 9.732536 1.880790849211783e-38 1768976227
36.711723 -77.712006 9.181140 1.880790849211783e-38 1768976227
37.108772 -78.552490 11.482545 1.880790849211783e-38 1768976227
36.619270 -78.125481 10.768987 1.880790849211783e-38 1768976227
36.521809 -77.917557 10.300567 1.880790849211783e-38 1768976227
36.364632 -77.582214 9.748309 1.880790849211783e-38 1768976227
36.198963 -77.228775 9.111112 1.880790849211783e-38 1768976227
41.050961 -87.580276 14.504192 1.880790849211783e-38 1768976227
36.563984 -78.007523 11.386714 1.880790849211783e-38 1768976227
31.213512 -66.592545 12.749999 1.880790849211783e-38 1768976227
36.116318 -77.661095 10.689912 1.880790849211783e-38 1768976227
36.169170 -77.774734 10.267220 1.880790849211783e-38 1768976227
36.102013 -77.630333 9.740628 1.880790849211783e-38 1768976227
36.206306 -77.854599 9.172019 1.880790849211783e-38 1768976227
40.894043 -87.934654 14.542388 1.880790849211783e-38 1768976227
37.386528 -80.392426 12.715120 1.880790849211783e-38 1768976227
36.671642 -78.855209 11.992011 1.880790849211783e-38 1768976227
36.353073 -78.170189 11.394402 1.880790849211783e-38 1768976227
31.451288 -67.629852 13.601225 1.880790849211783e-38 1768976227
30.825935 -66.285156 12.673285 1.880790849211783e-38 1768976227
40.415756 -86.906197 14.989756 1.880790849211783e-38 1768976227
35.734241 -77.449570 10.645912 1.880790849211783e-38 1768976227
35.906017 -77.821884 10.259100 1.880790849211783e-38 1768976227
35.801247 -77.594795 9.722577 1.880790849211783e-38 1768976227
35.799309 -77.590599 9.128156 1.880790849211783e-38 1768976227
40.695545 -88.202591 14.566335 1.880790849211783e-38 1768976227
36.288452 -78.650757 11.944220 1.880790849211783e-38 1768976227
35.980755 -77.983856 11.351371 1.880790849211783e-38 1768976227
30.989769 -67.166512 13.489182 1.880790849211783e-38 1768976227
30.579056 -66.276337 12.653910 1.880790849211783e-38 1768976227
39.477020 -85.561584 15.565495 1.880790849211783e-38 1768976227
40.200706 -87.130089 15.007392 1.880790849211783e-38 1768976227
35.878567 -78.382912 10.759284 1.880790849211783e-38 1768976227
35.572151 -77.713501 10.230624 1.880790849211783e-38 1768976227
35.558468 -77.683601 9.720223 1.880790849211783e-38 1768976227
40.142021 -87.697166 14.462807 1.880790849211783e-38 1768976227
35.956036 -78.552162 11.912724 1.880790849211783e-38 1768976227
35.278778 -77.072571 11.203187 1.880790849211783e-38 1768976227
30.850809 -67.398911 13.517110 1.880790849211783e-38 1768976227
30.319836 -66.238907 12.629248 1.880790849211783e-38 1768976227
39.326195 -85.914848 15.608115 1.880790849211783e-38 1768976227
39.953403 -87.285095 15.013269 1.880790849211783e-38 1768976227
35.034740 -77.153458 10.575971 1.880790849211783e-38 1768976227
35.218502 -77.558136 10.196141 1.880790849211783e-38 1768976227
35.229233 -77.581764 9.694142 1.880790849211783e-38 1768976227
35.180908 -77.475349 9.089467 1.880790849211783e-38 1768976227
36.480537 -80.337395 13.230846 1.880790849211783e-38 1768976227
35.661568 -78.533859 12.369622 1.880790849211783e-38 1768976227
35.034008 -77.151848 11.684285 1.880790849211783e-38 1768976227
34.945831 -76.957664 11.171113 1.880790849211783e-38 1768976227
30.926529 -68.106361 14.236536 1.880790849211783e-38 1768976227
30.511976 -67.193436 13.457384 1.880790849211783e-38 1768976227
30.360113 -66.858994 12.729959 1.880790849211783e-38 1768976227
39.318050 -86.586159 15.708457 1.880790849211783e-38 1768976227
39.838390 -87.732048 15.069412 1.880790849211783e-38 1768976227
34.784611 -77.220421 10.570720 1.880790849211783e-38 1768976227
34.794727 -77.242882 10.140854 1.880790849211783e-38 1768976227
34.721287 -77.079842 9.618297 1.880790849211783e-38 1768976227
34.815819 -77.289703 9.055326 1.880790849211783e-38 1768976227
36.738075 -81.557030 13.413401 1.880790849211783e-38 1768976227
35.006111 -77.712143 12.223512 1.880790849211783e-38 1768976227
34.690437 -77.011353 11.647110 1.880790849211783e-38 1768976227
34.714214 -77.064140 11.171320 1.880790849211783e-38 1768976227
30.682705 -68.114357 14.218800 1.880790849211783e-38 1768976227
30.062408 -66.737320 13.347815 1.880790849211783e-38 1768976227
29.968052 -66.527855 12.649644 1.880790849211783e-38 1768976227
39.153122 -86.918335 15.747225 1.880790849211783e-38 1768976227
39.434410 -87.542786 15.016404 1.880790849211783e-38 1768976227
34.006069 -76.104202 10.403833 1.880790849211783e-38 1768976227
34.786678 -77.851166 10.206892 1.880790849211783e-38 1768976227
34.495907 -77.200439 9.620319 1.880790849211783e-38 1768976227
34.499096 -77.207581 9.033473 1.880790849211783e-38 1768976227
35.640560 -79.762123 13.100459 1.880790849211783e-38 1768976227
34.652912 -77.551804 12.181798 1.880790849211783e-38 1768976227
34.623589 -77.486191 11.703077 1.880790849211783e-38 1768976227
34.630253 -77.501091 11.219470 1.880790849211783e-38 1768976227
30.359795 -67.943985 14.164056 1.880790849211783e-38 1768976227
29.654152 -66.364784 13.255357 1.880790849211783e-38 1768976227
29.844172 -66.790047 12.682323 1.880790849211783e-38 1768976227
33.585747 -75.163544 13.599165 1.880790849211783e-38 1768976227
39.149849 -87.615768 15.008601 1.880790849211783e-38 1768976227
32.820633 -73.451233 17.647371 1.880790849211783e-38 1768976227
34.513409 -77.869240 10.630846 1.880790849211783e-38 1768976227
34.235840 -77.242981 10.113572 1.880790849211783e-38 1768976227
34.391315 -77.593781 9.656366 1.880790849211783e-38 1768976227
34.108002 -76.954559 8.991793 1.880790849211783e-38 1768976227
34.569881 -77.996658 12.793310 1.880790849211783e-38 1768976227
33.790455 -76.238113 11.959381 1.880790849211783e-38 1768976227
34.184952 -77.128174 11.633382 1.880790849211783e-38 1768976227
33.503231 -75.590073 10.928144 1.880790849211783e-38 1768976227
30.159771 -68.046555 14.166412 1.880790849211783e-38 1768976227
29.740681 -67.101006 13.384430 1.880790849211783e-38 1768976227
29.807636 -67.252060 12.752927 1.880790849211783e-38 1768976227
29.615601 -66.818794 12.073155 1.880790849211783e-38 1768976227
35.620789 -80.367722 13.748545 1.880790849211783e-38 1768976227
34.219288 -77.838524 10.612514 1.880790849211783e-38 1768976227
34.223789 -77.848763 10.179328 1.880790849211783e-38 1768976227
34.101711 -77.571068 9.640697 1.880790849211783e-38 1768976227
34.004559 -77.350075 12.670377 1.880790849211783e-38 1768976227
34.106552 -77.582085 12.154016 1.880790849211783e-38 1768976227
35.380478 -80.479881 8.995841 1.880790849211783e-38 1768976227
33.925709 -77.170715 11.624312 1.880790849211783e-38 1768976227
33.496906 -76.195320 11.000988 1.880790849211783e-38 1768976227
30.935514 -70.368927 15.431781 1.880790849211783e-38 1768976227
29.716309 -67.595604 14.053808 1.880790849211783e-38 1768976227
29.638912 -67.419548 13.430079 1.880790849211783e-38 1768976227
29.433344 -66.951950 12.679124 1.880790849211783e-38 1768976227
32.298683 -73.469734 18.867910 1.880790849211783e-38 1768976227
29.379305 -66.829025 12.058939 1.880790849211783e-38 1768976227
33.052898 -75.185333 12.844880 1.880790849211783e-38 1768976227
34.088455 -78.180077 10.645017 1.880790849211783e-38 1768976227
34.004669 -77.987915 10.184067 1.880790849211783e-38 1768976227
32.864548 -75.373116 9.355167 1.880790849211783e-38 1768976227
33.836567 -77.602379 12.694932 1.880790849211783e-38 1768976227
33.648632 -77.171371 12.073722 1.880790849211783e-38 1768976227
35.110069 -80.523094 8.988795 1.880790849211783e-38 1768976227
33.393173 -76.585487 11.520935 1.880790849211783e-38 1768976227
33.204781 -76.153412 10.980429 1.880790849211783e-38 1768976227
26.900059 -61.693867 13.511503 1.880790849211783e-38 1768976227
29.388279 -67.400475 13.994747 1.880790849211783e-38 1768976227
32.117359 -73.659470 19.778692 1.880790849211783e-38 1768976227
28.979551 -66.463074 13.222076 1.880790849211783e-38 1768976227
29.254108 -67.092758 12.689024 1.880790849211783e-38 1768976227
31.686068 -72.670326 18.637987 1.880790849211783e-38 1768976227
31.790537 -72.909927 18.211666 1.880790849211783e-38 1768976227
37.823143 -86.745384 15.632084 1.880790849211783e-38 1768976227
32.577702 -74.715240 12.747723 1.880790849211783e-38 1768976227
32.783649 -75.187584 17.388929 1.880790849211783e-38 1768976227
33.890163 -78.369614 10.656857 1.880790849211783e-38 1768976227
32.877548 -76.027977 9.915133 1.880790849211783e-38 1768976227
32.424877 -74.981201 9.294344 1.880790849211783e-38 1768976227
34.953400 -80.828293 9.407082 1.880790849211783e-38 1768976227
33.589333 -77.673958 12.690010 1.880790849211783e-38 1768976227
32.783031 -75.809410 11.845114 1.880790849211783e-38 1768976227
34.934940 -80.785622 9.006297 1.880790849211783e-38 1768976227
32.892036 -76.061485 11.427132 1.880790849211783e-38 1768976227
32.760269 -75.756775 10.908942 1.880790849211783e-38 1768976227
26.691751 -61.723572 13.500317 1.880790849211783e-38 1768976227
29.160404 -67.432228 13.983016 1.880790849211783e-38 1768976227
31.689342 -73.280304 19.651129 1.880790849211783e-38 1768976227
28.801392 -66.602036 13.232379 1.880790849211783e-38 1768976227
29.034519 -67.141129 12.681554 1.880790849211783e-38 1768976227
31.651228 -73.192162 18.747255 1.880790849211783e-38 1768976227
31.654169 -73.198959 18.259933 1.880790849211783e-38 1768976227
37.263794 -86.170982 15.508249 1.880790849211783e-38 1768976227
32.432209 -74.998146 12.779244 1.880790849211783e-38 1768976227
27.704321 -64.065102 15.310844 1.880790849211783e-38 1768976227
33.292416 -76.987335 17.781862 1.880790849211783e-38 1768976227
32.513283 -75.812386 10.295739 1.880790849211783e-38 1768976227
32.338768 -75.405464 9.821184 1.880790849211783e-38 1768976227
33.408340 -77.899422 9.643542 1.880790849211783e-38 1768976227
34.550053 -80.561592 9.363873 1.880790849211783e-38 1768976227
33.386383 -77.848221 12.701973 1.880790849211783e-38 1768976227
32.468845 -75.708763 11.814034 1.880790849211783e-38 1768976227
34.310825 -80.003777 8.907558 1.880790849211783e-38 1768976227
32.397579 -75.542595 11.334446 1.880790849211783e-38 1768976227
32.714844 -76.282372 10.970371 1.880790849211783e-38 1768976227
26.858265 -62.626377 13.680000 1.880790849211783e-38 1768976227
28.894535 -67.374420 13.952895 1.880790849211783e-38 1768976227
31.505100 -73.461571 19.674170 1.880790849211783e-38 1768976227
28.447563 -66.332199 13.161664 1.880790849211783e-38 1768976227
28.902319 -67.392563 12.712523 1.880790849211783e-38 1768976227
31.200394 -72.751076 18.610090 1.880790849211783e-38 1768976227
31.615366 -73.718674 18.365711 1.880790849211783e-38 1768976227
32.409527 -75.570457 13.582813 1.880790849211783e-38 1768976227
33.505585 -78.126167 13.294964 1.880790849211783e-38 1768976227
27.540155 -64.216362 15.327074 1.880790849211783e-38 1768976227
27.232771 -63.499626 14.647552 1.880790849211783e-38 1768976227
32.241692 -75.809479 10.282093 1.880790849211783e-38 1768976227
31.887346 -74.976303 9.752719 1.880790849211783e-38 1768976227
32.855206 -77.252022 9.551087 1.880790849211783e-38 1768976227
32.722782 -76.940659 8.931492 1.880790849211783e-38 1768976227
32.053833 -75.367775 12.281425 1.880790849211783e-38 1768976227
32.195084 -75.699890 11.797444 1.880790849211783e-38 1768976227
34.224312 -80.471176 8.948066 1.880790849211783e-38 1768976227
37.072983 -87.169228 9.073236 1.880790849211783e-38 1768976227
32.685211 -76.852318 11.516115 1.880790849211783e-38 1768976227
32.444946 -76.287392 10.956971 1.880790849211783e-38 1768976227
38.801907 -91.234428 5.280975 1.880790849211783e-38 1768976227
39.054260 -91.827789 2.520777 1.880790849211783e-38 1768976227
38.269970 -89.983688 5.848209 1.880790849211783e-38 1768976227
26.197657 -61.598213 13.438090 1.880790849211783e-38 1768976227
28.804348 -67.727295 14.007918 1.880790849211783e-38 1768976227
31.080317 -73.078751 19.546450 1.880790849211783e-38 1768976227
28.282627 -66.500580 13.178089 1.880790849211783e-38 1768976227
28.768541 -67.643105 12.743359 1.880790849211783e-38 1768976227
30.858500 -72.557198 18.536604 1.880790849211783e-38 1768976227
30.703615 -72.193016 17.962469 1.880790849211783e-38 1768976227
31.942915 -75.106964 13.482130 1.880790849211783e-38 1768976227
33.376842 -78.478539 13.337736 1.880790849211783e-38 1768976227
27.530697 -64.732574 15.430395 1.880790849211783e-38 1768976227
26.777586 -62.961796 14.504796 1.880790849211783e-38 1768976227
32.013107 -75.906853 10.282157 1.880790849211783e-38 1768976227
32.626884 -77.362190 10.050223 1.880790849211783e-38 1768976227
32.675510 -77.477493 9.566735 1.880790849211783e-38 1768976227
32.680756 -77.489929 8.983769 1.880790849211783e-38 1768976227
31.949484 -75.755997 12.328929 1.880790849211783e-38 1768976227
32.118717 -76.157265 11.853574 1.880790849211783e-38 1768976227
36.371002 -86.239937 9.577287 1.880790849211783e-38 1768976227
36.903969 -87.503662 9.096418 1.880790849211783e-38 1768976227
32.238335 -76.440895 11.439844 1.880790849211783e-38 1768976227
31.922174 -75.691246 10.857471 1.880790849211783e-38 1768976227
38.557606 -91.424629 5.285229 1.880790849211783e-38 1768976227
38.773003 -91.935364 4.825251 1.880790849211783e-38 1768976227
38.085777 -90.305862 4.078590 1.880790849211783e-38 1768976227
38.641434 -91.623398 2.999798 1.880790849211783e-38 1768976227
39.067028 -92.632538 2.539622 1.880790849211783e-38 1768976227
38.017883 -90.144882 5.851207 1.880790849211783e-38 1768976227
26.065968 -61.805485 13.466097 1.880790849211783e-38 1768976227
28.679270 -68.001930 14.046767 1.880790849211783e-38 1768976227
30.921616 -73.318794 19.585623 1.880790849211783e-38 1768976227
28.190872 -66.843880 13.229210 1.880790849211783e-38 1768976227
30.377346 -72.028267 13.552163 1.880790849211783e-38 1768976227
30.623241 -72.611320 18.526751 1.880790849211783e-38 1768976227
30.482254 -72.277023 17.960413 1.880790849211783e-38 1768976227
31.608877 -74.948380 13.436488 1.880790849211783e-38 1768976227
33.120499 -78.532600 13.329887 1.880790849211783e-38 1768976227
27.368845 -64.894760 15.449308 1.880790849211783e-38 1768976227
26.691364 -63.288376 14.561420 1.880790849211783e-38 1768976227
31.404772 -75.096123 10.159462 1.880790849211783e-38 1768976227
32.308113 -77.256218 10.023753 1.880790849211783e-38 1768976227
32.535923 -77.800964 9.594519 1.880790849211783e-38 1768976227
33.735191 -80.668694 9.340462 1.880790849211783e-38 1768976227
32.119560 -76.805344 12.483885 1.880790849211783e-38 1768976227
31.877560 -76.226669 11.849359 1.880790849211783e-38 1768976227
36.283394 -86.762039 9.623074 1.880790849211783e-38 1768976227
31.926743 -76.344269 11.410920 1.880790849211783e-38 1768976227
31.637657 -75.653008 10.838249 1.880790849211783e-38 1768976227
38.257854 -91.483437 5.281935 1.880790849211783e-38 1768976227
38.406979 -91.840027 4.814147 1.880790849211783e-38 1768976227
38.093563 -91.090584 4.108824 1.880790849211783e-38 1768976227
37.874260 -90.566177 3.623634 1.880790849211783e-38 1768976227
38.637737 -92.391830 3.021127 1.880790849211783e-38 1768976227
38.792370 -92.761589 2.539941 1.880790849211783e-38 1768976227
37.938236 -90.719162 5.881029 1.880790849211783e-38 1768976227
30.188408 -72.187515 15.708212 1.880790849211783e-38 1768976227
28.352106 -67.796486 13.986605 1.880790849211783e-38 1768976227
30.417171 -72.734535 19.404957 1.880790849211783e-38 1768976227
27.851278 -66.598892 13.164041 1.880790849211783e-38 1768976227
29.953165 -71.624985 13.459228 1.880790849211783e-38 1768976227
30.043184 -71.840248 18.306812 1.880790849211783e-38 1768976227
26.376738 -63.072922 15.653411 1.880790849211783e-38 1768976227
31.332567 -74.923470 13.415021 1.880790849211783e-38 1768976227
31.677946 -75.749344 12.841190 1.880790849211783e-38 1768976227
26.940058 -64.419960 15.316861 1.880790849211783e-38 1768976227
26.555592 -63.500595 14.591755 1.880790849211783e-38 1768976227
31.459499 -75.869034 10.251143 1.880790849211783e-38 1768976227
32.277134 -77.840881 10.086935 1.880790849211783e-38 1768976227
32.228321 -77.723160 9.572893 1.880790849211783e-38 1768976227
35.578037 -85.801468 9.922305 1.880790849211783e-38 1768976227
31.657280 -76.346008 12.393649 1.880790849211783e-38 1768976227
31.657589 -76.346748 11.853129 1.880790849211783e-38 1768976227
36.116989 -87.101234 9.648568 1.880790849211783e-38 1768976227
31.518904 -76.012299 11.347041 1.880790849211783e-38 1768976227
31.365566 -75.642494 10.823142 1.880790849211783e-38 1768976227
38.101139 -91.886299 5.298536 1.880790849211783e-38 1768976227
37.542187 -90.538292 4.739954 1.880790849211783e-38 1768976227
38.111320 -91.910851 4.140620 1.880790849211783e-38 1768976227
37.763821 -91.072792 3.639331 1.880790849211783e-38 1768976227
38.720001 -93.378769 3.049567 1.880790849211783e-38 1768976227
38.492001 -92.828911 2.538594 1.880790849211783e-38 1768976227
37.811749 -91.188377 5.904027 1.880790849211783e-38 1768976227
25.792276 -62.201721 13.518287 1.880790849211783e-38 1768976227
28.067631 -67.689064 13.946916 1.880790849211783e-38 1768976227
30.355177 -73.205803 19.506172 1.880790849211783e-38 1768976227
27.793266 -67.027397 13.232110 1.880790849211783e-38 1768976227
29.775331 -71.807426 13.476574 1.880790849211783e-38 1768976227
29.733702 -71.707031 18.249929 1.880790849211783e-38 1768976227
30.394590 -73.300850 18.168941 1.880790849211783e-38 1768976227
31.111748 -75.030380 13.417302 1.880790849211783e-38 1768976227
31.602400 -76.213654 12.903686 1.880790849211783e-38 1768976227
26.576708 -64.093491 15.220112 1.880790849211783e-38 1768976227
26.164230 -63.098740 14.481215 1.880790849211783e-38 1768976227
32.075981 -78.019989 10.528655 1.880790849211783e-38 1768976227
31.907198 -77.609444 10.044429 1.880790849211783e-38 1768976227
31.890184 -77.568062 9.541901 1.880790849211783e-38 1768976227
35.616608 -86.632034 10.005885 1.880790849211783e-38 1768976227
31.458225 -76.517387 12.406012 1.880790849211783e-38 1768976227
31.138369 -75.739388 11.744200 1.880790849211783e-38 1768976227
35.833332 -87.159172 9.642970 1.880790849211783e-38 1768976227
31.049696 -75.523697 11.260074 1.880790849211783e-38 1768976227
31.126177 -75.709724 10.819281 1.880790849211783e-38 1768976227
37.884239 -92.147690 5.306996 1.880790849211783e-38 1768976227
37.319901 -90.775047 4.746434 1.880790849211783e-38 1768976227
36.981220 -89.951241 4.047297 1.880790849211783e-38 1768976227
37.501286 -91.216225 3.640526 1.880790849211783e-38 1768976227
38.152031 -92.799065 3.026863 1.880790849211783e-38 1768976227
38.414646 -93.437836 2.552067 1.880790849211783e-38 1768976227
37.560108 -91.359291 5.907732 1.880790849211783e-38 1768976227
25.674519 -62.449394 13.555222 1.880790849211783e-38 1768976227
27.805418 -67.632492 13.917916 1.880790849211783e-38 1768976227
30.374788 -73.882095 19.661875 1.880790849211783e-38 1768976227
27.674746 -67.314644 13.272280 1.880790849211783e-38 1768976227
29.719940 -72.289276 13.550121 1.880790849211783e-38 1768976227
29.743889 -72.347527 18.390026 1.880790849211783e-38 1768976227
30.154902 -73.347244 18.157816 1.880790849211783e-38 1768976227
29.704729 -72.252274 12.904428 1.880790849211783e-38 1768976227
31.474562 -76.557121 12.945707 1.880790849211783e-38 1768976227
26.568117 -64.622932 15.326740 1.880790849211783e-38 1768976227
25.951715 -63.123634 14.468898 1.880790849211783e-38 1768976227
31.745100 -77.882256 10.497100 1.880790849211783e-38 1768976227
31.844807 -78.126869 10.098919 1.880790849211783e-38 1768976227
31.625290 -77.588318 9.532616 1.880790849211783e-38 1768976227
35.574371 -87.276855 10.067923 1.880790849211783e-38 1768976227
31.207745 -76.563927 12.398240 1.880790849211783e-38 1768976227
30.833294 -75.645264 11.715133 1.880790849211783e-38 1768976227
35.601784 -87.344101 9.651507 1.880790849211783e-38 1768976227
30.860680 -75.712456 11.274287 1.880790849211783e-38 1768976227
30.642000 -75.175949 10.729746 1.880790849211783e-38 1768976227
36.882133 -90.485260 5.204823 1.880790849211783e-38 1768976227
36.723511 -90.096107 4.705122 1.880790849211783e-38 1768976227
37.051609 -90.901039 4.084985 1.880790849211783e-38 1768976227
37.414799 -91.792084 3.658989 1.880790849211783e-38 1768976227
35.687321 -87.553947 6.736988 1.880790849211783e-38 1768976227
37.522263 -92.055733 2.998913 1.880790849211783e-38 1768976227
38.132713 -93.553398 2.552070 1.880790849211783e-38 1768976227
35.970055 -88.247597 6.303359 1.880790849211783e-38 1768976227
36.025402 -88.383392 5.708244 1.880790849211783e-38 1768976227
25.414537 -62.351086 13.517184 1.880790849211783e-38 1768976227
27.743906 -68.065865 13.989818 1.880790849211783e-38 1768976227
30.061533 -73.751854 19.602997 1.880790849211783e-38 1768976227
27.286551 -66.943817 13.182878 1.880790849211783e-38 1768976227
29.353790 -72.015503 13.482149 1.880790849211783e-38 1768976227
29.698080 -72.860176 18.497484 1.880790849211783e-38 1768976227
29.931536 -73.432930 18.156597 1.880790849211783e-38 1768976227
30.147871 -73.963669 13.193788 1.880790849211783e-38 1768976227
31.517597 -77.324112 13.059271 1.880790849211783e-38 1768976227
25.419300 -62.362774 14.772444 1.880790849211783e-38 1768976227
25.794899 -63.284260 14.487817 1.880790849211783e-38 1768976227
31.472654 -77.885010 10.484631 1.880790849211783e-38 1768976227
31.549652 -78.075554 10.079942 1.880790849211783e-38 1768976227
31.586317 -78.166290 9.591879 1.880790849211783e-38 1768976227
35.261375 -87.260918 10.053773 1.880790849211783e-38 1768976227
31.465662 -77.867714 12.593944 1.880790849211783e-38 1768976227
31.336685 -77.548531 11.995202 1.880790849211783e-38 1768976227
35.312965 -87.388580 9.644610 1.880790849211783e-38 1768976227
30.494854 -75.465263 11.223732 1.880790849211783e-38 1768976227
31.535311 -78.040062 11.124913 1.880790849211783e-38 1768976227
35.970219 -89.015091 5.113994 1.880790849211783e-38 1768976227
36.774643 -91.005783 4.746815 1.880790849211783e-38 1768976227
36.726753 -90.887268 4.079370 1.880790849211783e-38 1768976227
37.061729 -91.716240 3.651494 1.880790849211783e-38 1768976227
35.432270 -87.683838 6.738729 1.880790849211783e-38 1768976227
37.256050 -92.197121 2.999845 1.880790849211783e-38 1768976227
38.115528 -94.324051 2.569946 1.880790849211783e-38 1768976227
35.284805 -87.318901 6.229394 1.880790849211783e-38 1768976227
35.487682 -87.820953 5.664981 1.880790849211783e-38 1768976227
25.334414 -62.694782 13.575069 1.880790849211783e-38 1768976227
27.336029 -67.648163 13.886957 1.880790849211783e-38 1768976227
29.799128 -73.743561 19.576818 1.880790849211783e-38 1768976227
27.193384 -67.295151 13.235855 1.880790849211783e-38 1768976227
29.239397 -72.358398 13.529774 1.880790849211783e-38 1768976227
28.932877 -71.599861 18.155285 1.880790849211783e-38 1768976227
28.969524 -71.690552 17.704103 1.880790849211783e-38 1768976227
31.040085 -76.814537 13.685572 1.880790849211783e-38 1768976227
31.231218 -77.287537 13.037127 1.880790849211783e-38 1768976227
25.243359 -62.469448 14.779612 1.880790849211783e-38 1768976227
25.830662 -63.922836 14.616109 1.880790849211783e-38 1768976227
31.094774 -77.623009 10.436689 1.880790849211783e-38 1768976227
31.242910 -77.992805 10.057047 1.880790849211783e-38 1768976227
33.114742 -82.665535 10.131684 1.880790849211783e-38 1768976227
34.934727 -87.208824 10.035585 1.880790849211783e-38 1768976227
31.212936 -77.917984 12.586791 1.880790849211783e-38 1768976227
31.205801 -77.900177 12.034981 1.880790849211783e-38 1768976227
35.432858 -88.452332 9.750172 1.880790849211783e-38 1768976227
31.368849 -78.307198 11.632283 1.880790849211783e-38 1768976227
31.397043 -78.377579 11.159476 1.880790849211783e-38 1768976227
35.299618 -88.119720 5.056415 1.880790849211783e-38 1768976227
35.183258 -87.829239 4.575572 1.880790849211783e-38 1768976227
36.792118 -91.845490 4.117380 1.880790849211783e-38 1768976227
37.048008 -92.484291 3.677607 1.880790849211783e-38 1768976227
35.020927 -87.424011 6.710614 1.880790849211783e-38 1768976227
37.252663 -92.995163 3.022142 1.880790849211783e-38 1768976227
37.269039 -93.036049 2.531779 1.880790849211783e-38 1768976227
33.533562 -83.711044 5.964765 1.880790849211783e-38 1768976227
35.122856 -87.678467 5.648931 1.880790849211783e-38 1768976227
25.213676 -62.941814 13.612031 1.880790849211783e-38 1768976227
27.461037 -68.551979 14.055429 1.880790849211783e-38 1768976227
29.599405 -73.890068 19.591925 1.880790849211783e-38 1768976227
27.211279 -67.928513 13.344223 1.880790849211783e-38 1768976227
29.072769 -72.575409 13.553893 1.880790849211783e-38 1768976227
28.681456 -71.598557 18.132938 1.880790849211783e-38 1768976227
29.188883 -72.865265 17.972382 1.880790849211783e-38 1768976227
27.038713 -67.497719 12.011067 1.880790849211783e-38 1768976227
31.196508 -77.876976 13.120625 1.880790849211783e-38 1768976227
25.147526 -62.776680 14.834290 1.880790849211783e-38 1768976227
25.526611 -63.723011 14.552748 1.880790849211783e-38 1768976227
31.112562 -78.351158 10.521926 1.880790849211783e-38 1768976227
31.240196 -78.672585 10.132506 1.880790849211783e-38 1768976227
32.805836 -82.615349 10.113361 1.880790849211783e-38 1768976227
34.555454 -87.021431 10.001983 1.880790849211783e-38 1768976227
30.840555 -77.666161 12.531030 1.880790849211783e-38 1768976227
31.245016 -78.684715 12.141572 1.880790849211783e-38 1768976227
34.814049 -87.672661 9.652610 1.880790849211783e-38 1768976227
31.246542 -78.688560 11.674881 1.880790849211783e-38 1768976227
30.876219 -77.755966 11.057662 1.880790849211783e-38 1768976227
34.668365 -87.305779 5.003687 1.880790849211783e-38 1768976227
34.850605 -87.764717 4.566714 1.880790849211783e-38 1768976227
35.011227 -88.169220 3.947823 1.880790849211783e-38 1768976227
36.763935 -92.583076 3.677109 1.880790849211783e-38 1768976227
33.155506 -83.495926 6.401391 1.880790849211783e-38 1768976227
35.739372 -90.002914 2.921384 1.880790849211783e-38 1768976227
36.290901 -91.391838 2.484046 1.880790849211783e-38 1768976227
33.527138 -84.431808 6.008890 1.880790849211783e-38 1768976227
34.691570 -87.364220 5.621918 1.880790849211783e-38 1768976227
25.051979 -63.088707 13.627397 1.880790849211783e-38 1768976227
27.163101 -68.405182 14.008470 1.880790849211783e-38 1768976227
29.434105 -74.124275 19.630396 1.880790849211783e-38 1768976227
27.137642 -68.341064 13.409129 1.880790849211783e-38 1768976227
28.841066 -72.630821 13.547935 1.880790849211783e-38 1768976227
28.400991 -71.522583 18.091921 1.880790849211783e-38 1768976227
29.109003 -73.305573 18.059246 1.880790849211783e-38 1768976227
26.357857 -66.377319 11.797496 1.880790849211783e-38 1768976227
30.876345 -77.756294 13.084543 1.880790849211783e-38 1768976227
25.143408 -63.318958 14.944443 1.880790849211783e-38 1768976227
24.867342 -62.623745 14.284511 1.880790849211783e-38 1768976227
30.727129 -78.066071 10.471149 1.880790849211783e-38 1768976227
30.933846 -78.591255 10.109971 1.880790849211783e-38 1768976227
34.581215 -87.857834 10.086084 1.880790849211783e-38 1768976227
28.622248 -72.718353 11.718745 1.880790849211783e-38 1768976227
30.796240 -78.241653 12.058819 1.880790849211783e-38 1768976227
34.547287 -87.771645 9.651994 1.880790849211783e-38 1768976227
30.768391 -78.170898 11.584256 1.880790849211783e-38 1768976227
30.779192 -78.198341 11.107321 1.880790849211783e-38 1768976227
34.400734 -87.399315 5.003079 1.880790849211783e-38 1768976227
34.649471 -88.031273 4.575126 1.880790849211783e-38 1768976227
32.362328 -82.220490 7.813319 1.880790849211783e-38 1768976227
34.891190 -88.645378 3.964414 1.880790849211783e-38 1768976227
34.592522 -87.886581 3.486420 1.880790849211783e-38 1768976227
36.290165 -92.199646 7.688145 1.880790849211783e-38 1768976227
32.597599 -82.818222 6.341868 1.880790849211783e-38 1768976227
34.748356 -88.282486 2.862127 1.880790849211783e-38 1768976227
36.803864 -93.504753 2.538446 1.880790849211783e-38 1768976227
33.351582 -84.733810 6.023198 1.880790849211783e-38 1768976227
34.157784 -86.782074 5.577803 1.880790849211783e-38 1768976227
24.753731 -62.889915 13.568269 1.880790849211783e-38 1768976227
26.959547 -68.494057 14.009957 1.880790849211783e-38 1768976227
28.339052 -71.998856 19.044800 1.880790849211783e-38 1768976227
27.018753 -68.644478 13.452612 1.880790849211783e-38 1768976227
29.282148 -74.394920 13.860460 1.880790849211783e-38 1768976227
28.422026 -72.209663 18.243956 1.880790849211783e-38 1768976227
28.757885 -73.062958 17.978029 1.880790849211783e-38 1768976227
26.496780 -67.318344 11.950490 1.880790849211783e-38 1768976227
32.640629 -82.927544 13.938115 1.880790849211783e-38 1768976227
24.858892 -63.157082 14.888475 1.880790849211783e-38 1768976227
24.551529 -62.376190 14.211089 1.880790849211783e-38 1768976227
30.495598 -78.168777 10.472542 1.880790849211783e-38 1768976227
31.390930 -80.463768 10.338625 1.880790849211783e-38 1768976227
34.226273 -87.731544 10.059690 1.880790849211783e-38 1768976227
28.348579 -72.665375 11.696376 1.880790849211783e-38 1768976227
28.594826 -73.296562 11.283324 1.880790849211783e-38 1768976227
34.539104 -88.533424 9.724264 1.880790849211783e-38 1768976227
33.195015 -85.088142 12.594439 1.880790849211783e-38 1768976227
30.618557 -78.483955 11.134723 1.880790849211783e-38 1768976227
34.367844 -88.094429 5.036914 1.880790849211783e-38 1768976227
34.346272 -88.039139 4.570130 1.880790849211783e-38 1768976227
32.275211 -82.730431 7.852492 1.880790849211783e-38 1768976227
35.662884 -91.413986 8.235428 1.880790849211783e-38 1768976227
34.579411 -88.636734 3.959345 1.880790849211783e-38 1768976227
34.547302 -88.554443 3.508764 1.880790849211783e-38 1768976227
36.029312 -92.353233 7.691855 1.880790849211783e-38 1768976227
33.187698 -85.069389 6.506558 1.880790849211783e-38 1768976227
34.535072 -88.523079 2.866537 1.880790849211783e-38 1768976227
36.715912 -94.113182 2.551946 1.880790849211783e-38 1768976227
33.150154 -84.973145 6.033076 1.880790849211783e-38 1768976227
33.827038 -86.708191 5.566472 1.880790849211783e-38 1768976227
24.767134 -63.485115 13.680505 1.880790849211783e-38 1768976227
26.786419 -68.661110 14.027538 1.880790849211783e-38 1768976227
27.944483 -71.629547 18.924732 1.880790849211783e-38 1768976227
26.741161 -68.545105 13.417271 1.880790849211783e-38 1768976227
28.642702 -73.419289 13.662534 1.880790849211783e-38 1768976227
28.472603 -72.983276 18.417629 1.880790849211783e-38 1768976227
28.347939 -72.663727 17.858675 1.880790849211783e-38 1768976227
25.879574 -66.336609 11.762300 1.880790849211783e-38 1768976227
28.946436 -74.197838 12.456132 1.880790849211783e-38 1768976227
24.667204 -63.228970 14.887816 1.880790849211783e-38 1768976227
24.777464 -63.511593 14.452676 1.880790849211783e-38 1768976227
31.399036 -81.207047 10.866852 1.880790849211783e-38 1768976227
31.698919 -81.982628 10.521448 1.880790849211783e-38 1768976227
33.861843 -87.576576 10.030164 1.880790849211783e-38 1768976227
28.175129 -72.869087 11.715434 1.880790849211783e-38 1768976227
27.714693 -71.678268 11.021285 1.880790849211783e-38 1768976227
34.086754 -88.158264 9.671722 1.880790849211783e-38 1768976227
32.881844 -85.042023 12.572875 1.880790849211783e-38 1768976227
32.017948 -82.807724 11.734394 1.880790849211783e-38 1768976227
34.014099 -87.970352 5.023932 1.880790849211783e-38 1768976227
34.103001 -88.200279 4.573135 1.880790849211783e-38 1768976227
31.882267 -82.456818 7.817360 1.880790849211783e-38 1768976227
35.190689 -91.013367 8.189737 1.880790849211783e-38 1768976227
34.346413 -88.829811 3.963325 1.880790849211783e-38 1768976227
34.417969 -89.014877 3.522879 1.880790849211783e-38 1768976227
31.790424 -82.219292 6.839810 1.880790849211783e-38 1768976227
32.922356 -85.146790 6.504854 1.880790849211783e-38 1768976227
34.291904 -88.688843 2.868542 1.880790849211783e-38 1768976227
36.243092 -93.735184 2.538721 1.880790849211783e-38 1768976227
32.816761 -84.873688 6.018960 1.880790849211783e-38 1768976227
33.881054 -87.626259 5.618824 1.880790849211783e-38 1768976227
13.667128 -35.347172 -1.304727 1.880790849211783e-38 1768976227
24.595175 -63.610283 13.691429 1.880790849211783e-38 1768976227
26.680693 -69.004028 14.081093 1.880790849211783e-38 1768976227
27.726749 -71.709442 18.923660 1.880790849211783e-38 1768976227
26.570108 -68.718033 13.435372 1.880790849211783e-38 1768976227
28.330463 -73.270821 13.618943 1.880790849211783e-38 1768976227
28.021214 -72.471008 18.266949 1.880790849211783e-38 1768976227
27.709560 -71.664986 17.592594 1.880790849211783e-38 1768976227
25.917265 -67.029587 11.871261 1.880790849211783e-38 1768976227
28.586462 -73.932907 12.397125 1.880790849211783e-38 1768976227
24.533100 -63.449734 14.922308 1.880790849211783e-38 1768976227
24.350660 -62.977890 14.314449 1.880790849211783e-38 1768976227
31.250502 -81.553276 10.900521 1.880790849211783e-38 1768976227
