# .PCD v0.7 - Point Cloud Data file format
VERSION 0.7
FIELDS x y z rgb label
SIZE 4 4 4 4 4
TYPE F F F F U
COUNT 1 1 1 1 1
WIDTH 763
HEIGHT 1
VIEWPOINT 0 0 0 1 0 0 0
POINTS 763
DATA ascii
23.863403 50.122486 13.051000 1.880790849211783e-38 1768976227
23.496187 49.351189 12.514974 1.880790849211783e-38 1768976227
28.157948 59.142715 10.820341 1.880790849211783e-38 1768976227
27.984915 58.779270 10.181619 1.880790849211783e-38 1768976227
25.420023 53.392002 12.971549 1.880790849211783e-38 1768976227
24.259148 50.953705 11.963872 1.880790849211783e-38 1768976227
24.830114 51.750248 7.164037 1.880790849211783e-38 1768976227
24.984665 52.072361 6.913474 1.880790849211783e-38 1768976227
22.295851 46.468407 5.505708 1.880790849211783e-38 1768976227
28.342300 59.070255 9.824702 1.880790849211783e-38 1768976227
25.921059 54.023968 8.593431 1.880790849211783e-38 1768976227
22.089100 46.037506 5.225019 1.880790849211783e-38 1768976227
23.187441 48.326633 5.134201 1.880790849211783e-38 1768976227
24.417572 50.890446 7.783460 1.880790849211783e-38 1768976227
24.744709 51.572254 7.560339 1.880790849211783e-38 1768976227
25.288128 52.704830 4.906260 1.880790849211783e-38 1768976227
24.517212 51.098106 4.397545 1.880790849211783e-38 1768976227
25.717503 53.599720 4.236107 1.880790849211783e-38 1768976227
25.765722 53.700222 3.939668 1.880790849211783e-38 1768976227
25.025869 52.158237 11.613948 1.880790849211783e-38 1768976227
25.234497 52.593056 11.102629 1.880790849211783e-38 1768976227
25.322966 52.777439 22.700796 1.880790849211783e-38 1768976227
21.800993 45.437042 14.845892 1.880790849211783e-38 1768976227
21.666481 45.156696 14.375477 1.880790849211783e-38 1768976227
23.542679 49.067009 19.191381 1.880790849211783e-38 1768976227
22.916077 47.761066 18.344902 1.880790849211783e-38 1768976227
21.978577 45.807156 14.084032 1.880790849211783e-38 1768976227
24.021034 50.063992 14.893415 1.880790849211783e-38 1768976227
22.433624 46.755554 17.502857 1.880790849211783e-38 1768976227
22.860374 47.644974 17.328094 1.880790849211783e-38 1768976227
23.481659 48.939838 14.004193 1.880790849211783e-38 1768976227
23.874283 49.758133 13.584023 1.880790849211783e-38 1768976227
23.840685 49.688107 17.474087 1.880790849211783e-38 1768976227
22.174740 46.215992 15.666237 1.880790849211783e-38 1768976227
24.905144 51.906628 10.498743 1.880790849211783e-38 1768976227
26.398560 55.019165 10.579418 1.880790849211783e-38 1768976227
23.935791 49.886326 13.008245 1.880790849211783e-38 1768976227
23.351343 48.668236 12.359588 1.880790849211783e-38 1768976227
26.637890 55.517967 10.171835 1.880790849211783e-38 1768976227
28.462551 59.320877 10.290257 1.880790849211783e-38 1768976227
25.584135 53.321762 12.973171 1.880790849211783e-38 1768976227
24.493374 51.048428 12.003404 1.880790849211783e-38 1768976227
25.180593 52.077423 7.219810 1.880790849211783e-38 1768976227
25.119179 51.950409 6.907309 1.880790849211783e-38 1768976227
22.526642 46.588634 5.527978 1.880790849211783e-38 1768976227
22.389875 46.305779 5.263107 1.880790849211783e-38 1768976227
23.206806 47.995323 5.106415 1.880790849211783e-38 1768976227
24.141167 49.927723 7.647317 1.880790849211783e-38 1768976227
24.843645 51.380562 7.543187 1.880790849211783e-38 1768976227
25.097338 51.905235 4.473501 1.880790849211783e-38 1768976227
26.074085 53.925304 4.268034 1.880790849211783e-38 1768976227
26.049358 53.874165 3.958174 1.880790849211783e-38 1768976227
25.271111 52.264622 11.654554 1.880790849211783e-38 1768976227
25.263929 52.249775 11.046195 1.880790849211783e-38 1768976227
21.974022 45.445724 14.870316 1.880790849211783e-38 1768976227
21.769321 45.022377 14.353554 1.880790849211783e-38 1768976227
22.812790 47.180428 18.480318 1.880790849211783e-38 1768976227
22.734613 47.018753 18.086035 1.880790849211783e-38 1768976227
21.745382 44.972866 13.847620 1.880790849211783e-38 1768976227
24.159744 49.966145 14.885916 1.880790849211783e-38 1768976227
22.478186 46.488419 17.428154 1.880790849211783e-38 1768976227
23.241663 48.067410 17.507145 1.880790849211783e-38 1768976227
23.737682 49.093254 14.068515 1.880790849211783e-38 1768976227
24.296158 50.248272 13.737772 1.880790849211783e-38 1768976227
24.125647 49.895626 17.572575 1.880790849211783e-38 1768976227
22.235325 45.986145 15.610984 1.880790849211783e-38 1768976227
24.975010 51.652245 10.462478 1.880790849211783e-38 1768976227
26.578455 54.968418 10.585027 1.880790849211783e-38 1768976227
24.200815 50.051086 13.070180 1.880790849211783e-38 1768976227
23.724159 49.065285 12.478534 1.880790849211783e-38 1768976227
26.933937 55.703606 10.220683 1.880790849211783e-38 1768976227
28.571287 59.089912 10.265093 1.880790849211783e-38 1768976227
25.403070 52.537537 12.800953 1.880790849211783e-38 1768976227
24.667967 51.017227 12.013506 1.880790849211783e-38 1768976227
25.449680 52.231388 7.251763 1.880790849211783e-38 1768976227
25.120070 51.554920 6.864767 1.880790849211783e-38 1768976227
24.806438 50.911240 6.443334 1.880790849211783e-38 1768976227
22.660566 46.507179 5.293742 1.880790849211783e-38 1768976227
22.032560 45.218296 4.818004 1.880790849211783e-38 1768976227
24.052523 49.363953 7.572042 1.880790849211783e-38 1768976227
25.263235 51.848747 7.623072 1.880790849211783e-38 1768976227
25.344728 52.015991 4.489614 1.880790849211783e-38 1768976227
25.921293 53.199299 4.216742 1.880790849211783e-38 1768976227
26.038416 53.439674 3.932004 1.880790849211783e-38 1768976227
24.999788 51.308060 11.458010 1.880790849211783e-38 1768976227
25.202093 51.723259 10.950902 1.880790849211783e-38 1768976227
22.319384 45.806957 15.010471 1.880790849211783e-38 1768976227
21.695475 44.526482 14.216254 1.880790849211783e-38 1768976227
22.857515 46.911388 18.401855 1.880790849211783e-38 1768976227
22.784517 46.761570 18.013458 1.880790849211783e-38 1768976227
22.041132 45.235889 13.949013 1.880790849211783e-38 1768976227
24.238300 49.745224 14.841810 1.880790849211783e-38 1768976227
22.726030 46.641529 17.511171 1.880790849211783e-38 1768976227
23.311216 47.842537 17.450769 1.880790849211783e-38 1768976227
23.569742 48.373119 13.882456 1.880790849211783e-38 1768976227
25.486961 52.307903 14.321822 1.880790849211783e-38 1768976227
23.933870 49.120430 17.324903 1.880790849211783e-38 1768976227
22.229061 45.621586 15.509915 1.880790849211783e-38 1768976227
25.073835 51.460026 10.438814 1.880790849211783e-38 1768976227
26.970158 55.351925 10.674492 1.880790849211783e-38 1768976227
24.403490 50.084248 13.098001 1.880790849211783e-38 1768976227
24.012814 49.282448 12.552126 1.880790849211783e-38 1768976227
26.927639 55.264668 10.155000 1.880790849211783e-38 1768976227
28.298483 58.078106 10.104102 1.880790849211783e-38 1768976227
25.479473 52.292534 12.759922 1.880790849211783e-38 1768976227
26.559523 54.509163 12.854589 1.880790849211783e-38 1768976227
25.389362 51.710949 6.895708 1.880790849211783e-38 1768976227
25.228394 51.383102 6.512653 1.880790849211783e-38 1768976227
28.392101 57.826679 9.660198 1.880790849211783e-38 1768976227
22.593401 46.016369 4.910276 1.880790849211783e-38 1768976227
24.074503 49.032955 7.532373 1.880790849211783e-38 1768976227
24.689915 50.286377 7.404279 1.880790849211783e-38 1768976227
26.016878 52.989021 4.206275 1.880790849211783e-38 1768976227
26.043230 53.042694 3.908556 1.880790849211783e-38 1768976227
25.495106 51.926327 11.613197 1.880790849211783e-38 1768976227
25.554331 52.046944 11.035700 1.880790849211783e-38 1768976227
22.329899 45.479691 14.925231 1.880790849211783e-38 1768976227
24.956665 50.829666 16.252670 1.880790849211783e-38 1768976227
22.913765 46.668858 18.333742 1.880790849211783e-38 1768976227
23.080610 47.008675 18.135380 1.880790849211783e-38 1768976227
22.137966 45.088776 13.924173 1.880790849211783e-38 1768976227
22.112305 45.036510 13.456771 1.880790849211783e-38 1768976227
23.044870 46.935883 17.647697 1.880790849211783e-38 1768976227
23.407663 47.674793 17.415255 1.880790849211783e-38 1768976227
24.008814 48.899170 14.054141 1.880790849211783e-38 1768976227
25.490532 51.917007 14.235780 1.880790849211783e-38 1768976227
24.236076 49.362034 17.435818 1.880790849211783e-38 1768976227
21.721134 44.239807 15.062356 1.880790849211783e-38 1768976227
25.022669 50.964096 10.353474 1.880790849211783e-38 1768976227
26.734413 54.450439 10.516145 1.880790849211783e-38 1768976227
24.659843 50.225128 13.154232 1.880790849211783e-38 1768976227
24.288464 49.468735 12.618172 1.880790849211783e-38 1768976227
27.320662 55.644459 10.239882 1.880790849211783e-38 1768976227
28.459311 57.963570 10.099062 1.880790849211783e-38 1768976227
25.798904 52.545071 12.840471 1.880790849211783e-38 1768976227
26.610456 54.197979 12.800072 1.880790849211783e-38 1768976227
25.562588 51.669281 6.900400 1.880790849211783e-38 1768976227
25.409719 51.360287 6.519445 1.880790849211783e-38 1768976227
28.707367 58.025780 9.707878 1.880790849211783e-38 1768976227
22.831448 46.148869 4.931740 1.880790849211783e-38 1768976227
25.443432 51.428432 7.912115 1.880790849211783e-38 1768976227
25.750374 52.048851 7.675190 1.880790849211783e-38 1768976227
25.302654 51.143883 4.065846 1.880790849211783e-38 1768976227
26.233206 53.024788 3.913049 1.880790849211783e-38 1768976227
26.451506 53.466038 3.567607 1.880790849211783e-38 1768976227
25.495466 51.533607 11.542512 1.880790849211783e-38 1768976227
25.466394 51.474846 10.930632 1.880790849211783e-38 1768976227
22.799774 46.084850 15.146324 1.880790849211783e-38 1768976227
25.173502 50.882832 16.293869 1.880790849211783e-38 1768976227
23.133776 46.759956 18.396856 1.880790849211783e-38 1768976227
23.175676 46.844646 18.098986 1.880790849211783e-38 1768976227
22.610296 45.701855 14.134498 1.880790849211783e-38 1768976227
22.174562 44.821114 13.412333 1.880790849211783e-38 1768976227
23.438328 47.375553 17.839506 1.880790849211783e-38 1768976227
23.795315 48.097118 17.595661 1.880790849211783e-38 1768976227
24.801588 50.131081 14.429640 1.880790849211783e-38 1768976227
26.035368 52.624905 14.451352 1.880790849211783e-38 1768976227
24.053930 48.619858 17.199211 1.880790849211783e-38 1768976227
25.297338 51.133137 17.435230 1.880790849211783e-38 1768976227
26.679890 53.927673 10.971828 1.880790849211783e-38 1768976227
26.286522 53.132557 10.276883 1.880790849211783e-38 1768976227
24.669434 49.863960 13.079068 1.880790849211783e-38 1768976227
24.369785 49.258286 12.583181 1.880790849211783e-38 1768976227
27.767048 56.125122 10.343699 1.880790849211783e-38 1768976227
28.346207 57.295773 9.997561 1.880790849211783e-38 1768976227
26.404245 53.370510 13.061584 1.880790849211783e-38 1768976227
28.177362 56.954487 13.471091 1.880790849211783e-38 1768976227
25.515686 51.185497 6.846038 1.880790849211783e-38 1768976227
25.332529 50.818069 6.460287 1.880790849211783e-38 1768976227
29.044874 58.265186 9.762543 1.880790849211783e-38 1768976227
29.023659 58.222630 9.329863 1.880790849211783e-38 1768976227
25.293535 50.739853 7.817878 1.880790849211783e-38 1768976227
26.064602 52.286648 7.721812 1.880790849211783e-38 1768976227
26.093784 52.345188 3.868687 1.880790849211783e-38 1768976227
26.752909 53.667416 3.586412 1.880790849211783e-38 1768976227
25.701221 51.557686 11.565214 1.880790849211783e-38 1768976227
25.486841 51.127628 10.873175 1.880790849211783e-38 1768976227
22.860697 45.859478 15.094846 1.880790849211783e-38 1768976227
25.171804 50.495651 16.194122 1.880790849211783e-38 1768976227
23.151009 46.441856 18.299091 1.880790849211783e-38 1768976227
23.724985 47.593277 18.415787 1.880790849211783e-38 1768976227
25.566442 51.287319 15.885721 1.880790849211783e-38 1768976227
22.232464 44.599220 13.365936 1.880790849211783e-38 1768976227
23.976458 48.097736 18.138597 1.880790849211783e-38 1768976227
24.182091 48.510250 17.773401 1.880790849211783e-38 1768976227
24.671000 49.491020 14.266758 1.880790849211783e-38 1768976227
26.055710 52.268806 14.375077 1.880790849211783e-38 1768976227
24.211807 48.569862 17.207279 1.880790849211783e-38 1768976227
25.311430 50.775745 17.339317 1.880790849211783e-38 1768976227
26.960751 54.084358 11.020200 1.880790849211783e-38 1768976227
26.317003 52.792973 10.226505 1.880790849211783e-38 1768976227
24.983932 50.118774 13.165608 1.880790849211783e-38 1768976227
24.587305 49.323128 12.618631 1.880790849211783e-38 1768976227
27.445303 55.056385 10.161942 1.880790849211783e-38 1768976227
29.034130 58.243633 10.178187 1.880790849211783e-38 1768976227
25.694250 51.543701 12.633410 1.880790849211783e-38 1768976227
26.538260 53.236820 12.610649 1.880790849211783e-38 1768976227
25.894007 51.554417 6.905794 1.880790849211783e-38 1768976227
24.066401 47.915691 6.100519 1.880790849211783e-38 1768976227
29.659754 59.051937 9.909308 1.880790849211783e-38 1768976227
29.180180 58.097115 9.323810 1.880790849211783e-38 1768976227
25.673164 51.114723 7.887532 1.880790849211783e-38 1768976227
25.111629 49.996723 7.394782 1.880790849211783e-38 1768976227
22.914499 45.622276 4.514446 1.880790849211783e-38 1768976227
26.197571 52.158810 3.860734 1.880790849211783e-38 1768976227
27.044992 53.846004 3.603781 1.880790849211783e-38 1768976227
26.132217 52.028690 11.688493 1.880790849211783e-38 1768976227
25.563194 50.895775 10.840214 1.880790849211783e-38 1768976227
23.782913 47.351273 19.303003 1.880790849211783e-38 1768976227
22.739252 45.273365 14.924430 1.880790849211783e-38 1768976227
22.816759 45.427681 14.590810 1.880790849211783e-38 1768976227
23.174112 46.139168 18.207281 1.880790849211783e-38 1768976227
23.704403 47.194958 18.289242 1.880790849211783e-38 1768976227
25.641460 51.051605 15.836594 1.880790849211783e-38 1768976227
22.437979 44.673538 13.408428 1.880790849211783e-38 1768976227
24.116863 48.016163 18.135181 1.880790849211783e-38 1768976227
24.137493 48.057236 17.634016 1.880790849211783e-38 1768976227
26.056868 51.878670 14.977630 1.880790849211783e-38 1768976227
26.320337 52.403236 14.433814 1.880790849211783e-38 1768976227
24.413897 48.607548 17.246639 1.880790849211783e-38 1768976227
25.087561 49.948803 17.082687 1.880790849211783e-38 1768976227
27.171900 54.098671 11.039764 1.880790849211783e-38 1768976227
26.769833 53.298168 10.339959 1.880790849211783e-38 1768976227
25.067165 49.908195 13.130092 1.880790849211783e-38 1768976227
24.739635 49.256088 12.620511 1.880790849211783e-38 1768976227
27.537624 54.826824 10.134854 1.880790849211783e-38 1768976227
29.158020 58.053001 10.160194 1.880790849211783e-38 1768976227
25.700527 51.169209 12.560562 1.880790849211783e-38 1768976227
28.825594 57.391148 13.615250 1.880790849211783e-38 1768976227
24.386940 48.190960 6.465077 1.880790849211783e-38 1768976227
23.872564 47.174503 6.015292 1.880790849211783e-38 1768976227
23.981373 47.389515 5.673574 1.880790849211783e-38 1768976227
29.292498 57.884815 9.728239 1.880790849211783e-38 1768976227
29.789009 58.865971 9.461576 1.880790849211783e-38 1768976227
25.772327 50.928616 7.870772 1.880790849211783e-38 1768976227
25.518686 50.427402 7.469831 1.880790849211783e-38 1768976227
26.973478 53.302212 3.572814 1.880790849211783e-38 1768976227
25.940712 51.261368 11.533634 1.880790849211783e-38 1768976227
25.903807 51.188431 10.919136 1.880790849211783e-38 1768976227
23.733154 46.899014 19.147730 1.880790849211783e-38 1768976227
22.555515 44.571888 14.715544 1.880790849211783e-38 1768976227
23.083473 45.615181 14.673327 1.880790849211783e-38 1768976227
23.642815 46.720493 18.464739 1.880790849211783e-38 1768976227
23.284275 46.011986 17.857941 1.880790849211783e-38 1768976227
25.837570 51.057541 15.862536 1.880790849211783e-38 1768976227
22.787151 45.029621 13.535870 1.880790849211783e-38 1768976227
24.436390 48.288677 18.265860 1.880790849211783e-38 1768976227
24.161440 47.745346 17.546230 1.880790849211783e-38 1768976227
26.413921 52.196468 15.092310 1.880790849211783e-38 1768976227
26.571037 52.506947 14.484387 1.880790849211783e-38 1768976227
24.532787 48.479164 17.227261 1.880790849211783e-38 1768976227
25.570389 50.529568 17.307608 1.880790849211783e-38 1768976227
27.387369 54.120094 11.060942 1.880790849211783e-38 1768976227
27.143599 53.638386 10.421797 1.880790849211783e-38 1768976227
25.172192 49.742687 13.106462 1.880790849211783e-38 1768976227
24.943901 49.291569 12.648820 1.880790849211783e-38 1768976227
27.818529 54.972111 10.177173 1.880790849211783e-38 1768976227
27.811001 54.957233 9.633022 1.880790849211783e-38 1768976227
25.792116 50.967724 12.530141 1.880790849211783e-38 1768976227
28.955120 57.218124 13.594858 1.880790849211783e-38 1768976227
24.764715 48.573307 6.804989 1.880790849211783e-38 1768976227
24.279360 47.621334 6.398453 1.880790849211783e-38 1768976227
24.319784 47.700623 6.091703 1.880790849211783e-38 1768976227
23.966116 47.006935 5.636399 1.880790849211783e-38 1768976227
25.786449 50.577324 8.513159 1.880790849211783e-38 1768976227
30.147093 59.130257 9.518625 1.880790849211783e-38 1768976227
25.943066 50.884514 7.876013 1.880790849211783e-38 1768976227
25.559076 50.131359 7.437363 1.880790849211783e-38 1768976227
26.584480 52.142582 3.500443 1.880790849211783e-38 1768976227
26.251081 51.488655 11.602533 1.880790849211783e-38 1768976227
26.155617 51.301411 10.960012 1.880790849211783e-38 1768976227
22.809576 44.738510 18.293652 1.880790849211783e-38 1768976227
26.165325 51.320454 16.969580 1.880790849211783e-38 1768976227
23.195986 45.496418 14.657559 1.880790849211783e-38 1768976227
23.670565 46.427250 18.376972 1.880790849211783e-38 1768976227
23.015049 45.141525 17.546963 1.880790849211783e-38 1768976227
25.835617 50.673767 15.767440 1.880790849211783e-38 1768976227
23.419691 45.935188 13.829251 1.880790849211783e-38 1768976227
24.271772 47.606457 18.035408 1.880790849211783e-38 1768976227
24.129635 47.327667 17.419399 1.880790849211783e-38 1768976227
26.942789 52.845360 15.303359 1.880790849211783e-38 1768976227
26.365484 51.713047 14.287253 1.880790849211783e-38 1768976227
24.887838 48.814800 17.373123 1.880790849211783e-38 1768976227
25.519491 50.053719 17.170902 1.880790849211783e-38 1768976227
27.407682 53.757198 11.003618 1.880790849211783e-38 1768976227
27.283249 53.513138 10.413402 1.880790849211783e-38 1768976227
25.509602 50.034317 13.203514 1.880790849211783e-38 1768976227
25.187174 49.401913 12.696571 1.880790849211783e-38 1768976227
28.246212 55.401886 10.272464 1.880790849211783e-38 1768976227
27.888811 54.700878 9.602787 1.880790849211783e-38 1768976227
25.713247 50.433754 12.417875 1.880790849211783e-38 1768976227
28.941025 56.764687 13.507799 1.880790849211783e-38 1768976227
24.985514 48.643276 6.825318 1.880790849211783e-38 1768976227
24.524689 47.746117 6.425128 1.880790849211783e-38 1768976227
24.373087 47.450970 6.069180 1.880790849211783e-38 1768976227
24.106003 46.930992 5.635984 1.880790849211783e-38 1768976227
28.313677 55.122742 9.292572 1.880790849211783e-38 1768976227
30.342537 59.072647 9.524039 1.880790849211783e-38 1768976227
26.327795 51.256508 7.945845 1.880790849211783e-38 1768976227
25.573395 49.787804 7.397802 1.880790849211783e-38 1768976227
26.963238 52.493629 3.143429 1.880790849211783e-38 1768976227
26.390503 51.378593 11.595615 1.880790849211783e-38 1768976227
27.515810 53.569405 11.462223 1.880790849211783e-38 1768976227
22.940037 44.661022 18.290173 1.880790849211783e-38 1768976227
26.666338 51.915607 17.192886 1.880790849211783e-38 1768976227
25.481798 49.609470 16.007347 1.880790849211783e-38 1768976227
23.642590 46.028790 18.247395 1.880790849211783e-38 1768976227
24.361916 47.429218 18.464687 1.880790849211783e-38 1768976227
25.478376 49.602810 15.458046 1.880790849211783e-38 1768976227
26.476788 51.546581 15.542587 1.880790849211783e-38 1768976227
24.568874 47.832134 18.148893 1.880790849211783e-38 1768976227
24.305531 47.319447 17.443274 1.880790849211783e-38 1768976227
26.770344 52.118088 15.116062 1.880790849211783e-38 1768976227
26.474628 51.542377 14.262096 1.880790849211783e-38 1768976227
24.761835 48.207806 17.183596 1.880790849211783e-38 1768976227
25.480703 49.607338 17.044058 1.880790849211783e-38 1768976227
27.643595 53.818184 11.033115 1.880790849211783e-38 1768976227
27.530817 53.598625 10.446147 1.880790849211783e-38 1768976227
25.632576 49.903015 13.189204 1.880790849211783e-38 1768976227
25.450785 49.549095 12.754067 1.880790849211783e-38 1768976227
28.282930 55.062881 10.225376 1.880790849211783e-38 1768976227
28.246889 54.992714 9.668930 1.880790849211783e-38 1768976227
24.976192 48.625130 11.991046 1.880790849211783e-38 1768976227
26.566034 51.720325 12.326447 1.880790849211783e-38 1768976227
25.010962 48.333591 6.792418 1.880790849211783e-38 1768976227
24.609442 47.557659 6.409726 1.880790849211783e-38 1768976227
24.335421 47.028114 6.024456 1.880790849211783e-38 1768976227
24.213081 46.791691 5.628000 1.880790849211783e-38 1768976227
28.524092 55.122704 9.307026 1.880790849211783e-38 1768976227
30.065538 58.101543 9.382050 1.880790849211783e-38 1768976227
24.299198 46.958111 5.410242 1.880790849211783e-38 1768976227
25.651926 49.572250 7.696708 1.880790849211783e-38 1768976227
25.135838 48.574913 7.228815 1.880790849211783e-38 1768976227
26.425491 51.067165 11.543263 1.880790849211783e-38 1768976227
27.645435 53.424706 11.449049 1.880790849211783e-38 1768976227
22.829079 44.117111 18.095537 1.880790849211783e-38 1768976227
26.848955 51.885509 17.209658 1.880790849211783e-38 1768976227
25.636547 49.542534 16.010626 1.880790849211783e-38 1768976227
23.569195 45.547382 18.084644 1.880790849211783e-38 1768976227
24.433872 47.218369 18.411207 1.880790849211783e-38 1768976227
25.487225 49.253971 15.373219 1.880790849211783e-38 1768976227
26.981419 52.141491 15.746434 1.880790849211783e-38 1768976227
25.037367 48.384621 18.387091 1.880790849211783e-38 1768976227
24.206314 46.778614 17.270741 1.880790849211783e-38 1768976227
23.109871 44.659744 12.973038 1.880790849211783e-38 1768976227
26.477610 51.167885 14.180505 1.880790849211783e-38 1768976227
25.207081 48.712593 17.390545 1.880790849211783e-38 1768976227
26.325258 50.873463 17.506271 1.880790849211783e-38 1768976227
27.669010 53.470261 10.978847 1.880790849211783e-38 1768976227
27.757078 53.640450 10.470567 1.880790849211783e-38 1768976227
26.351366 50.923920 13.479970 1.880790849211783e-38 1768976227
25.668365 49.604023 12.788074 1.880790849211783e-38 1768976227
28.413494 54.908970 10.212662 1.880790849211783e-38 1768976227
26.022955 50.289265 8.855720 1.880790849211783e-38 1768976227
25.391426 49.068836 12.119295 1.880790849211783e-38 1768976227
26.700602 51.598812 12.316623 1.880790849211783e-38 1768976227
25.146631 48.238781 6.789721 1.880790849211783e-38 1768976227
24.714882 47.410557 6.399916 1.880790849211783e-38 1768976227
24.193768 46.410904 5.954709 1.880790849211783e-38 1768976227
24.124735 46.278481 5.574998 1.880790849211783e-38 1768976227
28.851170 55.345196 9.359241 1.880790849211783e-38 1768976227
28.950205 55.535179 8.981699 1.880790849211783e-38 1768976227
23.972288 45.986038 5.306551 1.880790849211783e-38 1768976227
25.526535 48.967548 7.614739 1.880790849211783e-38 1768976227
25.234362 48.407078 7.215131 1.880790849211783e-38 1768976227
26.461504 50.761097 11.492067 1.880790849211783e-38 1768976227
26.956604 51.710850 11.099138 1.880790849211783e-38 1768976227
23.214363 44.532112 18.294394 1.880790849211783e-38 1768976227
27.260563 52.293938 17.372318 1.880790849211783e-38 1768976227
25.326584 48.583984 15.725465 1.880790849211783e-38 1768976227
23.644487 45.357224 18.037373 1.880790849211783e-38 1768976227
24.900124 47.765907 18.653896 1.880790849211783e-38 1768976227
25.712521 49.324329 15.419313 1.880790849211783e-38 1768976227
28.209345 54.113987 16.367733 1.880790849211783e-38 1768976227
24.933210 47.829372 18.204578 1.880790849211783e-38 1768976227
24.284170 46.584320 17.225969 1.880790849211783e-38 1768976227
23.189684 44.484772 12.942469 1.880790849211783e-38 1768976227
26.732016 51.280022 14.233861 1.880790849211783e-38 1768976227
25.078276 48.107655 17.201504 1.880790849211783e-38 1768976227
26.429096 50.698933 17.473562 1.880790849211783e-38 1768976227
27.591749 52.929253 10.884800 1.880790849211783e-38 1768976227
27.980608 53.675198 10.493774 1.880790849211783e-38 1768976227
26.371088 50.587658 13.411951 1.880790849211783e-38 1768976227
25.675270 49.252869 12.717450 1.880790849211783e-38 1768976227
28.504009 54.679241 10.185876 1.880790849211783e-38 1768976227
28.760183 55.170662 9.730542 1.880790849211783e-38 1768976227
25.373127 48.673267 12.040441 1.880790849211783e-38 1768976227
27.109621 52.004383 12.432892 1.880790849211783e-38 1768976227
25.154127 47.900177 6.752708 1.880790849211783e-38 1768976227
24.785593 47.198387 6.381338 1.880790849211783e-38 1768976227
24.409933 46.483032 5.973382 1.880790849211783e-38 1768976227
24.611214 46.866322 5.654729 1.880790849211783e-38 1768976227
29.184875 55.575794 9.413078 1.880790849211783e-38 1768976227
28.925127 55.081161 8.922339 1.880790849211783e-38 1768976227
24.207220 46.097012 5.327756 1.880790849211783e-38 1768976227
25.752258 49.039181 7.637921 1.880790849211783e-38 1768976227
25.250521 48.083736 7.178255 1.880790849211783e-38 1768976227
26.717325 50.876923 11.536479 1.880790849211783e-38 1768976227
27.047499 51.505661 11.072555 1.880790849211783e-38 1768976227
22.912355 43.631241 17.952608 1.880790849211783e-38 1768976227
27.094433 51.595036 17.167210 1.880790849211783e-38 1768976227
25.021671 47.647942 15.446844 1.880790849211783e-38 1768976227
23.708735 45.147758 17.982430 1.880790849211783e-38 1768976227
24.770542 47.169731 18.450165 1.880790849211783e-38 1768976227
26.256262 49.998928 15.654885 1.880790849211783e-38 1768976227
28.464649 54.204292 16.420940 1.880790849211783e-38 1768976227
25.139307 47.871956 18.249561 1.880790849211783e-38 1768976227
24.541374 46.733330 17.308361 1.880790849211783e-38 1768976227
27.729765 52.804874 15.387394 1.880790849211783e-38 1768976227
26.788813 51.013054 14.182119 1.880790849211783e-38 1768976227
25.024586 47.653492 17.066021 1.880790849211783e-38 1768976227
26.612129 50.676601 17.493448 1.880790849211783e-38 1768976227
28.180937 53.664028 11.053333 1.880790849211783e-38 1768976227
28.907824 55.048218 10.779201 1.880790849211783e-38 1768976227
26.328562 50.136616 13.313359 1.880790849211783e-38 1768976227
25.908314 49.336349 12.759123 1.880790849211783e-38 1768976227
28.737322 54.723537 10.210227 1.880790849211783e-38 1768976227
28.897243 55.028069 9.720719 1.880790849211783e-38 1768976227
25.876530 49.275822 12.208746 1.880790849211783e-38 1768976227
27.004143 51.423100 12.313337 1.880790849211783e-38 1768976227
25.004654 47.268650 6.674281 1.880790849211783e-38 1768976227
25.045988 47.346794 6.411586 1.880790849211783e-38 1768976227
41.972458 79.344498 -0.521500 1.880790849211783e-38 1768976227
24.629982 46.560375 5.992839 1.880790849211783e-38 1768976227
24.533689 46.378345 5.604753 1.880790849211783e-38 1768976227
29.200993 55.201385 9.364537 1.880790849211783e-38 1768976227
25.762581 48.701435 7.901468 1.880790849211783e-38 1768976227
24.334789 46.002346 5.325274 1.880790849211783e-38 1768976227
25.739695 48.658173 7.590635 1.880790849211783e-38 1768976227
25.609341 48.411751 7.238720 1.880790849211783e-38 1768976227
42.145771 79.672119 0.544969 1.880790849211783e-38 1768976227
41.998348 79.393433 0.065700 1.880790849211783e-38 1768976227
26.787628 50.639179 11.500837 1.880790849211783e-38 1768976227
27.025759 51.089336 11.000527 1.880790849211783e-38 1768976227
24.685093 46.664558 19.231249 1.880790849211783e-38 1768976227
27.799873 52.552727 17.513676 1.880790849211783e-38 1768976227
25.136003 47.516953 15.428886 1.880790849211783e-38 1768976227
23.880028 45.142666 18.009005 1.880790849211783e-38 1768976227
24.839170 46.955826 18.395718 1.880790849211783e-38 1768976227
26.332745 49.779266 15.610903 1.880790849211783e-38 1768976227
26.573351 50.234112 15.242402 1.880790849211783e-38 1768976227
25.200417 47.638721 18.189539 1.880790849211783e-38 1768976227
24.868753 47.011745 17.439177 1.880790849211783e-38 1768976227
27.775770 52.507156 15.324980 1.880790849211783e-38 1768976227
27.127573 51.281811 14.279516 1.880790849211783e-38 1768976227
25.303001 47.832649 17.157433 1.880790849211783e-38 1768976227
26.674889 50.426060 17.434652 1.880790849211783e-38 1768976227
28.081305 53.084736 10.951409 1.880790849211783e-38 1768976227
28.965483 54.756184 10.739074 1.880790849211783e-38 1768976227
26.777693 50.620396 13.463209 1.880790849211783e-38 1768976227
26.601599 50.287510 13.025797 1.880790849211783e-38 1768976227
26.436281 49.974995 9.339086 1.880790849211783e-38 1768976227
29.019308 54.857937 9.706081 1.880790849211783e-38 1768976227
25.965599 49.085220 12.180869 1.880790849211783e-38 1768976227
27.052586 51.140049 12.265041 1.880790849211783e-38 1768976227
25.199472 47.291317 6.688182 1.880790849211783e-38 1768976227
25.169680 47.235405 6.406752 1.880790849211783e-38 1768976227
42.006069 78.831894 -0.518961 1.880790849211783e-38 1768976227
24.993906 46.905529 6.046940 1.880790849211783e-38 1768976227
24.967131 46.855282 5.671464 1.880790849211783e-38 1768976227
29.738710 55.810013 9.482959 1.880790849211783e-38 1768976227
25.934460 48.670650 7.909127 1.880790849211783e-38 1768976227
24.876146 46.684540 5.412905 1.880790849211783e-38 1768976227
25.825243 48.465687 7.572723 1.880790849211783e-38 1768976227
25.425493 47.715481 7.146045 1.880790849211783e-38 1768976227
41.884624 78.603996 0.538524 1.880790849211783e-38 1768976227
41.754040 78.358925 0.064948 1.880790849211783e-38 1768976227
27.066792 50.795673 11.554866 1.880790849211783e-38 1768976227
27.050188 50.764515 10.948103 1.880790849211783e-38 1768976227
24.629086 46.220882 19.078928 1.880790849211783e-38 1768976227
27.790306 52.153477 17.408478 1.880790849211783e-38 1768976227
25.339409 47.553932 15.465637 1.880790849211783e-38 1768976227
23.729797 44.533211 17.794340 1.880790849211783e-38 1768976227
24.765944 46.477722 18.237589 1.880790849211783e-38 1768976227
26.405062 49.553818 15.565104 1.880790849211783e-38 1768976227
26.712688 50.131138 15.235533 1.880790849211783e-38 1768976227
25.272604 47.428562 18.138315 1.880790849211783e-38 1768976227
25.708599 48.246780 17.925997 1.880790849211783e-38 1768976227
27.863932 52.291645 15.286537 1.880790849211783e-38 1768976227
27.247778 51.135326 14.261545 1.880790849211783e-38 1768976227
25.533678 47.918507 17.215775 1.880790849211783e-38 1768976227
27.081392 50.823074 17.600079 1.880790849211783e-38 1768976227
28.466791 53.423023 11.038859 1.880790849211783e-38 1768976227
26.384409 49.515060 9.726720 1.880790849211783e-38 1768976227
26.814177 50.321598 13.405187 1.880790849211783e-38 1768976227
26.854572 50.397411 13.075183 1.880790849211783e-38 1768976227
29.244905 54.883297 10.272759 1.880790849211783e-38 1768976227
29.272675 54.935410 9.735365 1.880790849211783e-38 1768976227
25.958387 48.715557 12.108506 1.880790849211783e-38 1768976227
27.161333 50.973099 12.244592 1.880790849211783e-38 1768976227
25.166775 46.888660 6.641941 1.880790849211783e-38 1768976227
24.909401 46.409145 6.304844 1.880790849211783e-38 1768976227
41.907742 78.079056 -0.514835 1.880790849211783e-38 1768976227
42.551571 79.278580 -1.037736 1.880790849211783e-38 1768976227
25.039904 46.652287 6.024001 1.880790849211783e-38 1768976227
24.748468 46.109306 5.590179 1.880790849211783e-38 1768976227
29.619061 55.183796 9.391691 1.880790849211783e-38 1768976227
26.525394 49.419930 8.043851 1.880790849211783e-38 1768976227
24.749880 46.111935 5.355145 1.880790849211783e-38 1768976227
25.742657 47.961597 7.506056 1.880790849211783e-38 1768976227
25.517096 47.541351 7.131460 1.880790849211783e-38 1768976227
42.749519 79.647385 1.100897 1.880790849211783e-38 1768976227
41.826664 77.928001 0.534755 1.880790849211783e-38 1768976227
41.613659 77.531143 0.064365 1.880790849211783e-38 1768976227
27.204279 50.684769 11.548250 1.880790849211783e-38 1768976227
25.788673 48.047333 10.378830 1.880790849211783e-38 1768976227
24.723522 46.062832 19.044382 1.880790849211783e-38 1768976227
27.911064 52.001598 17.385799 1.880790849211783e-38 1768976227
25.493330 47.497074 15.472080 1.880790849211783e-38 1768976227
24.528540 45.699554 18.289858 1.880790849211783e-38 1768976227
25.072037 46.712158 18.359169 1.880790849211783e-38 1768976227
26.600155 49.559219 15.591929 1.880790849211783e-38 1768976227
26.883665 50.087429 15.246821 1.880790849211783e-38 1768976227
25.589052 47.675415 18.262152 1.880790849211783e-38 1768976227
25.914272 48.281338 17.967793 1.880790849211783e-38 1768976227
28.118513 52.388103 15.339456 1.880790849211783e-38 1768976227
27.291811 50.847855 14.204262 1.880790849211783e-38 1768976227
25.496042 47.502125 17.093727 1.880790849211783e-38 1768976227
27.284983 50.835133 17.632671 1.880790849211783e-38 1768976227
26.135578 48.693661 10.077868 1.880790849211783e-38 1768976227
26.728933 49.799152 9.798317 1.880790849211783e-38 1768976227
26.911446 50.139187 13.378155 1.880790849211783e-38 1768976227
26.770504 49.876598 12.960952 1.880790849211783e-38 1768976227
28.889807 53.825104 10.090958 1.880790849211783e-38 1768976227
29.636547 55.216373 9.800952 1.880790849211783e-38 1768976227
26.312744 49.023739 12.204777 1.880790849211783e-38 1768976227
27.112915 50.514549 12.154028 1.880790849211783e-38 1768976227
25.352713 46.895119 6.653656 1.880790849211783e-38 1768976227
25.510698 47.187344 6.420989 1.880790849211783e-38 1768976227
42.040596 77.762825 -0.513583 1.880790849211783e-38 1768976227
42.295391 78.234123 -1.025729 1.880790849211783e-38 1768976227
25.146427 46.513546 6.015851 1.880790849211783e-38 1768976227
24.990332 46.224815 5.613296 1.880790849211783e-38 1768976227
29.811794 55.143120 9.400027 1.880790849211783e-38 1768976227
30.001961 55.494869 9.047326 1.880790849211783e-38 1768976227
24.964933 46.177837 5.371518 1.880790849211783e-38 1768976227
31.610752 58.470657 9.165617 1.880790849211783e-38 1768976227
25.597231 47.347401 7.113914 1.880790849211783e-38 1768976227
42.472324 78.561401 1.087652 1.880790849211783e-38 1768976227
41.776711 77.274719 0.531134 1.880790849211783e-38 1768976227
41.965851 77.624580 0.064548 1.880790849211783e-38 1768976227
27.214949 50.339706 11.488277 1.880790849211783e-38 1768976227
25.691271 47.521351 10.281902 1.880790849211783e-38 1768976227
24.815058 45.900616 19.008169 1.880790849211783e-38 1768976227
27.993980 51.780689 17.340092 1.880790849211783e-38 1768976227
25.739721 47.610970 15.534399 1.880790849211783e-38 1768976227
24.322805 44.990089 18.035194 1.880790849211783e-38 1768976227
24.907871 46.072289 18.137125 1.880790849211783e-38 1768976227
26.674814 49.340618 15.548394 1.880790849211783e-38 1768976227
26.921213 49.796383 15.182872 1.880790849211783e-38 1768976227
25.648199 47.441685 18.202169 1.880790849211783e-38 1768976227
26.002672 48.097355 17.928427 1.880790849211783e-38 1768976227
28.275074 52.300632 15.338745 1.880790849211783e-38 1768976227
27.690752 51.219807 14.331430 1.880790849211783e-38 1768976227
25.649593 47.444263 17.100664 1.880790849211783e-38 1768976227
27.521862 50.907410 17.686453 1.880790849211783e-38 1768976227
25.984825 48.064346 9.963795 1.880790849211783e-38 1768976227
26.754833 49.488628 9.753053 1.880790849211783e-38 1768976227
27.350470 50.590382 13.520492 1.880790849211783e-38 1768976227
26.962107 49.872028 12.980836 1.880790849211783e-38 1768976227
28.700445 53.087444 9.968845 1.880790849211783e-38 1768976227
29.851433 55.216438 9.816899 1.880790849211783e-38 1768976227
26.568487 49.143948 12.254596 1.880790849211783e-38 1768976227
26.319069 48.682594 11.732296 1.880790849211783e-38 1768976227
25.484091 46.800194 6.651062 1.880790849211783e-38 1768976227
25.409304 46.662849 6.360017 1.880790849211783e-38 1768976227
42.002682 77.135719 -0.510276 1.880790849211783e-38 1768976227
42.064022 77.248360 -1.014464 1.880790849211783e-38 1768976227
24.884062 45.698277 5.920087 1.880790849211783e-38 1768976227
25.072826 46.044933 5.600608 1.880790849211783e-38 1768976227
26.195452 48.106567 8.213965 1.880790849211783e-38 1768976227
30.132174 55.336155 9.036225 1.880790849211783e-38 1768976227
24.920345 45.764908 5.332202 1.880790849211783e-38 1768976227
25.729708 47.251255 7.111095 1.880790849211783e-38 1768976227
42.393021 77.852554 1.079603 1.880790849211783e-38 1768976227
42.022743 77.172562 0.531301 1.880790849211783e-38 1768976227
41.556473 76.316269 0.063564 1.880790849211783e-38 1768976227
27.409277 50.335701 11.506176 1.880790849211783e-38 1768976227
26.146935 48.017471 10.406259 1.880790849211783e-38 1768976227
24.868166 45.669079 18.943260 1.880790849211783e-38 1768976227
28.091652 51.588844 17.304140 1.880790849211783e-38 1768976227
26.098021 47.927647 15.663333 1.880790849211783e-38 1768976227
25.251129 46.372372 18.619753 1.880790849211783e-38 1768976227
25.191957 46.263702 18.242306 1.880790849211783e-38 1768976227
26.818670 49.251080 15.545595 1.880790849211783e-38 1768976227
27.354830 50.235706 15.341906 1.880790849211783e-38 1768976227
25.386374 46.620743 17.916487 1.880790849211783e-38 1768976227
25.996143 47.740555 17.824572 1.880790849211783e-38 1768976227
28.145996 51.688644 15.184086 1.880790849211783e-38 1768976227
27.264006 50.068913 14.032351 1.880790849211783e-38 1768976227
24.892099 45.713028 16.503649 1.880790849211783e-38 1768976227
27.478104 50.462097 17.560450 1.880790849211783e-38 1768976227
26.532806 48.726105 10.117522 1.880790849211783e-38 1768976227
26.701578 49.036041 9.679686 1.880790849211783e-38 1768976227
27.138851 49.839073 13.341514 1.880790849211783e-38 1768976227
28.099131 51.602577 13.453265 1.880790849211783e-38 1768976227
29.671333 54.489845 10.248947 1.880790849211783e-38 1768976227
29.944427 54.991364 9.792894 1.880790849211783e-38 1768976227
28.081869 51.570873 12.880838 1.880790849211783e-38 1768976227
26.817074 49.248150 11.888029 1.880790849211783e-38 1768976227
25.673853 46.811974 6.663710 1.880790849211783e-38 1768976227
25.933729 47.285812 6.455556 1.880790849211783e-38 1768976227
41.850777 76.307892 -0.505632 1.880790849211783e-38 1768976227
42.264694 77.062599 -1.013693 1.880790849211783e-38 1768976227
25.358164 46.236362 5.999675 1.880790849211783e-38 1768976227
25.580679 46.642090 5.682601 1.880790849211783e-38 1768976227
30.208553 55.080238 9.420199 1.880790849211783e-38 1768976227
26.223976 47.815029 7.820929 1.880790849211783e-38 1768976227
25.648481 46.765709 5.457798 1.880790849211783e-38 1768976227
25.192345 45.934021 5.018044 1.880790849211783e-38 1768976227
25.986151 47.381393 7.142443 1.880790849211783e-38 1768976227
42.381248 77.275116 1.073363 1.880790849211783e-38 1768976227
42.131783 76.820251 0.529748 1.880790849211783e-38 1768976227
41.820316 76.252342 0.063615 1.880790849211783e-38 1768976227
27.685631 50.480110 11.558221 1.880790849211783e-38 1768976227
26.047359 47.492996 10.309574 1.880790849211783e-38 1768976227
25.069342 45.709747 18.991404 1.880790849211783e-38 1768976227
27.450808 50.051952 16.816322 1.880790849211783e-38 1768976227
25.974798 47.360695 15.503578 1.880790849211783e-38 1768976227
25.513416 46.519444 18.709618 1.880790849211783e-38 1768976227
25.633610 46.738594 18.459961 1.880790849211783e-38 1768976227
26.979675 49.192921 15.552853 1.880790849211783e-38 1768976227
27.389040 49.939331 15.276550 1.880790849211783e-38 1768976227
25.864767 47.160076 18.153650 1.880790849211783e-38 1768976227
26.268534 47.896275 17.912210 1.880790849211783e-38 1768976227
27.934809 50.934448 14.987215 1.880790849211783e-38 1768976227
27.480864 50.106754 14.066121 1.880790849211783e-38 1768976227
24.955732 45.502598 16.454775 1.880790849211783e-38 1768976227
28.226423 51.466160 17.939402 1.880790849211783e-38 1768976227
26.964506 49.165264 10.225549 1.880790849211783e-38 1768976227
27.212296 49.617069 9.810535 1.880790849211783e-38 1768976227
27.390430 49.941860 13.391082 1.880790849211783e-38 1768976227
27.777479 50.647583 13.226069 1.880790849211783e-38 1768976227
29.901569 54.520504 10.271630 1.880790849211783e-38 1768976227
29.715738 54.181675 9.664621 1.880790849211783e-38 1768976227
28.169413 51.362206 12.849880 1.880790849211783e-38 1768976227
26.574106 48.453430 11.715486 1.880790849211783e-38 1768976227
25.822390 46.747864 6.665640 1.880790849211783e-38 1768976227
25.780766 46.672508 6.382412 1.880790849211783e-38 1768976227
41.888443 75.833229 -0.503322 1.880790849211783e-38 1768976227
42.450485 76.850723 -1.012586 1.880790849211783e-38 1768976227
25.555357 46.264442 6.013292 1.880790849211783e-38 1768976227
25.402861 45.988365 5.612264 1.880790849211783e-38 1768976227
30.141220 54.566509 9.347841 1.880790849211783e-38 1768976227
26.416071 47.822639 7.835169 1.880790849211783e-38 1768976227
25.121658 45.479286 5.316483 1.880790849211783e-38 1768976227
25.465052 46.100956 5.044648 1.880790849211783e-38 1768976227
26.775730 48.473755 7.319248 1.880790849211783e-38 1768976227
42.454502 76.857994 1.069343 1.880790849211783e-38 1768976227
42.309845 76.596115 0.529080 1.880790849211783e-38 1768976227
41.971714 75.983978 0.063497 1.880790849211783e-38 1768976227
27.798206 50.324806 11.541804 1.880790849211783e-38 1768976227
26.517912 48.007011 10.438467 1.880790849211783e-38 1768976227
25.300657 45.803341 19.061907 1.880790849211783e-38 1768976227
27.551617 49.878387 16.785851 1.880790849211783e-38 1768976227
26.422115 47.833580 15.684393 1.880790849211783e-38 1768976227
24.950689 45.169769 18.196974 1.880790849211783e-38 1768976227
25.534628 46.226910 18.288197 1.880790849211783e-38 1768976227
27.206291 49.253223 15.597788 1.880790849211783e-38 1768976227
27.173639 49.194115 15.073587 1.880790849211783e-38 1768976227
25.903746 46.895145 18.081661 1.880790849211783e-38 1768976227
26.236242 47.497086 17.792433 1.880790849211783e-38 1768976227
28.111921 50.892742 14.999822 1.880790849211783e-38 1768976227
27.543919 49.864456 14.021358 1.880790849211783e-38 1768976227
25.054544 45.357788 16.429657 1.880790849211783e-38 1768976227
28.370834 51.361465 17.932652 1.880790849211783e-38 1768976227
27.160494 49.170315 10.243589 1.880790849211783e-38 1768976227
27.320766 49.460468 9.795818 1.880790849211783e-38 1768976227
27.501898 49.788380 13.372108 1.880790849211783e-38 1768976227
28.230206 51.106880 13.368183 1.880790849211783e-38 1768976227
29.855869 54.049919 10.199890 1.880790849211783e-38 1768976227
30.109612 54.509285 9.739212 1.880790849211783e-38 1768976227
28.179413 51.014927 12.784202 1.880790849211783e-38 1768976227
27.806067 50.339035 12.191625 1.880790849211783e-38 1768976227
26.147633 47.001186 6.712974 1.880790849211783e-38 1768976227
25.966303 46.675243 6.393466 1.880790849211783e-38 1768976227
42.322048 76.075195 -0.505773 1.880790849211783e-38 1768976227
42.552933 76.490227 -1.009522 1.880790849211783e-38 1768976227
25.522295 45.877121 5.972927 1.880790849211783e-38 1768976227
25.578041 45.977325 5.620306 1.880790849211783e-38 1768976227
30.345032 54.546139 9.359988 1.880790849211783e-38 1768976227
26.386679 47.430878 7.783987 1.880790849211783e-38 1768976227
25.532219 45.894962 5.374052 1.880790849211783e-38 1768976227
25.439253 45.727848 5.012193 1.880790849211783e-38 1768976227
26.792713 48.160740 7.284153 1.880790849211783e-38 1768976227
27.281496 49.039341 4.962199 1.880790849211783e-38 1768976227
27.284355 49.044479 4.710326 1.880790849211783e-38 1768976227
27.177013 48.851532 4.337550 1.880790849211783e-38 1768976227
27.147257 48.798042 3.978942 1.880790849211783e-38 1768976227
42.591003 76.558662 1.066961 1.880790849211783e-38 1768976227
42.035858 75.560768 0.522801 1.880790849211783e-38 1768976227
42.166561 75.795708 0.063445 1.880790849211783e-38 1768976227
28.011324 50.351231 11.567187 1.880790849211783e-38 1768976227
26.769150 48.118385 10.480190 1.880790849211783e-38 1768976227
25.459108 45.763546 19.077211 1.880790849211783e-38 1768976227
27.683937 49.762741 16.774952 1.880790849211783e-38 1768976227
26.276424 47.232693 15.513279 1.880790849211783e-38 1768976227
25.413986 45.682434 18.434299 1.880790849211783e-38 1768976227
26.013397 46.759895 18.530010 1.880790849211783e-38 1768976227
27.448416 49.339382 15.651217 1.880790849211783e-38 1768976227
27.461607 49.363098 15.150675 1.880790849211783e-38 1768976227
25.630983 46.072491 17.794189 1.880790849211783e-38 1768976227
26.482393 47.602928 17.861919 1.880790849211783e-38 1768976227
28.212915 50.713593 14.972031 1.880790849211783e-38 1768976227
28.128654 50.562134 14.241326 1.880790849211783e-38 1768976227
25.101934 45.121510 16.371422 1.880790849211783e-38 1768976227
28.476200 51.186859 17.901590 1.880790849211783e-38 1768976227
27.314081 49.097916 10.245622 1.880790849211783e-38 1768976227
27.654390 49.709633 9.861640 1.880790849211783e-38 1768976227
28.490299 51.212208 13.777532 1.880790849211783e-38 1768976227
28.533157 51.289242 13.438333 1.880790849211783e-38 1768976227
29.902842 53.751289 10.160508 1.880790849211783e-38 1768976227
30.206909 54.297867 9.717671 1.880790849211783e-38 1768976227
28.477310 51.188854 12.849253 1.880790849211783e-38 1768976227
28.138203 50.579296 12.270311 1.880790849211783e-38 1768976227
26.103661 46.590836 6.665580 1.880790849211783e-38 1768976227
25.999565 46.405041 6.367167 1.880790849211783e-38 1768976227
42.515358 75.883080 -0.505346 1.880790849211783e-38 1768976227
42.636902 76.100014 -1.006065 1.880790849211783e-38 1768976227
25.552032 45.606270 5.947670 1.880790849211783e-38 1768976227
25.687933 45.848831 5.614042 1.880790849211783e-38 1768976227
30.784340 54.945099 9.444337 1.880790849211783e-38 1768976227
26.711735 47.676151 7.837424 1.880790849211783e-38 1768976227
25.751228 45.961800 5.390948 1.880790849211783e-38 1768976227
25.534487 45.574955 5.003853 1.880790849211783e-38 1768976227
26.490847 47.281902 7.473489 1.880790849211783e-38 1768976227
27.112406 48.391285 7.331357 1.880790849211783e-38 1768976227
27.342699 48.802322 4.946537 1.880790849211783e-38 1768976227
27.316364 48.755318 4.690445 1.880790849211783e-38 1768976227
27.588215 49.240528 4.379456 1.880790849211783e-38 1768976227
27.391142 48.888786 3.993059 1.880790849211783e-38 1768976227
27.377565 48.864555 3.704840 1.880790849211783e-38 1768976227
42.788074 76.369835 1.066123 1.880790849211783e-38 1768976227
42.262856 75.432396 0.522793 1.880790849211783e-38 1768976227
42.244576 75.399780 0.063220 1.880790849211783e-38 1768976227
28.107233 50.166893 11.544261 1.880790849211783e-38 1768976227
26.740721 47.727882 10.412658 1.880790849211783e-38 1768976227
25.633091 45.750946 19.104101 1.880790849211783e-38 1768976227
27.931374 49.853012 16.833704 1.880790849211783e-38 1768976227
26.739254 47.725273 15.701479 1.880790849211783e-38 1768976227
25.943245 46.304523 18.380478 1.880790849211783e-38 1768976227
27.402590 48.909218 15.540908 1.880790849211783e-38 1768976227
27.561045 49.192039 15.123616 1.880790849211783e-38 1768976227
25.743292 45.947639 17.775873 1.880790849211783e-38 1768976227
26.140490 46.656570 17.536324 1.880790849211783e-38 1768976227
28.664921 51.162277 15.129948 1.880790849211783e-38 1768976227
28.332386 50.568756 14.267194 1.880790849211783e-38 1768976227
27.523355 49.124763 17.853958 1.880790849211783e-38 1768976227
27.275444 48.682281 10.176007 1.880790849211783e-38 1768976227
27.659101 49.367054 9.810183 1.880790849211783e-38 1768976227
28.267591 50.453106 13.596186 1.880790849211783e-38 1768976227
28.604248 51.053982 13.399234 1.880790849211783e-38 1768976227
29.974413 53.499504 10.129956 1.880790849211783e-38 1768976227
25.379816 45.298893 8.120790 1.880790849211783e-38 1768976227
28.470898 50.815975 12.777148 1.880790849211783e-38 1768976227
28.506027 50.878677 12.363740 1.880790849211783e-38 1768976227
26.486631 46.941811 6.727190 1.880790849211783e-38 1768976227
26.163584 46.369274 6.373057 1.880790849211783e-38 1768976227
42.347004 75.050888 -0.500652 1.880790849211783e-38 1768976227
42.847061 75.937126 -1.005615 1.880790849211783e-38 1768976227
25.975863 46.036583 6.013978 1.880790849211783e-38 1768976227
25.769369 45.670616 5.601712 1.880790849211783e-38 1768976227
26.807093 47.509762 7.823327 1.880790849211783e-38 1768976227
