# .PCD v0.7 - Point Cloud Data file format
VERSION 0.7
FIELDS x y z rgb label
SIZE 4 4 4 4 4
TYPE F F F F U
COUNT 1 1 1 1 1
WIDTH 765
HEIGHT 1
VIEWPOINT 0 0 0 1 0 0 0
POINTS 765
DATA ascii
41.869198 61.442421 16.309595 1.880790849211783e-38 1768976227
44.106033 64.724945 16.604542 1.880790849211783e-38 1768976227
42.322861 61.707417 9.339236 1.880790849211783e-38 1768976227
42.172909 61.488785 8.925110 1.880790849211783e-38 1768976227
43.317245 63.157249 8.713289 1.880790849211783e-38 1768976227
42.883472 62.524799 8.099092 1.880790849211783e-38 1768976227
41.780247 60.916275 11.076754 1.880790849211783e-38 1768976227
41.171253 60.028355 10.439152 1.880790849211783e-38 1768976227
43.054707 62.774452 7.789107 1.880790849211783e-38 1768976227
44.360355 64.678116 7.512289 1.880790849211783e-38 1768976227
40.691658 59.329098 9.920483 1.880790849211783e-38 1768976227
42.882347 62.523163 10.020622 1.880790849211783e-38 1768976227
47.544670 69.320900 4.477497 1.880790849211783e-38 1768976227
45.552425 66.416176 3.894768 1.880790849211783e-38 1768976227
44.303436 64.595123 6.573981 1.880790849211783e-38 1768976227
44.684635 65.150917 3.287645 1.880790849211783e-38 1768976227
43.957748 64.091110 6.030203 1.880790849211783e-38 1768976227
47.295181 68.957138 5.958162 1.880790849211783e-38 1768976227
45.084454 65.733856 2.013559 1.880790849211783e-38 1768976227
45.560444 66.427864 5.327979 1.880790849211783e-38 1768976227
46.396946 67.647499 4.905989 1.880790849211783e-38 1768976227
44.490498 64.867867 1.359947 1.880790849211783e-38 1768976227
42.431347 61.865585 15.060337 1.880790849211783e-38 1768976227
41.477367 60.474674 13.957239 1.880790849211783e-38 1768976227
41.125938 59.962284 17.896624 1.880790849211783e-38 1768976227
42.167091 61.480297 13.594996 1.880790849211783e-38 1768976227
45.559437 66.426407 13.964237 1.880790849211783e-38 1768976227
41.710621 60.814762 17.337034 1.880790849211783e-38 1768976227
41.958214 61.175755 16.985031 1.880790849211783e-38 1768976227
41.701466 60.801418 12.178900 1.880790849211783e-38 1768976227
39.891037 58.161777 11.030239 1.880790849211783e-38 1768976227
42.167580 61.481014 16.353523 1.880790849211783e-38 1768976227
44.187725 64.426422 16.562073 1.880790849211783e-38 1768976227
42.574150 61.674198 9.353601 1.880790849211783e-38 1768976227
42.349785 61.349178 8.923345 1.880790849211783e-38 1768976227
43.510269 63.030285 8.713839 1.880790849211783e-38 1768976227
43.220444 62.610439 8.127033 1.880790849211783e-38 1768976227
41.904686 60.704399 11.061157 1.880790849211783e-38 1768976227
41.305168 59.835915 10.427301 1.880790849211783e-38 1768976227
43.406277 62.879639 7.818367 1.880790849211783e-38 1768976227
50.774971 73.554153 8.560978 1.880790849211783e-38 1768976227
44.165150 63.978970 10.720217 1.880790849211783e-38 1768976227
42.071674 60.946297 9.788190 1.880790849211783e-38 1768976227
49.431149 71.607452 4.634794 1.880790849211783e-38 1768976227
45.825340 66.383972 3.900966 1.880790849211783e-38 1768976227
44.576267 64.574524 6.585537 1.880790849211783e-38 1768976227
44.897938 65.040512 3.288892 1.880790849211783e-38 1768976227
47.286568 68.500748 6.458486 1.880790849211783e-38 1768976227
47.523827 68.844444 5.960783 1.880790849211783e-38 1768976227
45.623623 66.091759 2.422725 1.880790849211783e-38 1768976227
45.172043 65.437576 2.008648 1.880790849211783e-38 1768976227
45.870461 66.449333 5.340772 1.880790849211783e-38 1768976227
46.554367 67.440063 4.901105 1.880790849211783e-38 1768976227
44.622990 64.642212 1.358031 1.880790849211783e-38 1768976227
43.841434 63.510025 15.492771 1.880790849211783e-38 1768976227
41.478306 60.086723 13.896511 1.880790849211783e-38 1768976227
41.308765 59.841133 17.897568 1.880790849211783e-38 1768976227
45.100689 65.334221 14.477217 1.880790849211783e-38 1768976227
45.723656 66.236671 13.953278 1.880790849211783e-38 1768976227
41.878933 60.667088 17.330864 1.880790849211783e-38 1768976227
42.127434 61.027073 16.978947 1.880790849211783e-38 1768976227
46.242142 66.987770 13.445939 1.880790849211783e-38 1768976227
40.012970 57.963997 11.015567 1.880790849211783e-38 1768976227
42.354485 61.355988 16.354170 1.880790849211783e-38 1768976227
42.518974 61.594269 15.866904 1.880790849211783e-38 1768976227
42.787338 61.584923 9.359590 1.880790849211783e-38 1768976227
44.430737 63.950310 9.321133 1.880790849211783e-38 1768976227
43.006828 61.900837 8.575586 1.880790849211783e-38 1768976227
43.559692 62.696594 8.155232 1.880790849211783e-38 1768976227
43.213585 62.198433 11.357086 1.880790849211783e-38 1768976227
41.371891 59.547638 10.398762 1.880790849211783e-38 1768976227
43.760479 62.985588 7.847914 1.880790849211783e-38 1768976227
44.010342 63.345226 7.388174 1.880790849211783e-38 1768976227
45.884937 66.043373 11.089263 1.880790849211783e-38 1768976227
42.272011 60.843197 9.792063 1.880790849211783e-38 1768976227
49.973400 71.928009 4.665277 1.880790849211783e-38 1768976227
46.099205 66.351776 3.907226 1.880790849211783e-38 1768976227
44.890491 64.612045 6.956956 1.880790849211783e-38 1768976227
44.850109 64.553917 6.597200 1.880790849211783e-38 1768976227
45.164783 65.006844 3.294062 1.880790849211783e-38 1768976227
47.559746 68.453972 6.467570 1.880790849211783e-38 1768976227
46.965809 67.599098 5.865193 1.880790849211783e-38 1768976227
45.635887 65.684906 2.412845 1.880790849211783e-38 1768976227
45.285439 65.180504 2.004940 1.880790849211783e-38 1768976227
46.205391 66.504616 5.356391 1.880790849211783e-38 1768976227
45.723728 65.811340 4.792741 1.880790849211783e-38 1768976227
44.755116 64.417206 1.356134 1.880790849211783e-38 1768976227
43.917965 63.212265 15.452375 1.880790849211783e-38 1768976227
41.479088 59.701923 13.836386 1.880790849211783e-38 1768976227
41.491451 59.719715 17.898600 1.880790849211783e-38 1768976227
45.480160 65.460770 14.535586 1.880790849211783e-38 1768976227
45.957211 66.147400 13.963607 1.880790849211783e-38 1768976227
42.047039 60.519390 17.324820 1.880790849211783e-38 1768976227
42.271061 60.841827 16.962803 1.880790849211783e-38 1768976227
42.961277 61.835274 12.437670 1.880790849211783e-38 1768976227
43.752445 62.974030 11.992703 1.880790849211783e-38 1768976227
42.484268 61.148708 16.333000 1.880790849211783e-38 1768976227
45.069805 64.870140 16.745720 1.880790849211783e-38 1768976227
42.965408 61.444916 9.357962 1.880790849211783e-38 1768976227
44.435421 63.547184 9.281865 1.880790849211783e-38 1768976227
43.406982 62.076412 8.618007 1.880790849211783e-38 1768976227
43.901272 62.783291 8.183695 1.880790849211783e-38 1768976227
45.169857 64.597496 11.819964 1.880790849211783e-38 1768976227
45.547676 65.137825 11.398910 1.880790849211783e-38 1768976227
44.117069 63.091908 7.877704 1.880790849211783e-38 1768976227
44.280876 63.326168 7.401494 1.880790849211783e-38 1768976227
46.101589 65.929962 11.093516 1.880790849211783e-38 1768976227
44.331421 63.398460 10.224775 1.880790849211783e-38 1768976227
50.259693 71.876480 4.671745 1.880790849211783e-38 1768976227
46.374008 66.319557 3.913547 1.880790849211783e-38 1768976227
51.110748 73.093582 7.886747 1.880790849211783e-38 1768976227
45.178528 64.609909 6.616817 1.880790849211783e-38 1768976227
45.546730 65.136467 3.307576 1.880790849211783e-38 1768976227
48.470581 69.317879 3.122231 1.880790849211783e-38 1768976227
47.787743 68.341347 6.470517 1.880790849211783e-38 1768976227
51.398922 73.505699 6.391097 1.880790849211783e-38 1768976227
45.751190 65.428871 2.408497 1.880790849211783e-38 1768976227
45.418034 64.952415 2.002128 1.880790849211783e-38 1768976227
46.031788 65.830154 4.804199 1.880790849211783e-38 1768976227
44.044811 62.988571 15.430095 1.880790849211783e-38 1768976227
41.479721 59.320229 13.776855 1.880790849211783e-38 1768976227
41.673981 59.598038 17.899719 1.880790849211783e-38 1768976227
45.862679 65.588303 14.594553 1.880790849211783e-38 1768976227
46.220821 66.100494 13.983068 1.880790849211783e-38 1768976227
42.214943 60.371674 17.318901 1.880790849211783e-38 1768976227
42.400093 60.636456 16.941118 1.880790849211783e-38 1768976227
44.388725 63.480408 12.795444 1.880790849211783e-38 1768976227
43.936062 62.833046 11.991035 1.880790849211783e-38 1768976227
42.449715 60.707432 16.249254 1.880790849211783e-38 1768976227
42.915138 61.373035 15.876307 1.880790849211783e-38 1768976227
42.064339 59.771622 9.122401 1.880790849211783e-38 1768976227
42.475819 60.356327 8.834472 1.880790849211783e-38 1768976227
43.811024 62.253590 8.660909 1.880790849211783e-38 1768976227
44.245197 62.870533 8.212422 1.880790849211783e-38 1768976227
45.437481 64.564713 11.838985 1.880790849211783e-38 1768976227
45.683659 64.914528 11.383892 1.880790849211783e-38 1768976227
44.463451 63.180664 7.905495 1.880790849211783e-38 1768976227
44.642426 63.434982 7.429914 1.880790849211783e-38 1768976227
43.834217 62.286556 10.502665 1.880790849211783e-38 1768976227
46.200119 65.648399 10.610065 1.880790849211783e-38 1768976227
50.546810 71.824852 4.678277 1.880790849211783e-38 1768976227
46.750031 66.429794 3.928355 1.880790849211783e-38 1768976227
48.049492 68.276276 7.382566 1.880790849211783e-38 1768976227
47.474041 67.458580 6.923187 1.880790849211783e-38 1768976227
45.973541 65.326439 3.324249 1.880790849211783e-38 1768976227
48.238281 68.544540 6.503500 1.880790849211783e-38 1768976227
51.513039 73.197830 6.377807 1.880790849211783e-38 1768976227
45.912632 65.239891 2.406627 1.880790849211783e-38 1768976227
45.550266 64.724976 1.999343 1.880790849211783e-38 1768976227
47.362774 67.300484 5.443403 1.880790849211783e-38 1768976227
46.341114 65.848740 4.815733 1.880790849211783e-38 1768976227
46.778023 66.469574 0.989886 1.880790849211783e-38 1768976227
44.237881 62.860134 15.431245 1.880790849211783e-38 1768976227
45.990829 65.351006 15.209620 1.880790849211783e-38 1768976227
41.856354 59.476086 17.900925 1.880790849211783e-38 1768976227
46.248291 65.716843 14.654126 1.880790849211783e-38 1768976227
46.405186 65.939789 13.978615 1.880790849211783e-38 1768976227
42.382652 60.223934 17.313108 1.880790849211783e-38 1768976227
42.151371 59.895294 16.769489 1.880790849211783e-38 1768976227
44.353931 63.025040 12.730563 1.880790849211783e-38 1768976227
44.119835 62.692406 11.989534 1.880790849211783e-38 1768976227
43.039417 61.157173 16.404305 1.880790849211783e-38 1768976227
42.995430 61.094662 15.837770 1.880790849211783e-38 1768976227
42.578011 60.115501 9.194442 1.880790849211783e-38 1768976227
42.833344 60.476002 8.870857 1.880790849211783e-38 1768976227
44.218983 62.432377 8.704295 1.880790849211783e-38 1768976227
44.591488 62.958309 8.241418 1.880790849211783e-38 1768976227
45.452473 64.173935 11.792412 1.880790849211783e-38 1768976227
45.953949 64.881958 11.402433 1.880790849211783e-38 1768976227
44.812237 63.269989 7.933546 1.880790849211783e-38 1768976227
45.006733 63.544598 7.458618 1.880790849211783e-38 1768976227
47.623081 67.238602 11.361836 1.880790849211783e-38 1768976227
46.416550 65.535103 10.614331 1.880790849211783e-38 1768976227
50.834755 71.773117 4.684871 1.880790849211783e-38 1768976227
46.086960 65.069756 7.050848 1.880790849211783e-38 1768976227
47.592186 67.194969 6.910831 1.880790849211783e-38 1768976227
47.290924 66.769623 6.348599 1.880790849211783e-38 1768976227
47.388672 66.907631 5.842162 1.880790849211783e-38 1768976227
46.090523 65.074791 2.405653 1.880790849211783e-38 1768976227
45.718060 64.548912 1.998154 1.880790849211783e-38 1768976227
47.452812 66.998192 5.430503 1.880790849211783e-38 1768976227
46.851238 66.148827 4.847991 1.880790849211783e-38 1768976227
44.431061 62.731804 15.432567 1.880790849211783e-38 1768976227
45.976849 64.914291 15.140184 1.880790849211783e-38 1768976227
42.038570 59.353878 17.902220 1.880790849211783e-38 1768976227
46.422527 65.543541 14.646634 1.880790849211783e-38 1768976227
46.750214 66.006203 14.022518 1.880790849211783e-38 1768976227
42.061352 59.386032 17.108620 1.880790849211783e-38 1768976227
42.422283 59.895626 16.805326 1.880790849211783e-38 1768976227
44.319286 62.573994 12.666395 1.880790849211783e-38 1768976227
44.303780 62.552105 11.988201 1.880790849211783e-38 1768976227
43.268139 61.089882 16.421185 1.880790849211783e-38 1768976227
43.032143 60.756680 15.783725 1.880790849211783e-38 1768976227
43.095604 60.458866 9.266795 1.880790849211783e-38 1768976227
43.321499 60.775776 8.933953 1.880790849211783e-38 1768976227
44.599461 62.568630 8.742006 1.880790849211783e-38 1768976227
44.879543 62.961563 8.259523 1.880790849211783e-38 1768976227
45.555210 63.909451 11.769005 1.880790849211783e-38 1768976227
46.225079 64.849213 11.421128 1.880790849211783e-38 1768976227
45.163479 63.359890 7.961862 1.880790849211783e-38 1768976227
45.267456 63.505760 7.470050 1.880790849211783e-38 1768976227
42.977249 60.292828 10.210011 1.880790849211783e-38 1768976227
47.230759 66.260086 10.754774 1.880790849211783e-38 1768976227
47.783405 67.035393 4.385011 1.880790849211783e-38 1768976227
47.799107 67.057411 3.982447 1.880790849211783e-38 1768976227
45.566063 63.924671 6.941629 1.880790849211783e-38 1768976227
45.727543 64.151222 6.611944 1.880790849211783e-38 1768976227
45.967113 64.487312 6.144746 1.880790849211783e-38 1768976227
51.726166 72.566696 6.349885 1.880790849211783e-38 1768976227
46.268291 64.909836 2.404703 1.880790849211783e-38 1768976227
45.894535 64.385498 1.997371 1.880790849211783e-38 1768976227
47.227512 66.255524 4.866228 1.880790849211783e-38 1768976227
47.199650 66.216438 1.405898 1.880790849211783e-38 1768976227
44.624386 62.603600 15.434066 1.880790849211783e-38 1768976227
45.781368 64.226730 15.011957 1.880790849211783e-38 1768976227
42.220650 59.231392 17.903601 1.880790849211783e-38 1768976227
46.527645 65.273682 14.617621 1.880790849211783e-38 1768976227
46.848827 65.724274 13.992579 1.880790849211783e-38 1768976227
42.330215 59.385105 17.145054 1.880790849211783e-38 1768976227
42.902351 60.187756 16.923517 1.880790849211783e-38 1768976227
44.284779 62.127159 12.602925 1.880790849211783e-38 1768976227
44.520897 62.458412 11.995925 1.880790849211783e-38 1768976227
43.252277 60.678661 16.345636 1.880790849211783e-38 1768976227
43.012585 60.342400 15.709729 1.880790849211783e-38 1768976227
43.544094 60.699909 9.323827 1.880790849211783e-38 1768976227
43.816582 61.079746 8.998021 1.880790849211783e-38 1768976227
44.846840 62.515911 8.753498 1.880790849211783e-38 1768976227
45.163521 62.957359 8.276804 1.880790849211783e-38 1768976227
45.713631 63.724216 11.760228 1.880790849211783e-38 1768976227
45.839233 63.899296 11.278127 1.880790849211783e-38 1768976227
45.370827 63.246349 7.964753 1.880790849211783e-38 1768976227
45.380722 63.260136 7.457223 1.880790849211783e-38 1768976227
43.027084 59.979198 10.178829 1.880790849211783e-38 1768976227
42.262741 58.913712 9.583017 1.880790849211783e-38 1768976227
47.581844 66.328468 4.348136 1.880790849211783e-38 1768976227
47.652378 66.426796 3.953512 1.880790849211783e-38 1768976227
47.070595 65.615807 7.140654 1.880790849211783e-38 1768976227
47.827457 66.670853 6.886473 1.880790849211783e-38 1768976227
48.042938 66.971230 3.429926 1.880790849211783e-38 1768976227
48.049870 66.980896 3.042857 1.880790849211783e-38 1768976227
52.312267 72.922623 6.963516 1.880790849211783e-38 1768976227
46.345699 64.605309 5.665436 1.880790849211783e-38 1768976227
46.562447 64.907448 2.409806 1.880790849211783e-38 1768976227
46.070896 64.222237 1.996608 1.880790849211783e-38 1768976227
47.418278 66.100464 5.380824 1.880790849211783e-38 1768976227
47.489773 66.200127 4.872657 1.880790849211783e-38 1768976227
47.064095 65.606735 1.395960 1.880790849211783e-38 1768976227
44.835938 62.500717 15.441970 1.880790849211783e-38 1768976227
46.582912 64.935982 15.210502 1.880790849211783e-38 1768976227
42.402573 59.108631 17.905069 1.880790849211783e-38 1768976227
46.694954 65.092163 14.608442 1.880790849211783e-38 1768976227
46.937988 65.430946 13.960204 1.880790849211783e-38 1768976227
42.797314 59.658905 17.261288 1.880790849211783e-38 1768976227
43.548798 60.706459 17.106218 1.880790849211783e-38 1768976227
45.944607 64.046188 13.020264 1.880790849211783e-38 1768976227
44.744900 62.373817 12.005541 1.880790849211783e-38 1768976227
43.244972 60.282932 16.274094 1.880790849211783e-38 1768976227
46.176659 64.369659 16.794380 1.880790849211783e-38 1768976227
43.616947 60.415920 9.300368 1.880790849211783e-38 1768976227
44.318798 61.388081 9.063093 1.880790849211783e-38 1768976227
45.004192 62.337456 8.747476 1.880790849211783e-38 1768976227
45.036812 62.382637 8.219066 1.880790849211783e-38 1768976227
45.789711 63.425518 11.730536 1.880790849211783e-38 1768976227
46.156673 63.933811 11.308737 1.880790849211783e-38 1768976227
45.516861 63.047569 7.956972 1.880790849211783e-38 1768976227
45.493668 63.015453 7.444520 1.880790849211783e-38 1768976227
43.076447 59.667244 10.147890 1.880790849211783e-38 1768976227
42.330688 58.634251 9.558283 1.880790849211783e-38 1768976227
47.114040 65.259903 4.287382 1.880790849211783e-38 1768976227
47.313904 65.536751 3.909014 1.880790849211783e-38 1768976227
47.189632 65.364609 7.128774 1.880790849211783e-38 1768976227
47.964222 66.437538 6.877284 1.880790849211783e-38 1768976227
47.599228 65.931961 3.384037 1.880790849211783e-38 1768976227
47.814091 66.229576 3.015263 1.880790849211783e-38 1768976227
46.884819 64.942398 2.416342 1.880790849211783e-38 1768976227
46.247147 64.059120 1.995864 1.880790849211783e-38 1768976227
46.648426 64.614960 5.271327 1.880790849211783e-38 1768976227
46.876537 64.930931 4.789621 1.880790849211783e-38 1768976227
47.079777 65.212448 1.390585 1.880790849211783e-38 1768976227
45.073727 62.433765 15.458944 1.880790849211783e-38 1768976227
46.743004 64.745964 15.198944 1.880790849211783e-38 1768976227
42.289703 58.577480 17.782726 1.880790849211783e-38 1768976227
46.947208 65.028816 14.625937 1.880790849211783e-38 1768976227
47.026730 65.138962 13.928105 1.880790849211783e-38 1768976227
43.115059 59.720726 17.316719 1.880790849211783e-38 1768976227
43.782272 60.644917 17.126007 1.880790849211783e-38 1768976227
46.586281 64.528877 13.146895 1.880790849211783e-38 1768976227
45.091820 62.458832 12.048025 1.880790849211783e-38 1768976227
43.280708 59.950172 16.219425 1.880790849211783e-38 1768976227
46.515347 64.430626 16.846813 1.880790849211783e-38 1768976227
43.574688 59.975410 9.252745 1.880790849211783e-38 1768976227
44.625443 61.421642 9.087877 1.880790849211783e-38 1768976227
49.024696 67.476700 -0.484571 1.880790849211783e-38 1768976227
45.161285 62.159176 8.741531 1.880790849211783e-38 1768976227
45.479744 62.597500 8.265409 1.880790849211783e-38 1768976227
45.885834 63.156429 11.706311 1.880790849211783e-38 1768976227
46.281780 63.701397 11.292265 1.880790849211783e-38 1768976227
45.648743 62.830101 7.946865 1.880790849211783e-38 1768976227
45.652355 62.835075 7.439442 1.880790849211783e-38 1768976227
43.298046 59.594650 10.157706 1.880790849211783e-38 1768976227
42.398441 58.356445 9.533798 1.880790849211783e-38 1768976227
51.468155 70.839836 4.664144 1.880790849211783e-38 1768976227
51.429512 70.786644 4.231383 1.880790849211783e-38 1768976227
48.531097 66.797318 7.300958 1.880790849211783e-38 1768976227
48.156796 66.282135 6.876201 1.880790849211783e-38 1768976227
51.366924 70.700508 3.636723 1.880790849211783e-38 1768976227
51.323372 70.640556 3.223116 1.880790849211783e-38 1768976227
46.492588 63.991550 6.137340 1.880790849211783e-38 1768976227
52.320484 72.012970 6.342597 1.880790849211783e-38 1768976227
48.006264 66.074951 2.463858 1.880790849211783e-38 1768976227
46.423267 63.896149 1.995140 1.880790849211783e-38 1768976227
51.555660 70.960274 5.801640 1.880790849211783e-38 1768976227
51.516762 70.906731 5.241863 1.880790849211783e-38 1768976227
47.095379 64.821220 1.385265 1.880790849211783e-38 1768976227
48.695766 67.023972 1.008964 1.880790849211783e-38 1768976227
48.775993 67.134392 0.501738 1.880790849211783e-38 1768976227
48.893509 67.296127 0.060847 1.880790849211783e-38 1768976227
45.312164 62.366840 15.476140 1.880790849211783e-38 1768976227
46.902821 64.556190 15.187533 1.880790849211783e-38 1768976227
42.623791 58.666615 17.848730 1.880790849211783e-38 1768976227
46.763466 64.364380 14.508151 1.880790849211783e-38 1768976227
47.879856 65.900963 14.121849 1.880790849211783e-38 1768976227
43.829323 60.325890 17.530443 1.880790849211783e-38 1768976227
43.906502 60.432110 17.103228 1.880790849211783e-38 1768976227
47.172905 64.927933 13.257123 1.880790849211783e-38 1768976227
45.400356 62.488228 12.080052 1.880790849211783e-38 1768976227
43.316246 59.619694 16.165287 1.880790849211783e-38 1768976227
47.034801 64.737846 16.964157 1.880790849211783e-38 1768976227
44.216988 60.475060 9.350360 1.880790849211783e-38 1768976227
44.812607 61.289692 9.088308 1.880790849211783e-38 1768976227
49.134007 67.200020 -0.483646 1.880790849211783e-38 1768976227
49.240856 67.346153 -0.962207 1.880790849211783e-38 1768976227
45.318123 61.981079 8.735666 1.880790849211783e-38 1768976227
45.637482 62.417854 8.259826 1.880790849211783e-38 1768976227
45.734093 62.549995 11.619419 1.880790849211783e-38 1768976227
46.051220 62.983727 11.189614 1.880790849211783e-38 1768976227
45.780270 62.613148 7.936852 1.880790849211783e-38 1768976227
45.819443 62.666725 7.435838 1.880790849211783e-38 1768976227
43.476681 59.462563 10.157496 1.880790849211783e-38 1768976227
42.497761 58.123699 9.516670 1.880790849211783e-38 1768976227
51.594723 70.565506 4.656306 1.880790849211783e-38 1768976227
51.938412 71.035568 4.255607 1.880790849211783e-38 1768976227
45.202328 61.822708 6.772101 1.880790849211783e-38 1768976227
46.546726 63.661427 6.618858 1.880790849211783e-38 1768976227
51.797760 70.843201 3.652082 1.880790849211783e-38 1768976227
51.700184 70.709747 3.233373 1.880790849211783e-38 1768976227
46.593754 63.725742 6.125296 1.880790849211783e-38 1768976227
52.949329 72.418198 6.392323 1.880790849211783e-38 1768976227
47.781807 65.350632 2.442211 1.880790849211783e-38 1768976227
48.073380 65.749413 2.057525 1.880790849211783e-38 1768976227
51.483112 70.412865 5.216808 1.880790849211783e-38 1768976227
49.359688 67.508675 -1.494475 1.880790849211783e-38 1768976227
49.474514 67.665726 -1.960592 1.880790849211783e-38 1768976227
47.117493 64.442055 1.380193 1.880790849211783e-38 1768976227
50.233883 68.704300 1.036535 1.880790849211783e-38 1768976227
49.035217 67.064903 0.502321 1.880790849211783e-38 1768976227
49.084766 67.132675 0.060833 1.880790849211783e-38 1768976227
45.551250 62.299915 15.493553 1.880790849211783e-38 1768976227
47.062347 64.366631 15.176260 1.880790849211783e-38 1768976227
42.949883 58.742058 17.911011 1.880790849211783e-38 1768976227
47.152843 64.490395 14.568543 1.880790849211783e-38 1768976227
46.241467 63.243919 13.582297 1.880790849211783e-38 1768976227
44.062542 60.263836 17.550947 1.880790849211783e-38 1768976227
43.963615 60.128529 17.054758 1.880790849211783e-38 1768976227
47.552383 65.036850 13.308584 1.880790849211783e-38 1768976227
45.208469 61.831108 11.979323 1.880790849211783e-38 1768976227
45.438095 62.145164 16.887121 1.880790849211783e-38 1768976227
47.521519 64.994637 17.068926 1.880790849211783e-38 1768976227
44.588428 60.598644 9.390218 1.880790849211783e-38 1768976227
44.967728 61.114132 9.082346 1.880790849211783e-38 1768976227
51.206970 69.593681 -0.501982 1.880790849211783e-38 1768976227
49.552227 67.344780 -0.964318 1.880790849211783e-38 1768976227
45.474701 61.803150 8.729879 1.880790849211783e-38 1768976227
45.788647 62.229824 8.253180 1.880790849211783e-38 1768976227
45.446415 61.764706 11.498951 1.880790849211783e-38 1768976227
45.804989 62.252029 11.084114 1.880790849211783e-38 1768976227
45.911442 62.396702 7.926931 1.880790849211783e-38 1768976227
46.046898 62.580799 7.442087 1.880790849211783e-38 1768976227
43.247860 58.776722 10.062575 1.880790849211783e-38 1768976227
42.670429 57.991951 9.516127 1.880790849211783e-38 1768976227
45.367359 61.657261 6.768935 1.880790849211783e-38 1768976227
48.541946 65.971733 6.874250 1.880790849211783e-38 1768976227
48.770348 66.282150 3.037622 1.880790849211783e-38 1768976227
46.481506 63.171459 6.085465 1.880790849211783e-38 1768976227
53.498917 72.708595 6.432170 1.880790849211783e-38 1768976227
47.561321 64.639008 2.420967 1.880790849211783e-38 1768976227
48.208378 65.518402 2.054837 1.880790849211783e-38 1768976227
51.546848 70.055595 5.752991 1.880790849211783e-38 1768976227
49.554855 67.348351 -1.494227 1.880790849211783e-38 1768976227
49.583534 67.387321 -1.956849 1.880790849211783e-38 1768976227
51.523830 70.024315 1.503073 1.880790849211783e-38 1768976227
50.488083 68.616669 1.037505 1.880790849211783e-38 1768976227
49.714569 67.565414 -2.476439 1.880790849211783e-38 1768976227
49.819908 67.708565 -2.894094 1.880790849211783e-38 1768976227
50.572586 68.731514 0.515945 1.880790849211783e-38 1768976227
51.306694 69.729218 0.063325 1.880790849211783e-38 1768976227
45.790989 62.233009 15.511189 1.880790849211783e-38 1768976227
47.210964 64.162842 15.161714 1.880790849211783e-38 1768976227
43.277908 58.817554 17.973747 1.880790849211783e-38 1768976227
47.041771 63.932903 14.474588 1.880790849211783e-38 1768976227
46.682690 63.444881 13.655631 1.880790849211783e-38 1768976227
44.296249 60.201553 17.571636 1.880790849211783e-38 1768976227
44.020824 59.827236 17.006878 1.880790849211783e-38 1768976227
47.831161 65.005737 13.331676 1.880790849211783e-38 1768976227
44.840458 60.941170 11.833052 1.880790849211783e-38 1768976227
47.265739 64.237289 17.494286 1.880790849211783e-38 1768976227
47.791061 64.951233 17.095301 1.880790849211783e-38 1768976227
44.982227 60.749172 9.434522 1.880790849211783e-38 1768976227
45.117275 60.931561 9.075394 1.880790849211783e-38 1768976227
51.567677 69.642929 -0.503457 1.880790849211783e-38 1768976227
51.437740 69.467445 -0.996930 1.880790849211783e-38 1768976227
45.631031 61.625397 8.724172 1.880790849211783e-38 1768976227
45.919258 62.014656 8.242972 1.880790849211783e-38 1768976227
45.069214 60.866653 11.357012 1.880790849211783e-38 1768976227
44.997944 60.770397 10.844420 1.880790849211783e-38 1768976227
46.070820 62.219337 7.922014 1.880790849211783e-38 1768976227
46.326122 62.564129 7.456685 1.880790849211783e-38 1768976227
43.373283 58.576271 10.050607 1.880790849211783e-38 1768976227
42.843170 57.860348 9.515691 1.880790849211783e-38 1768976227
45.532322 61.492085 6.765846 1.880790849211783e-38 1768976227
51.363083 69.366615 7.244105 1.880790849211783e-38 1768976227
48.979893 66.148079 3.425210 1.880790849211783e-38 1768976227
48.876404 66.008316 3.031815 1.880790849211783e-38 1768976227
46.370766 62.624420 6.046212 1.880790849211783e-38 1768976227
51.955040 70.166069 6.221079 1.880790849211783e-38 1768976227
48.343052 65.288025 2.052175 1.880790849211783e-38 1768976227
54.566769 73.693245 6.065203 1.880790849211783e-38 1768976227
51.287739 69.264862 -1.540173 1.880790849211783e-38 1768976227
49.975208 67.492271 -1.964265 1.880790849211783e-38 1768976227
49.955673 67.465889 -2.478302 1.880790849211783e-38 1768976227
49.939976 67.444695 -2.889240 1.880790849211783e-38 1768976227
50.717564 68.494835 0.515314 1.880790849211783e-38 1768976227
46.031429 62.166134 15.529052 1.880790849211783e-38 1768976227
47.298187 63.876915 15.127789 1.880790849211783e-38 1768976227
43.607853 58.893066 18.036930 1.880790849211783e-38 1768976227
47.061069 63.556675 14.421479 1.880790849211783e-38 1768976227
47.128380 63.647587 13.729791 1.880790849211783e-38 1768976227
44.530434 60.139023 17.592505 1.880790849211783e-38 1768976227
44.078144 59.528198 16.959585 1.880790849211783e-38 1768976227
47.154625 63.683029 13.089517 1.880790849211783e-38 1768976227
46.875805 63.306473 12.319723 1.880790849211783e-38 1768976227
47.233276 63.789246 17.410984 1.880790849211783e-38 1768976227
46.252579 62.464802 16.477509 1.880790849211783e-38 1768976227
45.265308 60.747536 9.455426 1.880790849211783e-38 1768976227
45.266495 60.749126 9.068514 1.880790849211783e-38 1768976227
45.787106 61.447803 8.718539 1.880790849211783e-38 1768976227
46.049530 61.799988 8.232862 1.880790849211783e-38 1768976227
43.856918 58.857422 11.006743 1.880790849211783e-38 1768976227
45.241482 60.715561 10.858933 1.880790849211783e-38 1768976227
46.290794 62.123775 7.927587 1.880790849211783e-38 1768976227
46.606548 62.547527 7.471425 1.880790849211783e-38 1768976227
43.592373 58.502399 10.060444 1.880790849211783e-38 1768976227
42.930614 57.614296 9.496476 1.880790849211783e-38 1768976227
45.766979 61.420792 6.773159 1.880790849211783e-38 1768976227
52.268375 70.145882 7.341914 1.880790849211783e-38 1768976227
49.086269 65.875381 3.418739 1.880790849211783e-38 1768976227
48.982075 65.735558 3.026058 1.880790849211783e-38 1768976227
46.261497 62.084454 6.007523 1.880790849211783e-38 1768976227
54.006409 72.478378 6.440506 1.880790849211783e-38 1768976227
48.477398 65.058258 2.049539 1.880790849211783e-38 1768976227
55.070797 73.906815 6.096423 1.880790849211783e-38 1768976227
51.563271 69.199608 -2.018471 1.880790849211783e-38 1768976227
51.416424 69.002533 -2.540435 1.880790849211783e-38 1768976227
50.381687 67.613884 -2.902984 1.880790849211783e-38 1768976227
51.031925 68.486526 0.516407 1.880790849211783e-38 1768976227
51.035133 68.490822 0.062479 1.880790849211783e-38 1768976227
47.244576 63.403778 15.873734 1.880790849211783e-38 1768976227
47.388481 63.596905 15.095252 1.880790849211783e-38 1768976227
43.864029 58.866978 18.069374 1.880790849211783e-38 1768976227
47.080269 63.183273 14.368904 1.880790849211783e-38 1768976227
47.507599 63.756763 13.784186 1.880790849211783e-38 1768976227
44.749184 60.054878 17.607290 1.880790849211783e-38 1768976227
44.135544 59.231354 16.912859 1.880790849211783e-38 1768976227
47.092201 63.199280 13.019219 1.880790849211783e-38 1768976227
44.417770 59.610111 11.626410 1.880790849211783e-38 1768976227
48.266586 64.775352 17.719788 1.880790849211783e-38 1768976227
46.174484 61.967682 16.383034 1.880790849211783e-38 1768976227
45.467480 60.636311 9.459414 1.880790849211783e-38 1768976227
45.806114 61.087925 9.139669 1.880790849211783e-38 1768976227
45.942921 61.270374 8.712984 1.880790849211783e-38 1768976227
46.241100 61.668018 8.233823 1.880790849211783e-38 1768976227
44.037872 58.729755 11.007655 1.880790849211783e-38 1768976227
45.068676 60.104450 10.773898 1.880790849211783e-38 1768976227
47.033970 62.725414 8.022427 1.880790849211783e-38 1768976227
47.055611 62.754269 7.513039 1.880790849211783e-38 1768976227
43.161499 57.561001 9.920896 1.880790849211783e-38 1768976227
43.197002 57.608353 9.516927 1.880790849211783e-38 1768976227
49.633621 66.192352 7.315814 1.880790849211783e-38 1768976227
49.208427 65.625305 3.413448 1.880790849211783e-38 1768976227
49.087334 65.463814 3.020350 1.880790849211783e-38 1768976227
46.247478 61.676529 5.981520 1.880790849211783e-38 1768976227
54.675396 72.916161 6.494030 1.880790849211783e-38 1768976227
48.611439 64.829155 2.046931 1.880790849211783e-38 1768976227
55.477283 73.985588 6.116693 1.880790849211783e-38 1768976227
51.707851 68.958595 -2.967401 1.880790849211783e-38 1768976227
51.159908 68.227844 0.062380 1.880790849211783e-38 1768976227
47.395260 63.207233 15.860242 1.880790849211783e-38 1768976227
47.478401 63.318111 15.062999 1.880790849211783e-38 1768976227
44.069218 58.771557 18.080799 1.880790849211783e-38 1768976227
47.099377 62.812641 14.316854 1.880790849211783e-38 1768976227
47.793407 63.738209 13.811275 1.880790849211783e-38 1768976227
44.950745 59.947182 17.615381 1.880790849211783e-38 1768976227
44.193058 58.936714 16.866709 1.880790849211783e-38 1768976227
46.655151 62.220211 12.846455 1.880790849211783e-38 1768976227
44.695862 59.607258 11.652092 1.880790849211783e-38 1768976227
48.531605 64.722694 17.745340 1.880790849211783e-38 1768976227
46.097614 61.476665 16.289902 1.880790849211783e-38 1768976227
45.574627 60.398819 9.443765 1.880790849211783e-38 1768976227
45.964153 60.915054 9.134505 1.880790849211783e-38 1768976227
46.098507 61.093102 8.707506 1.880790849211783e-38 1768976227
46.460106 61.572323 8.239717 1.880790849211783e-38 1768976227
44.218914 58.602131 11.008680 1.880790849211783e-38 1768976227
43.412968 57.534035 10.336566 1.880790849211783e-38 1768976227
47.187477 62.536289 8.016403 1.880790849211783e-38 1768976227
47.209038 62.564865 7.507375 1.880790849211783e-38 1768976227
43.084103 57.098194 9.863480 1.880790849211783e-38 1768976227
43.459812 57.596115 9.536514 1.880790849211783e-38 1768976227
49.881390 66.106461 7.322915 1.880790849211783e-38 1768976227
51.842987 68.706108 7.223818 1.880790849211783e-38 1768976227
49.330235 65.376015 3.408204 1.880790849211783e-38 1768976227
49.192219 65.193115 3.014692 1.880790849211783e-38 1768976227
46.292477 61.350174 5.963382 1.880790849211783e-38 1768976227
54.925396 72.791130 6.497620 1.880790849211783e-38 1768976227
48.746311 64.602165 2.044396 1.880790849211783e-38 1768976227
55.699940 73.817619 6.116668 1.880790849211783e-38 1768976227
51.451576 68.187378 0.062484 1.880790849211783e-38 1768976227
47.545616 63.010918 15.846891 1.880790849211783e-38 1768976227
47.547066 63.012833 15.024420 1.880790849211783e-38 1768976227
44.274418 58.675686 18.092302 1.880790849211783e-38 1768976227
46.950741 62.222549 14.214566 1.880790849211783e-38 1768976227
48.080116 63.719276 13.838531 1.880790849211783e-38 1768976227
45.152382 59.839230 17.623596 1.880790849211783e-38 1768976227
44.250675 58.644226 16.821121 1.880790849211783e-38 1768976227
47.733635 63.260098 13.090821 1.880790849211783e-38 1768976227
44.953743 59.575977 11.672427 1.880790849211783e-38 1768976227
48.797386 64.669853 17.771126 1.880790849211783e-38 1768976227
47.633572 63.127483 16.765320 1.880790849211783e-38 1768976227
45.776131 60.286846 9.447801 1.880790849211783e-38 1768976227
45.980171 60.555565 9.101351 1.880790849211783e-38 1768976227
51.625748 67.990746 -0.495980 1.880790849211783e-38 1768976227
46.732140 61.545895 8.792091 1.880790849211783e-38 1768976227
47.367649 62.382870 8.367265 1.880790849211783e-38 1768976227
44.400055 58.474567 11.009821 1.880790849211783e-38 1768976227
43.443359 57.214600 10.302669 1.880790849211783e-38 1768976227
47.340744 62.347435 8.010460 1.880790849211783e-38 1768976227
47.362232 62.375729 7.501786 1.880790849211783e-38 1768976227
43.078140 56.733612 9.822898 1.880790849211783e-38 1768976227
43.723858 57.584015 9.556302 1.880790849211783e-38 1768976227
50.129734 66.020508 7.330108 1.880790849211783e-38 1768976227
52.181580 68.722778 7.242084 1.880790849211783e-38 1768976227
49.451675 65.127518 3.403008 1.880790849211783e-38 1768976227
49.296715 64.923431 3.009082 1.880790849211783e-38 1768976227
46.348854 61.041122 5.946902 1.880790849211783e-38 1768976227
55.175610 72.665894 6.501265 1.880790849211783e-38 1768976227
50.370155 66.337143 2.104099 1.880790849211783e-38 1768976227
55.908688 73.631355 6.115178 1.880790849211783e-38 1768976227
47.695610 62.814789 15.833670 1.880790849211783e-38 1768976227
47.548965 62.621658 14.965275 1.880790849211783e-38 1768976227
44.479645 58.579388 18.103889 1.880790849211783e-38 1768976227
48.813396 64.286903 14.719727 1.880790849211783e-38 1768976227
48.367722 63.699959 13.865953 1.880790849211783e-38 1768976227
45.354107 59.731045 17.631937 1.880790849211783e-38 1768976227
45.667702 60.144054 17.290749 1.880790849211783e-38 1768976227
47.878071 63.055088 13.078220 1.880790849211783e-38 1768976227
44.826813 59.036602 11.593184 1.880790849211783e-38 1768976227
49.063896 64.616821 17.797132 1.880790849211783e-38 1768976227
47.914234 63.102711 16.797043 1.880790849211783e-38 1768976227
45.790833 59.930061 9.413487 1.880790849211783e-38 1768976227
45.994190 60.196209 9.068149 1.880790849211783e-38 1768976227
51.814373 67.813545 -0.495825 1.880790849211783e-38 1768976227
51.881657 67.901611 -0.985575 1.880790849211783e-38 1768976227
46.869183 61.341389 8.783030 1.880790849211783e-38 1768976227
47.480835 62.141903 8.354114 1.880790849211783e-38 1768976227
44.106918 57.726200 10.893912 1.880790849211783e-38 1768976227
43.529293 56.970211 10.282255 1.880790849211783e-38 1768976227
47.493778 62.158840 8.004597 1.880790849211783e-38 1768976227
47.515198 62.186871 7.496273 1.880790849211783e-38 1768976227
43.143108 56.464783 9.798837 1.880790849211783e-38 1768976227
44.087360 57.700600 9.597672 1.880790849211783e-38 1768976227
49.951733 65.375763 3.978838 1.880790849211783e-38 1768976227
50.666359 66.311050 7.379299 1.880790849211783e-38 1768976227
52.454018 68.650688 7.251126 1.880790849211783e-38 1768976227
49.572777 64.879791 3.397861 1.880790849211783e-38 1768976227
49.400841 64.654770 3.003522 1.880790849211783e-38 1768976227
46.555618 60.931000 5.949826 1.880790849211783e-38 1768976227
46.062511 60.285633 5.406033 1.880790849211783e-38 1768976227
56.109024 73.434296 6.112838 1.880790849211783e-38 1768976227
52.000469 68.057098 -1.530581 1.880790849211783e-38 1768976227
51.833172 67.838150 0.062450 1.880790849211783e-38 1768976227
43.904568 57.461357 14.517547 1.880790849211783e-38 1768976227
47.550972 62.233704 14.906766 1.880790849211783e-38 1768976227
44.684883 58.482620 18.115553 1.880790849211783e-38 1768976227
49.149494 64.325813 14.762508 1.880790849211783e-38 1768976227
48.306900 63.223038 13.793790 1.880790849211783e-38 1768976227
45.555908 59.622604 17.640406 1.880790849211783e-38 1768976227
49.056263 64.203796 18.500328 1.880790849211783e-38 1768976227
46.137272 60.383480 12.552906 1.880790849211783e-38 1768976227
44.970070 58.855869 11.584275 1.880790849211783e-38 1768976227
49.331181 64.563599 17.823370 1.880790849211783e-38 1768976227
48.161610 63.032887 16.817043 1.880790849211783e-38 1768976227
45.805382 59.575806 9.379499 1.880790849211783e-38 1768976227
46.008068 59.839424 9.035263 1.880790849211783e-38 1768976227
52.125546 67.795998 -0.496843 1.880790849211783e-38 1768976227
52.062267 67.713684 -0.985122 1.880790849211783e-38 1768976227
47.005939 61.137287 8.774064 1.880790849211783e-38 1768976227
47.633617 61.953659 8.348082 1.880790849211783e-38 1768976227
44.217266 57.510254 10.878278 1.880790849211783e-38 1768976227
43.614986 56.726910 10.262037 1.880790849211783e-38 1768976227
47.646599 61.970543 7.998816 1.880790849211783e-38 1768976227
47.667938 61.998295 7.490838 1.880790849211783e-38 1768976227
43.228802 56.224625 9.779740 1.880790849211783e-38 1768976227
45.311588 58.933559 9.825443 1.880790849211783e-38 1768976227
50.072842 65.126183 3.972821 1.880790849211783e-38 1768976227
52.686810 68.525993 7.643433 1.880790849211783e-38 1768976227
52.727123 68.578415 7.260256 1.880790849211783e-38 1768976227
49.693535 64.632843 3.392762 1.880790849211783e-38 1768976227
49.504578 64.387085 2.998009 1.880790849211783e-38 1768976227
46.762627 60.820820 5.952811 1.880790849211783e-38 1768976227
46.267086 60.176308 5.408718 1.880790849211783e-38 1768976227
56.267513 73.183151 6.106030 1.880790849211783e-38 1768976227
52.106060 67.770653 -1.527666 1.880790849211783e-38 1768976227
52.210056 67.905907 -2.003474 1.880790849211783e-38 1768976227
51.968632 67.591896 1.038371 1.880790849211783e-38 1768976227
52.255058 67.964439 -2.530941 1.880790849211783e-38 1768976227
52.340374 68.075401 -2.956352 1.880790849211783e-38 1768976227
51.948883 67.566216 0.515316 1.880790849211783e-38 1768976227
51.933937 67.546783 0.062325 1.880790849211783e-38 1768976227
43.983322 57.205978 14.486473 1.880790849211783e-38 1768976227
47.553108 61.848949 14.848891 1.880790849211783e-38 1768976227
44.890156 58.385429 18.127300 1.880790849211783e-38 1768976227
51.912537 67.518944 15.531180 1.880790849211783e-38 1768976227
48.438801 63.000896 13.777136 1.880790849211783e-38 1768976227
48.292767 62.810963 18.626745 1.880790849211783e-38 1768976227
49.355061 64.192612 18.539915 1.880790849211783e-38 1768976227
45.885807 59.680405 12.435459 1.880790849211783e-38 1768976227
45.113232 58.675575 11.575516 1.880790849211783e-38 1768976227
49.599213 64.510170 17.849834 1.880790849211783e-38 1768976227
48.397404 62.947060 16.833012 1.880790849211783e-38 1768976227
45.796234 59.193596 9.341027 1.880790849211783e-38 1768976227
46.021797 59.485146 9.002686 1.880790849211783e-38 1768976227
47.142399 60.933571 8.765193 1.880790849211783e-38 1768976227
47.786186 61.765690 8.342135 1.880790849211783e-38 1768976227
44.327473 57.295155 10.862829 1.880790849211783e-38 1768976227
43.700443 56.484695 10.242016 1.880790849211783e-38 1768976227
47.799191 61.782501 7.993116 1.880790849211783e-38 1768976227
47.820450 61.809982 7.485476 1.880790849211783e-38 1768976227
50.180141 64.859978 11.308051 1.880790849211783e-38 1768976227
45.223820 58.453724 9.768140 1.880790849211783e-38 1768976227
51.195583 66.172493 4.456505 1.880790849211783e-38 1768976227
50.238979 64.936035 3.970446 1.880790849211783e-38 1768976227
52.960339 68.453506 7.653129 1.880790849211783e-38 1768976227
53.000919 68.505959 7.269474 1.880790849211783e-38 1768976227
49.813950 64.386658 3.387710 1.880790849211783e-38 1768976227
49.607960 64.120415 2.992545 1.880790849211783e-38 1768976227
46.988056 60.734074 5.958164 1.880790849211783e-38 1768976227
46.471931 60.066959 5.411462 1.880790849211783e-38 1768976227
52.202003 67.473328 2.155030 1.880790849211783e-38 1768976227
56.425602 72.932510 6.099289 1.880790849211783e-38 1768976227
52.394382 67.721985 -1.530124 1.880790849211783e-38 1768976227
52.314938 67.619293 -1.999664 1.880790849211783e-38 1768976227
52.151257 67.407730 1.473493 1.880790849211783e-38 1768976227
52.125389 67.374290 1.037438 1.880790849211783e-38 1768976227
52.354134 67.669960 -2.525843 1.880790849211783e-38 1768976227
52.364838 67.683792 -2.946191 1.880790849211783e-38 1768976227
52.258121 67.545853 0.516361 1.880790849211783e-38 1768976227
44.178555 57.102676 14.493988 1.880790849211783e-38 1768976227
45.131191 58.333992 14.037624 1.880790849211783e-38 1768976227
45.095436 58.287785 18.139128 1.880790849211783e-38 1768976227
43.976826 56.841927 13.105627 1.880790849211783e-38 1768976227
46.234688 59.760315 13.098913 1.880790849211783e-38 1768976227
48.335918 62.476242 18.570631 1.880790849211783e-38 1768976227
49.655018 64.181236 18.579796 1.880790849211783e-38 1768976227
45.774036 59.164902 12.356754 1.880790849211783e-38 1768976227
45.118301 58.317333 11.531634 1.880790849211783e-38 1768976227
49.868019 64.456551 17.876534 1.880790849211783e-38 1768976227
48.633259 62.860569 16.849028 1.880790849211783e-38 1768976227
45.781151 58.806782 9.301732 1.880790849211783e-38 1768976227
45.948986 59.022369 8.953581 1.880790849211783e-38 1768976227
47.278568 60.730240 8.756415 1.880790849211783e-38 1768976227
47.938522 61.577969 8.336270 1.880790849211783e-38 1768976227
44.437572 57.080929 10.847573 1.880790849211783e-38 1768976227
43.785652 56.243526 10.222185 1.880790849211783e-38 1768976227
47.951561 61.594711 7.987495 1.880790849211783e-38 1768976227
47.972748 61.621937 7.480190 1.880790849211783e-38 1768976227
50.443523 64.795685 11.323316 1.880790849211783e-38 1768976227
44.608177 57.300072 9.597793 1.880790849211783e-38 1768976227
51.305542 65.902969 4.448754 1.880790849211783e-38 1768976227
50.540871 64.920731 3.978813 1.880790849211783e-38 1768976227
53.234566 68.380836 7.662920 1.880790849211783e-38 1768976227
53.275402 68.433296 7.278780 1.880790849211783e-38 1768976227
49.934040 64.141251 3.382706 1.880790849211783e-38 1768976227
49.710960 63.854706 2.987128 1.880790849211783e-38 1768976227
47.236561 60.676281 5.966444 1.880790849211783e-38 1768976227
46.683899 59.966377 5.415061 1.880790849211783e-38 1768976227
52.456802 67.381790 2.576087 1.880790849211783e-38 1768976227
52.453785 67.377907 2.157025 1.880790849211783e-38 1768976227
52.811726 67.837692 5.686508 1.880790849211783e-38 1768976227
52.765919 67.778847 5.137259 1.880790849211783e-38 1768976227
52.743019 67.749435 -2.008207 1.880790849211783e-38 1768976227
52.631142 67.605736 -2.529359 1.880790849211783e-38 1768976227
52.568810 67.525658 -2.946196 1.880790849211783e-38 1768976227
44.461433 57.111576 14.530218 1.880790849211783e-38 1768976227
45.312531 58.204830 14.039364 1.880790849211783e-38 1768976227
45.300747 58.189690 18.151037 1.880790849211783e-38 1768976227
43.959366 56.466660 13.049612 1.880790849211783e-38 1768976227
48.701885 62.558521 13.744387 1.880790849211783e-38 1768976227
48.379303 62.144161 18.515207 1.880790849211783e-38 1768976227
49.652782 63.779964 18.506899 1.880790849211783e-38 1768976227
45.762245 58.782494 12.305657 1.880790849211783e-38 1768976227
45.423824 58.347790 11.564693 1.880790849211783e-38 1768976227
50.283710 64.590408 17.955633 1.880790849211783e-38 1768976227
53.209843 68.349075 18.363089 1.880790849211783e-38 1768976227
45.766106 58.423096 9.262834 1.880790849211783e-38 1768976227
45.877491 58.565285 8.905190 1.880790849211783e-38 1768976227
47.414452 60.527302 8.747733 1.880790849211783e-38 1768976227
48.090649 61.390511 8.330490 1.880790849211783e-38 1768976227
44.547558 56.867542 10.832505 1.880790849211783e-38 1768976227
45.225700 57.733231 10.517679 1.880790849211783e-38 1768976227
48.103714 61.407192 7.981955 1.880790849211783e-38 1768976227
48.124825 61.434143 7.474978 1.880790849211783e-38 1768976227
46.062019 58.800842 10.299921 1.880790849211783e-38 1768976227
46.719433 59.640076 10.013300 1.880790849211783e-38 1768976227
51.415260 65.634560 4.441083 1.880790849211783e-38 1768976227
51.010681 65.118095 4.000319 1.880790849211783e-38 1768976227
53.133884 67.828491 7.618946 1.880790849211783e-38 1768976227
53.129757 67.823219 7.230901 1.880790849211783e-38 1768976227
50.053780 63.896568 3.377748 1.880790849211783e-38 1768976227
49.813602 63.589962 2.981758 1.880790849211783e-38 1768976227
47.657593 60.837685 5.996421 1.880790849211783e-38 1768976227
46.929470 59.908192 5.422563 1.880790849211783e-38 1768976227
52.703217 67.278717 2.578211 1.880790849211783e-38 1768976227
47.615372 60.783791 5.107227 1.880790849211783e-38 1768976227
57.234089 73.062637 5.550799 1.880790849211783e-38 1768976227
44.669949 57.023777 14.542090 1.880790849211783e-38 1768976227
44.758663 57.137032 13.814301 1.880790849211783e-38 1768976227
50.682892 64.699654 20.229269 1.880790849211783e-38 1768976227
44.001205 56.170097 13.011685 1.880790849211783e-38 1768976227
48.833065 62.338249 13.728287 1.880790849211783e-38 1768976227
49.910484 63.713634 19.027576 1.880790849211783e-38 1768976227
50.875118 64.945045 18.889406 1.880790849211783e-38 1768976227
45.756748 58.411148 12.256752 1.880790849211783e-38 1768976227
45.606773 58.219700 11.566515 1.880790849211783e-38 1768976227
53.567867 68.382500 19.054630 1.880790849211783e-38 1768976227
53.333427 68.083221 18.334793 1.880790849211783e-38 1768976227
45.703648 57.982285 9.214757 1.880790849211783e-38 1768976227
45.890968 58.219929 8.873682 1.880790849211783e-38 1768976227
47.550049 60.324734 8.739144 1.880790849211783e-38 1768976227
48.245560 61.207104 8.325309 1.880790849211783e-38 1768976227
44.657429 56.654995 10.817624 1.880790849211783e-38 1768976227
45.236195 57.389252 10.479820 1.880790849211783e-38 1768976227
48.255669 61.219929 7.976495 1.880790849211783e-38 1768976227
48.275536 61.245136 7.469663 1.880790849211783e-38 1768976227
46.129642 58.522736 10.275530 1.880790849211783e-38 1768976227
46.684597 59.226776 9.967504 1.880790849211783e-38 1768976227
51.836246 65.762459 4.460295 1.880790849211783e-38 1768976227
52.283421 66.329773 4.084423 1.880790849211783e-38 1768976227
53.780388 68.228905 7.682107 1.880790849211783e-38 1768976227
53.826492 68.287392 7.297663 1.880790849211783e-38 1768976227
50.276276 63.783394 3.379765 1.880790849211783e-38 1768976227
49.915886 63.326180 2.976434 1.880790849211783e-38 1768976227
48.216034 61.169651 6.043446 1.880790849211783e-38 1768976227
47.175774 59.849915 5.430141 1.880790849211783e-38 1768976227
47.729996 60.553032 5.099911 1.880790849211783e-38 1768976227
47.454651 60.203724 4.584719 1.880790849211783e-38 1768976227
44.852062 56.901917 14.545444 1.880790849211783e-38 1768976227
