# .PCD v0.7 - Point Cloud Data file format
VERSION 0.7
FIELDS x y z rgb label
SIZE 4 4 4 4 4
TYPE F F F F U
COUNT 1 1 1 1 1
WIDTH 752
HEIGHT 1
VIEWPOINT 0 0 0 1 0 0 0
POINTS 752
DATA ascii
-48.462349 72.361588 19.103956 1.880790849211783e-38 1768976227
-47.981304 71.643311 18.279791 1.880790849211783e-38 1768976227
-47.177639 70.904915 10.629698 1.880790849211783e-38 1768976227
-45.380173 68.203438 9.806059 1.880790849211783e-38 1768976227
-45.375454 68.196350 9.319457 1.880790849211783e-38 1768976227
-47.547405 71.460655 9.168991 1.880790849211783e-38 1768976227
-43.504574 65.384544 11.776731 1.880790849211783e-38 1768976227
-43.314613 65.099045 11.213829 1.880790849211783e-38 1768976227
-44.100910 66.280785 10.978002 1.880790849211783e-38 1768976227
-47.245876 71.007477 11.272713 1.880790849211783e-38 1768976227
-40.500721 60.869946 14.677734 1.880790849211783e-38 1768976227
-47.588566 71.522514 16.350813 1.880790849211783e-38 1768976227
-47.078011 70.755188 15.497868 1.880790849211783e-38 1768976227
-43.995949 66.123039 13.768918 1.880790849211783e-38 1768976227
-49.589806 74.530251 20.496988 1.880790849211783e-38 1768976227
-39.755585 59.750057 11.855046 1.880790849211783e-38 1768976227
-43.757938 65.765327 12.354205 1.880790849211783e-38 1768976227
-48.181740 72.414009 19.079344 1.880790849211783e-38 1768976227
-47.844009 71.906433 18.310024 1.880790849211783e-38 1768976227
-46.727520 70.689781 10.576270 1.880790849211783e-38 1768976227
-46.877377 70.916473 10.175757 1.880790849211783e-38 1768976227
-45.216125 68.403320 9.329063 1.880790849211783e-38 1768976227
-47.333328 71.606255 9.169314 1.880790849211783e-38 1768976227
-43.391861 65.643562 11.799760 1.880790849211783e-38 1768976227
-43.030243 65.096504 11.190986 1.880790849211783e-38 1768976227
-43.615715 65.982208 10.906711 1.880790849211783e-38 1768976227
-46.378914 70.162392 11.116296 1.880790849211783e-38 1768976227
-40.497692 61.265247 14.743534 1.880790849211783e-38 1768976227
-46.633690 70.547821 16.095760 1.880790849211783e-38 1768976227
-46.710503 70.664032 15.446975 1.880790849211783e-38 1768976227
-43.960979 66.504532 13.820686 1.880790849211783e-38 1768976227
-49.492298 74.872353 20.549927 1.880790849211783e-38 1768976227
-40.006924 60.522800 11.984371 1.880790849211783e-38 1768976227
-43.516171 65.831619 12.341948 1.880790849211783e-38 1768976227
-48.193108 72.906921 19.170830 1.880790849211783e-38 1768976227
-47.800903 72.313591 18.376909 1.880790849211783e-38 1768976227
-46.407368 70.667839 10.552000 1.880790849211783e-38 1768976227
-46.187252 70.332657 10.071951 1.880790849211783e-38 1768976227
-44.803646 68.225739 9.286372 1.880790849211783e-38 1768976227
-47.056431 71.656219 9.157498 1.880790849211783e-38 1768976227
-43.151306 65.709602 11.788184 1.880790849211783e-38 1768976227
-42.428749 64.609306 11.085180 1.880790849211783e-38 1768976227
-43.604881 66.400291 10.954031 1.880790849211783e-38 1768976227
-46.076042 70.163300 11.094372 1.880790849211783e-38 1768976227
-40.003601 60.916363 14.630474 1.880790849211783e-38 1768976227
-47.900768 72.941948 16.608953 1.880790849211783e-38 1768976227
-43.898056 66.846733 13.864223 1.880790849211783e-38 1768976227
-48.600037 74.006775 20.272034 1.880790849211783e-38 1768976227
-43.427517 66.130211 13.068724 1.880790849211783e-38 1768976227
-43.279514 65.904831 12.331146 1.880790849211783e-38 1768976227
-49.232029 74.969154 19.673962 1.880790849211783e-38 1768976227
-47.678986 72.604218 18.414137 1.880790849211783e-38 1768976227
-45.985817 70.488342 10.504439 1.880790849211783e-38 1768976227
-45.916691 70.382385 10.059195 1.880790849211783e-38 1768976227
-46.258358 70.906097 9.632169 1.880790849211783e-38 1768976227
-42.897408 65.754341 11.772945 1.880790849211783e-38 1768976227
-43.227352 66.260086 11.345988 1.880790849211783e-38 1768976227
-43.073898 66.024864 10.870616 1.880790849211783e-38 1768976227
-45.795361 70.196396 11.077715 1.880790849211783e-38 1768976227
-39.979248 61.281303 14.689097 1.880790849211783e-38 1768976227
-47.894409 73.413879 16.683445 1.880790849211783e-38 1768976227
-40.661903 62.327702 13.570810 1.880790849211783e-38 1768976227
-43.421219 66.557251 13.776959 1.880790849211783e-38 1768976227
-48.684467 74.624908 20.401039 1.880790849211783e-38 1768976227
-44.383423 68.032143 13.418071 1.880790849211783e-38 1768976227
-43.652512 66.911797 12.494864 1.880790849211783e-38 1768976227
-48.712288 74.667557 19.556168 1.880790849211783e-38 1768976227
-47.497849 72.806023 18.428904 1.880790849211783e-38 1768976227
-45.996071 70.970802 10.555620 1.880790849211783e-38 1768976227
-45.983097 70.950790 10.120568 1.880790849211783e-38 1768976227
-45.993153 70.966301 9.621463 1.880790849211783e-38 1768976227
-43.180588 66.626587 11.905748 1.880790849211783e-38 1768976227
-42.949425 66.269905 11.325440 1.880790849211783e-38 1768976227
-42.573345 65.689621 10.794233 1.880790849211783e-38 1768976227
-45.808434 70.681290 11.132385 1.880790849211783e-38 1768976227
-39.675179 61.217823 14.645136 1.880790849211783e-38 1768976227
-46.794590 72.202904 16.376106 1.880790849211783e-38 1768976227
-47.624332 73.483177 15.968387 1.880790849211783e-38 1768976227
-43.816032 67.607063 13.966852 1.880790849211783e-38 1768976227
-48.475441 74.796417 20.407871 1.880790849211783e-38 1768976227
-44.187626 68.180412 13.420973 1.880790849211783e-38 1768976227
-43.535770 67.174622 12.519372 1.880790849211783e-38 1768976227
-48.530643 74.881584 19.573807 1.880790849211783e-38 1768976227
-47.100655 72.675156 18.359741 1.880790849211783e-38 1768976227
-45.555698 70.758003 10.503487 1.880790849211783e-38 1768976227
-45.387421 70.496628 10.036214 1.880790849211783e-38 1768976227
-45.485455 70.648895 9.559788 1.880790849211783e-38 1768976227
-47.169102 73.263969 9.308043 1.880790849211783e-38 1768976227
-42.762863 66.420113 11.845753 1.880790849211783e-38 1768976227
-43.133335 66.995537 11.427166 1.880790849211783e-38 1768976227
-42.574780 66.127983 10.845117 1.880790849211783e-38 1768976227
-45.346535 70.433128 11.071709 1.880790849211783e-38 1768976227
-39.447609 61.270790 14.629280 1.880790849211783e-38 1768976227
-46.779362 72.658615 16.447392 1.880790849211783e-38 1768976227
-49.300991 76.575264 15.788789 1.880790849211783e-38 1768976227
-48.055191 74.640259 20.325628 1.880790849211783e-38 1768976227
-44.399311 68.961876 13.548379 1.880790849211783e-38 1768976227
-43.893787 68.176689 12.681396 1.880790849211783e-38 1768976227
-48.229633 74.911201 19.543438 1.880790849211783e-38 1768976227
-48.775505 75.759064 19.101572 1.880790849211783e-38 1768976227
-45.253010 70.755798 10.482852 1.880790849211783e-38 1768976227
-45.423042 71.021652 10.091410 1.880790849211783e-38 1768976227
-45.095894 70.510132 9.522564 1.880790849211783e-38 1768976227
-45.998188 71.920929 9.119745 1.880790849211783e-38 1768976227
-43.635036 68.226006 12.144299 1.880790849211783e-38 1768976227
-42.890987 67.062637 11.416493 1.880790849211783e-38 1768976227
-42.529022 66.496681 10.884498 1.880790849211783e-38 1768976227
-42.372757 66.252350 10.394377 1.880790849211783e-38 1768976227
-38.956348 60.910587 14.515156 1.880790849211783e-38 1768976227
-46.560665 72.800392 16.447620 1.880790849211783e-38 1768976227
-46.416172 72.574478 14.934949 1.880790849211783e-38 1768976227
-47.689388 74.565216 20.265934 1.880790849211783e-38 1768976227
-43.727093 68.369926 13.406113 1.880790849211783e-38 1768976227
-43.617359 68.198364 12.660901 1.880790849211783e-38 1768976227
-47.765377 74.684036 19.446499 1.880790849211783e-38 1768976227
-48.489986 75.817009 19.079222 1.880790849211783e-38 1768976227
-44.990929 70.815659 10.471570 1.880790849211783e-38 1768976227
-45.261448 71.241447 10.103198 1.880790849211783e-38 1768976227
-44.986313 70.808395 9.544477 1.880790849211783e-38 1768976227
-45.855572 72.176605 9.134587 1.880790849211783e-38 1768976227
-44.480270 70.011879 12.438251 1.880790849211783e-38 1768976227
-42.938431 67.585022 11.483325 1.880790849211783e-38 1768976227
-42.745445 67.281273 10.991772 1.880790849211783e-38 1768976227
-44.074337 69.372940 10.863064 1.880790849211783e-38 1768976227
-38.738377 60.974152 14.502396 1.880790849211783e-38 1768976227
-46.381763 73.004837 16.462130 1.880790849211783e-38 1768976227
-42.576656 67.015594 13.115314 1.880790849211783e-38 1768976227
-44.309654 69.743332 12.922854 1.880790849211783e-38 1768976227
-47.668495 75.030136 19.499096 1.880790849211783e-38 1768976227
-48.332726 76.075638 19.107534 1.880790849211783e-38 1768976227
-44.720837 70.861809 10.458402 1.880790849211783e-38 1768976227
-45.033016 71.356468 10.100202 1.880790849211783e-38 1768976227
-44.760864 70.925232 9.541986 1.880790849211783e-38 1768976227
-45.119526 71.493538 9.030876 1.880790849211783e-38 1768976227
-44.148163 69.954384 12.404325 1.880790849211783e-38 1768976227
-44.586147 70.648392 11.980918 1.880790849211783e-38 1768976227
-42.422768 67.220428 10.960878 1.880790849211783e-38 1768976227
-42.459953 67.279350 10.515130 1.880790849211783e-38 1768976227
-38.670521 61.274860 14.546112 1.880790849211783e-38 1768976227
-50.058846 79.320084 15.493750 1.880790849211783e-38 1768976227
-46.438251 73.583122 13.608320 1.880790849211783e-38 1768976227
-47.224922 74.829613 19.409880 1.880790849211783e-38 1768976227
-47.415001 75.130806 18.834223 1.880790849211783e-38 1768976227
-44.763172 71.405136 10.518617 1.880790849211783e-38 1768976227
-44.726513 71.346657 10.079674 1.880790849211783e-38 1768976227
-44.397690 70.822128 9.510056 1.880790849211783e-38 1768976227
-44.957397 71.714966 9.041677 1.880790849211783e-38 1768976227
-50.742905 80.943855 14.325778 1.880790849211783e-38 1768976227
-43.917507 70.056160 11.857966 1.880790849211783e-38 1768976227
-44.203796 70.512833 11.475944 1.880790849211783e-38 1768976227
-42.166298 67.262665 10.492598 1.880790849211783e-38 1768976227
-48.584457 77.500755 15.109687 1.880790849211783e-38 1768976227
-50.405159 80.405098 14.841781 1.880790849211783e-38 1768976227
-44.206150 70.991455 10.437991 1.880790849211783e-38 1768976227
-44.260647 71.078964 10.022951 1.880790849211783e-38 1768976227
-44.100471 70.821747 9.492102 1.880790849211783e-38 1768976227
-50.767578 81.528564 14.402098 1.880790849211783e-38 1768976227
-43.480759 69.826538 11.796850 1.880790849211783e-38 1768976227
-43.828739 70.385368 11.433633 1.880790849211783e-38 1768976227
-43.891602 70.486320 10.974771 1.880790849211783e-38 1768976227
-48.604813 78.055351 15.189162 1.880790849211783e-38 1768976227
-49.707237 79.825760 14.707102 1.880790849211783e-38 1768976227
-41.904961 67.750404 9.942827 1.880790849211783e-38 1768976227
-44.624222 72.146797 10.154505 1.880790849211783e-38 1768976227
-44.110447 71.316154 9.540494 1.880790849211783e-38 1768976227
-50.013390 80.859810 14.257254 1.880790849211783e-38 1768976227
-43.324337 70.045197 11.811666 1.880790849211783e-38 1768976227
-43.581902 70.461609 11.424618 1.880790849211783e-38 1768976227
-43.781960 70.785057 11.000677 1.880790849211783e-38 1768976227
-49.146019 79.457466 14.611877 1.880790849211783e-38 1768976227
-43.598228 70.965538 10.395328 1.880790849211783e-38 1768976227
-43.817184 71.321945 10.019764 1.880790849211783e-38 1768976227
-43.773033 71.250076 9.513950 1.880790849211783e-38 1768976227
-44.023285 71.657410 8.983834 1.880790849211783e-38 1768976227
-49.763969 81.001617 14.255729 1.880790849211783e-38 1768976227
-43.292740 70.468285 11.860940 1.880790849211783e-38 1768976227
-43.506115 70.815598 11.460687 1.880790849211783e-38 1768976227
-43.318909 70.510880 10.937714 1.880790849211783e-38 1768976227
-49.356709 80.338715 14.746493 1.880790849211783e-38 1768976227
-43.405807 71.132446 10.400553 1.880790849211783e-38 1768976227
-43.548061 71.365570 10.007396 1.880790849211783e-38 1768976227
-43.563278 71.390503 9.515115 1.880790849211783e-38 1768976227
-43.745258 71.688728 8.971180 1.880790849211783e-38 1768976227
-49.577492 81.246460 14.272439 1.880790849211783e-38 1768976227
-49.929386 81.823143 13.746734 1.880790849211783e-38 1768976227
-43.013069 70.488838 11.386757 1.880790849211783e-38 1768976227
-43.223270 70.833313 10.967458 1.880790849211783e-38 1768976227
-48.993336 80.289162 14.710208 1.880790849211783e-38 1768976227
-43.038227 71.010849 10.363747 1.880790849211783e-38 1768976227
-43.138245 71.175873 9.962504 1.880790849211783e-38 1768976227
-43.001915 70.950935 9.439198 1.880790849211783e-38 1768976227
-43.333656 71.498291 8.930952 1.880790849211783e-38 1768976227
-49.328896 81.390121 14.271476 1.880790849211783e-38 1768976227
-49.533188 81.727203 13.705453 1.880790849211783e-38 1768976227
-49.329346 81.390869 13.123775 1.880790849211783e-38 1768976227
-49.782204 82.138054 12.694519 1.880790849211783e-38 1768976227
-49.228401 81.779739 13.689303 1.880790849211783e-38 1768976227
-49.474998 82.189392 13.228413 1.880790849211783e-38 1768976227
-49.198265 81.729675 12.608414 1.880790849211783e-38 1768976227
-48.775204 81.582741 13.631640 1.880790849211783e-38 1768976227
-49.184399 82.267166 13.216994 1.880790849211783e-38 1768976227
-49.221420 82.329079 12.677925 1.880790849211783e-38 1768976227
-48.394810 81.503601 13.070810 1.880790849211783e-38 1768976227
-48.968899 82.470444 12.676892 1.880790849211783e-38 1768976227
-21.599657 71.196533 8.464826 1.880790849211783e-38 1768976227
-21.950615 72.353355 14.390799 1.880790849211783e-38 1768976227
-21.664995 72.194832 9.022541 1.880790849211783e-38 1768976227
-21.096216 70.299469 8.350569 1.880790849211783e-38 1768976227
-20.701864 68.985367 7.693892 1.880790849211783e-38 1768976227
-21.381895 71.251442 10.668601 1.880790849211783e-38 1768976227
-21.750673 72.480339 14.402945 1.880790849211783e-38 1768976227
-21.396832 72.090286 9.385663 1.880790849211783e-38 1768976227
-20.954676 70.600571 8.815360 1.880790849211783e-38 1768976227
-20.622427 69.481163 8.245939 1.880790849211783e-38 1768976227
-21.064840 70.971741 10.617161 1.880790849211783e-38 1768976227
-21.066330 70.976753 14.091469 1.880790849211783e-38 1768976227
-21.790581 73.416916 13.965400 1.880790849211783e-38 1768976227
-20.609047 70.211693 9.132948 1.880790849211783e-38 1768976227
-20.441101 69.639534 8.687625 1.880790849211783e-38 1768976227
-20.447422 69.661064 8.259933 1.880790849211783e-38 1768976227
-21.663549 73.804214 11.031065 1.880790849211783e-38 1768976227
-20.588024 70.140076 9.661567 1.880790849211783e-38 1768976227
-21.011129 71.581528 14.198894 1.880790849211783e-38 1768976227
-21.551718 73.423233 13.954174 1.880790849211783e-38 1768976227
-20.233154 69.708374 9.059499 1.880790849211783e-38 1768976227
-20.173302 69.502159 8.662858 1.880790849211783e-38 1768976227
-20.197294 69.584824 8.243633 1.880790849211783e-38 1768976227
-20.730965 71.423447 11.152319 1.880790849211783e-38 1768976227
-20.282349 69.877853 9.616976 1.880790849211783e-38 1768976227
-24.310522 83.755936 3.629319 1.880790849211783e-38 1768976227
-24.320587 83.790619 3.220617 1.880790849211783e-38 1768976227
-24.458330 84.265175 2.646968 1.880790849211783e-38 1768976227
-21.076164 72.612747 14.390772 1.880790849211783e-38 1768976227
-21.332237 73.494987 13.955520 1.880790849211783e-38 1768976227
-20.204176 70.400993 9.141553 1.880790849211783e-38 1768976227
-19.926786 69.434448 8.646887 1.880790849211783e-38 1768976227
-20.476904 71.351318 11.131362 1.880790849211783e-38 1768976227
-20.722116 72.205750 7.195381 1.880790849211783e-38 1768976227
-20.188751 70.347244 10.092049 1.880790849211783e-38 1768976227
-20.238863 70.521866 9.697165 1.880790849211783e-38 1768976227
-23.611032 82.272118 4.559223 1.880790849211783e-38 1768976227
-23.718178 82.645454 4.158088 1.880790849211783e-38 1768976227
-24.248484 84.493301 3.658085 1.880790849211783e-38 1768976227
-23.967794 83.515244 3.207239 1.880790849211783e-38 1768976227
-24.260262 84.534332 2.653113 1.880790849211783e-38 1768976227
-24.250641 84.500809 2.220768 1.880790849211783e-38 1768976227
-20.782118 72.414825 14.339059 1.880790849211783e-38 1768976227
-21.247805 74.037491 14.046301 1.880790849211783e-38 1768976227
-21.279072 74.146446 13.373158 1.880790849211783e-38 1768976227
-21.309298 74.251770 12.760519 1.880790849211783e-38 1768976227
-19.913828 70.186951 9.105919 1.880790849211783e-38 1768976227
-19.771563 69.685532 8.670691 1.880790849211783e-38 1768976227
-20.265217 71.425438 11.133339 1.880790849211783e-38 1768976227
-19.989445 70.453461 10.502786 1.880790849211783e-38 1768976227
-20.250849 71.374794 7.591768 1.880790849211783e-38 1768976227
-19.904686 70.154732 10.055773 1.880790849211783e-38 1768976227
-20.035278 70.615005 9.701618 1.880790849211783e-38 1768976227
-23.602728 83.188606 4.606045 1.880790849211783e-38 1768976227
-23.683315 83.472633 4.196093 1.880790849211783e-38 1768976227
-23.815636 83.938995 3.630960 1.880790849211783e-38 1768976227
-24.001404 84.593750 3.245862 1.880790849211783e-38 1768976227
-24.063818 84.813736 2.659592 1.880790849211783e-38 1768976227
-24.110687 84.978928 2.231412 1.880790849211783e-38 1768976227
-23.285055 82.068947 5.102077 1.880790849211783e-38 1768976227
-24.158840 85.148643 1.530253 1.880790849211783e-38 1768976227
-20.663326 72.828590 14.408584 1.880790849211783e-38 1768976227
-20.905256 73.681282 13.966696 1.880790849211783e-38 1768976227
-20.774748 73.221298 13.194936 1.880790849211783e-38 1768976227
-21.099932 74.367416 12.769399 1.880790849211783e-38 1768976227
-19.600546 69.884773 9.059005 1.880790849211783e-38 1768976227
-19.397791 69.161865 8.598214 1.880790849211783e-38 1768976227
-20.279186 72.304436 8.543735 1.880790849211783e-38 1768976227
-20.163370 71.891495 7.976005 1.880790849211783e-38 1768976227
-19.890474 70.918503 11.044920 1.880790849211783e-38 1768976227
-19.863905 70.823769 10.549009 1.880790849211783e-38 1768976227
-20.143082 71.819160 7.632536 1.880790849211783e-38 1768976227
-19.956331 71.153305 10.190231 1.880790849211783e-38 1768976227
-19.695217 70.222313 9.639462 1.880790849211783e-38 1768976227
-23.638090 84.280426 4.662530 1.880790849211783e-38 1768976227
-23.663706 84.371765 4.237685 1.880790849211783e-38 1768976227
-23.633654 84.264618 3.641946 1.880790849211783e-38 1768976227
-23.715704 84.557167 3.241699 1.880790849211783e-38 1768976227
-23.830528 84.966560 2.662118 1.880790849211783e-38 1768976227
-23.976437 85.486786 2.242839 1.880790849211783e-38 1768976227
-23.092024 82.333466 5.114169 1.880790849211783e-38 1768976227
-24.203159 86.295166 1.549539 1.880790849211783e-38 1768976227
-24.225554 86.375015 1.092531 1.880790849211783e-38 1768976227
-20.435514 72.861809 14.402897 1.880790849211783e-38 1768976227
-20.692299 73.777367 13.973016 1.880790849211783e-38 1768976227
-20.832928 74.278770 13.374115 1.880790849211783e-38 1768976227
-20.209038 72.054329 11.703918 1.880790849211783e-38 1768976227
-19.314529 69.672333 9.023875 1.880790849211783e-38 1768976227
-19.293215 69.595451 8.644845 1.880790849211783e-38 1768976227
-19.996517 72.132431 8.516247 1.880790849211783e-38 1768976227
-19.869343 71.673691 7.945157 1.880790849211783e-38 1768976227
-19.712927 71.109451 11.065351 1.880790849211783e-38 1768976227
-19.500027 70.341469 10.468367 1.880790849211783e-38 1768976227
-19.610764 70.740921 10.122656 1.880790849211783e-38 1768976227
-19.417128 70.042435 9.606689 1.880790849211783e-38 1768976227
-23.333395 84.169388 4.652473 1.880790849211783e-38 1768976227
-23.386982 84.362686 4.233667 1.880790849211783e-38 1768976227
-23.373203 84.312988 3.640974 1.880790849211783e-38 1768976227
-23.383438 84.349907 3.231035 1.880790849211783e-38 1768976227
-23.786058 85.802254 2.686042 1.880790849211783e-38 1768976227
-23.718922 85.560081 2.242875 1.880790849211783e-38 1768976227
-23.079319 83.252869 5.166932 1.880790849211783e-38 1768976227
-23.889280 86.174614 1.546074 1.880790849211783e-38 1768976227
-24.122793 87.016945 1.099726 1.880790849211783e-38 1768976227
-20.227184 72.964516 14.411076 1.880790849211783e-38 1768976227
-20.211905 72.909386 13.797019 1.880790849211783e-38 1768976227
-20.653238 74.501396 13.402925 1.880790849211783e-38 1768976227
-19.922733 71.866280 11.663561 1.880790849211783e-38 1768976227
-19.150002 69.897041 9.045458 1.880790849211783e-38 1768976227
-19.710257 71.941956 8.928893 1.880790849211783e-38 1768976227
-19.593044 71.514137 8.436233 1.880790849211783e-38 1768976227
-19.315809 70.502243 10.961748 1.880790849211783e-38 1768976227
-19.116095 69.773285 10.375181 1.880790849211783e-38 1768976227
-19.432886 70.929565 10.141217 1.880790849211783e-38 1768976227
-19.356340 70.650169 9.681993 1.880790849211783e-38 1768976227
-23.203194 84.691086 4.677421 1.880790849211783e-38 1768976227
-23.071930 84.211983 4.222593 1.880790849211783e-38 1768976227
-22.924913 83.675377 3.610437 1.880790849211783e-38 1768976227
-23.076412 84.228340 3.223699 1.880790849211783e-38 1768976227
-23.205019 84.697762 2.649263 1.880790849211783e-38 1768976227
-23.283245 84.983284 2.225904 1.880790849211783e-38 1768976227
-22.744699 83.017609 5.693509 1.880790849211783e-38 1768976227
-22.922802 83.667671 5.188361 1.880790849211783e-38 1768976227
-23.504433 85.790619 1.537906 1.880790849211783e-38 1768976227
-19.449507 70.990227 14.776849 1.880790849211783e-38 1768976227
-20.111057 73.404877 14.486005 1.880790849211783e-38 1768976227
-20.175678 73.640739 13.923839 1.880790849211783e-38 1768976227
-20.446917 74.630753 13.415041 1.880790849211783e-38 1768976227
-19.805038 72.287918 11.722243 1.880790849211783e-38 1768976227
-18.970598 70.070808 9.060499 1.880790849211783e-38 1768976227
-19.487938 71.981682 8.926488 1.880790849211783e-38 1768976227
-19.372372 71.554810 8.434101 1.880790849211783e-38 1768976227
-19.041958 70.334381 10.926668 1.880790849211783e-38 1768976227
-19.466921 71.904037 10.683242 1.880790849211783e-38 1768976227
-19.176161 70.830070 10.118677 1.880790849211783e-38 1768976227
-18.927813 69.912773 9.573071 1.880790849211783e-38 1768976227
-22.896738 84.572601 4.667041 1.880790849211783e-38 1768976227
-22.706810 83.871071 4.202045 1.880790849211783e-38 1768976227
-23.012268 84.999321 3.664551 1.880790849211783e-38 1768976227
-22.962761 84.816460 3.243542 1.880790849211783e-38 1768976227
-23.080755 85.252296 2.664419 1.880790849211783e-38 1768976227
-22.901909 84.591698 2.213828 1.880790849211783e-38 1768976227
-22.518396 83.175133 5.699629 1.880790849211783e-38 1768976227
-22.873652 84.487328 5.234888 1.880790849211783e-38 1768976227
-23.562412 87.031372 1.558867 1.880790849211783e-38 1768976227
-19.022865 70.263863 14.613645 1.880790849211783e-38 1768976227
-19.790989 73.101036 14.414200 1.880790849211783e-38 1768976227
-19.690134 72.728516 13.740067 1.880790849211783e-38 1768976227
-20.127909 74.345505 13.352795 1.880790849211783e-38 1768976227
-19.268780 71.172188 11.531838 1.880790849211783e-38 1768976227
-18.656349 69.743294 9.010833 1.880790849211783e-38 1768976227
-19.087198 71.353935 8.841462 1.880790849211783e-38 1768976227
-19.146200 71.574501 8.429577 1.880790849211783e-38 1768976227
-18.661434 69.762306 10.829002 1.880790849211783e-38 1768976227
-19.078621 71.321877 10.588148 1.880790849211783e-38 1768976227
-19.007360 71.055473 10.142642 1.880790849211783e-38 1768976227
-18.922874 70.739639 9.678435 1.880790849211783e-38 1768976227
-22.605820 84.507645 4.659673 1.880790849211783e-38 1768976227
-22.287403 83.317299 4.170915 1.880790849211783e-38 1768976227
-22.807438 85.261368 3.672866 1.880790849211783e-38 1768976227
-22.543907 84.276199 3.220267 1.880790849211783e-38 1768976227
-22.601133 84.490128 2.638456 1.880790849211783e-38 1768976227
-22.632328 84.606750 2.212425 1.880790849211783e-38 1768976227
-22.134308 82.744980 5.665553 1.880790849211783e-38 1768976227
-22.382320 83.672142 5.180172 1.880790849211783e-38 1768976227
-18.867157 70.531349 14.657377 1.880790849211783e-38 1768976227
-19.535995 73.031677 14.388840 1.880790849211783e-38 1768976227
-19.336372 72.285431 13.645278 1.880790849211783e-38 1768976227
-19.933502 74.517685 13.372861 1.880790849211783e-38 1768976227
-18.922377 70.737793 11.452156 1.880790849211783e-38 1768976227
-18.821499 71.220428 9.194304 1.880790849211783e-38 1768976227
-19.015696 71.955276 8.908827 1.880790849211783e-38 1768976227
-18.476725 69.915802 10.844131 1.880790849211783e-38 1768976227
-19.239758 72.803123 10.799384 1.880790849211783e-38 1768976227
-18.925709 71.614769 10.214283 1.880790849211783e-38 1768976227
-18.743296 70.924515 9.695951 1.880790849211783e-38 1768976227
-22.067997 83.505165 4.600707 1.880790849211783e-38 1768976227
-22.284506 84.324425 4.217948 1.880790849211783e-38 1768976227
-22.446400 84.937035 3.655962 1.880790849211783e-38 1768976227
-22.200472 84.006439 3.207386 1.880790849211783e-38 1768976227
-21.830662 82.607086 6.088223 1.880790849211783e-38 1768976227
-22.298649 84.377945 2.632841 1.880790849211783e-38 1768976227
-22.816805 86.338638 2.255904 1.880790849211783e-38 1768976227
-22.004293 83.264107 5.696527 1.880790849211783e-38 1768976227
-22.139935 83.777367 5.182529 1.880790849211783e-38 1768976227
-18.649645 70.570129 14.653681 1.880790849211783e-38 1768976227
-18.920782 71.596115 14.094695 1.880790849211783e-38 1768976227
-19.461021 73.640381 13.889908 1.880790849211783e-38 1768976227
-19.488634 73.744873 13.223564 1.880790849211783e-38 1768976227
-19.015423 71.954239 17.496950 1.880790849211783e-38 1768976227
-18.771936 71.032890 11.490714 1.880790849211783e-38 1768976227
-18.755730 71.848099 9.267989 1.880790849211783e-38 1768976227
-18.240095 69.872841 10.828884 1.880790849211783e-38 1768976227
-19.026758 72.886337 10.803167 1.880790849211783e-38 1768976227
-18.969276 72.666138 10.356031 1.880790849211783e-38 1768976227
-18.685995 71.580963 9.777944 1.880790849211783e-38 1768976227
-22.083385 84.595444 4.657084 1.880790849211783e-38 1768976227
-22.061876 84.513054 4.224036 1.880790849211783e-38 1768976227
-22.089945 84.620560 3.639456 1.880790849211783e-38 1768976227
-21.999874 84.275520 3.215112 1.880790849211783e-38 1768976227
-21.479351 82.281548 6.598310 1.880790849211783e-38 1768976227
-21.733374 83.254631 6.131089 1.880790849211783e-38 1768976227
-21.900204 83.893723 2.615659 1.880790849211783e-38 1768976227
-22.667538 86.833168 2.267029 1.880790849211783e-38 1768976227
-21.904140 83.908798 5.736088 1.880790849211783e-38 1768976227
-21.967016 84.149666 5.201437 1.880790849211783e-38 1768976227
-18.488384 70.823967 14.694743 1.880790849211783e-38 1768976227
-18.606792 71.277565 14.020872 1.880790849211783e-38 1768976227
-18.832350 72.141609 13.596437 1.880790849211783e-38 1768976227
-19.362831 74.173737 13.289934 1.880790849211783e-38 1768976227
-18.787884 71.971268 17.487234 1.880790849211783e-38 1768976227
-21.245565 81.385986 13.894411 1.880790849211783e-38 1768976227
-18.499830 70.867821 11.454933 1.880790849211783e-38 1768976227
-19.065475 73.946487 9.531208 1.880790849211783e-38 1768976227
-19.959141 77.412621 9.569423 1.880790849211783e-38 1768976227
-20.264978 78.598831 9.234881 1.880790849211783e-38 1768976227
-18.796444 72.903046 11.289668 1.880790849211783e-38 1768976227
-18.730255 72.646317 10.759169 1.880790849211783e-38 1768976227
-18.647921 72.326981 10.299633 1.880790849211783e-38 1768976227
-18.569460 72.022667 9.830585 1.880790849211783e-38 1768976227
-21.887085 84.890251 4.669659 1.880790849211783e-38 1768976227
-21.993130 85.301559 4.260111 1.880790849211783e-38 1768976227
-21.707909 84.195305 7.297481 1.880790849211783e-38 1768976227
-22.234009 86.235825 3.706025 1.880790849211783e-38 1768976227
-22.266922 86.363480 3.292190 1.880790849211783e-38 1768976227
-21.347677 82.798134 6.634543 1.880790849211783e-38 1768976227
-21.687885 84.117645 6.189799 1.880790849211783e-38 1768976227
-22.328480 86.602234 2.697993 1.880790849211783e-38 1768976227
-22.352707 86.696198 2.261682 1.880790849211783e-38 1768976227
-21.726414 84.267082 5.756075 1.880790849211783e-38 1768976227
-21.824717 84.648354 5.228170 1.880790849211783e-38 1768976227
-18.093599 70.177017 14.549124 1.880790849211783e-38 1768976227
-18.738916 72.679916 14.285544 1.880790849211783e-38 1768976227
-18.704922 72.548065 13.662347 1.880790849211783e-38 1768976227
-19.309744 74.893906 13.408473 1.880790849211783e-38 1768976227
-18.614517 72.197418 17.528463 1.880790849211783e-38 1768976227
-18.701353 72.534218 17.150873 1.880790849211783e-38 1768976227
-20.720835 80.366890 13.709698 1.880790849211783e-38 1768976227
-18.278341 70.893547 11.450129 1.880790849211783e-38 1768976227
-19.855190 77.981377 9.632286 1.880790849211783e-38 1768976227
-20.075392 78.846214 9.256794 1.880790849211783e-38 1768976227
-20.497219 80.502953 8.873943 1.880790849211783e-38 1768976227
-18.614155 73.107201 11.312540 1.880790849211783e-38 1768976227
-18.538427 72.809776 10.775050 1.880790849211783e-38 1768976227
-21.227362 83.370583 11.863114 1.880790849211783e-38 1768976227
-18.453781 72.477341 9.885003 1.880790849211783e-38 1768976227
-21.653189 85.043022 4.674450 1.880790849211783e-38 1768976227
-21.676838 85.135910 4.248555 1.880790849211783e-38 1768976227
-21.452530 84.254936 7.297009 1.880790849211783e-38 1768976227
-22.057831 86.632263 3.720187 1.880790849211783e-38 1768976227
-21.972403 86.296738 3.287105 1.880790849211783e-38 1768976227
-21.162498 83.115837 6.654857 1.880790849211783e-38 1768976227
-21.470327 84.324837 6.200253 1.880790849211783e-38 1768976227
-22.032442 86.532547 2.693740 1.880790849211783e-38 1768976227
-21.607052 84.861824 5.792223 1.880790849211783e-38 1768976227
-21.561451 84.682724 5.226253 1.880790849211783e-38 1768976227
-18.099566 71.086151 14.726223 1.880790849211783e-38 1768976227
-18.572441 72.943375 14.326254 1.880790849211783e-38 1768976227
-18.543102 72.828140 13.704498 1.880790849211783e-38 1768976227
-18.932384 74.357056 13.302076 1.880790849211783e-38 1768976227
-18.329700 71.990013 17.464607 1.880790849211783e-38 1768976227
-18.511475 72.703926 17.177723 1.880790849211783e-38 1768976227
-18.985725 74.566544 12.710400 1.880790849211783e-38 1768976227
-17.952879 70.510040 11.379393 1.880790849211783e-38 1768976227
-20.878275 83.046227 10.687677 1.880790849211783e-38 1768976227
-19.793743 78.732346 9.717628 1.880790849211783e-38 1768976227
-19.861641 79.002434 9.268059 1.880790849211783e-38 1768976227
-20.186289 80.293762 8.844132 1.880790849211783e-38 1768976227
-18.340816 72.953133 11.280089 1.880790849211783e-38 1768976227
-18.777355 74.689537 11.044803 1.880790849211783e-38 1768976227
-20.257940 80.578773 11.457110 1.880790849211783e-38 1768976227
-18.019373 71.674553 9.768057 1.880790849211783e-38 1768976227
-21.228514 84.439354 4.637728 1.880790849211783e-38 1768976227
-21.590607 85.879631 4.282400 1.880790849211783e-38 1768976227
-21.119127 84.004250 7.269748 1.880790849211783e-38 1768976227
-21.705086 86.334984 3.704594 1.880790849211783e-38 1768976227
-21.950041 87.309326 3.323139 1.880790849211783e-38 1768976227
-21.151299 84.132217 6.731097 1.880790849211783e-38 1768976227
-21.253166 84.537415 6.211142 1.880790849211783e-38 1768976227
-21.336443 84.868652 5.788271 1.880790849211783e-38 1768976227
-21.528311 85.631836 5.280797 1.880790849211783e-38 1768976227
-18.225119 72.492935 15.006197 1.880790849211783e-38 1768976227
-18.188744 72.348259 14.198533 1.880790849211783e-38 1768976227
-18.463427 73.440834 13.809252 1.880790849211783e-38 1768976227
-18.781927 74.707710 13.354614 1.880790849211783e-38 1768976227
-18.277300 72.700493 17.623516 1.880790849211783e-38 1768976227
-18.350534 72.991798 17.232584 1.880790849211783e-38 1768976227
-18.704870 74.401215 12.672544 1.880790849211783e-38 1768976227
-18.044939 71.776245 11.574905 1.880790849211783e-38 1768976227
-19.179163 77.272629 9.937151 1.880790849211783e-38 1768976227
-19.538563 78.720650 9.708866 1.880790849211783e-38 1768976227
-18.685095 75.282036 8.824955 1.880790849211783e-38 1768976227
-18.133980 73.061592 11.288352 1.880790849211783e-38 1768976227
-18.679441 75.259254 11.120668 1.880790849211783e-38 1768976227
-18.082672 72.854874 10.351086 1.880790849211783e-38 1768976227
-17.670391 71.193802 9.695231 1.880790849211783e-38 1768976227
-21.320345 85.899422 4.714368 1.880790849211783e-38 1768976227
-21.477091 86.530960 4.311629 1.880790849211783e-38 1768976227
-20.839714 83.962975 7.649753 1.880790849211783e-38 1768976227
-20.618515 83.071762 7.183636 1.880790849211783e-38 1768976227
-21.551594 86.831131 3.723077 1.880790849211783e-38 1768976227
-21.553398 86.838394 3.302725 1.880790849211783e-38 1768976227
-20.922956 84.298355 6.739310 1.880790849211783e-38 1768976227
-20.975649 84.510651 6.204499 1.880790849211783e-38 1768976227
-22.346260 90.032829 2.798456 1.880790849211783e-38 1768976227
-21.123110 85.104767 5.800003 1.880790849211783e-38 1768976227
-21.224852 85.514687 5.269601 1.880790849211783e-38 1768976227
-17.930607 72.242218 14.167045 1.880790849211783e-38 1768976227
-17.710985 71.357353 18.096470 1.880790849211783e-38 1768976227
-18.221674 73.414909 13.793981 1.880790849211783e-38 1768976227
-18.325806 73.834465 13.188574 1.880790849211783e-38 1768976227
-18.003380 72.535416 17.570257 1.880790849211783e-38 1768976227
-18.128881 73.041069 17.231228 1.880790849211783e-38 1768976227
-18.595591 74.921425 12.751539 1.880790849211783e-38 1768976227
-17.942194 72.288895 11.648798 1.880790849211783e-38 1768976227
-18.006815 72.549255 15.846953 1.880790849211783e-38 1768976227
-18.922287 77.233246 9.924703 1.880790849211783e-38 1768976227
-19.454226 79.404404 9.785915 1.880790849211783e-38 1768976227
-19.286480 78.719734 9.221079 1.880790849211783e-38 1768976227
-21.232819 86.663918 9.531507 1.880790849211783e-38 1768976227
-18.419056 75.179260 11.606904 1.880790849211783e-38 1768976227
-17.831095 72.779434 10.746243 1.880790849211783e-38 1768976227
-17.661568 72.087486 10.234442 1.880790849211783e-38 1768976227
-18.367630 74.969360 10.201800 1.880790849211783e-38 1768976227
-21.028851 85.831390 4.707132 1.880790849211783e-38 1768976227
-21.228651 86.646904 4.314196 1.880790849211783e-38 1768976227
-20.737494 84.642204 7.705903 1.880790849211783e-38 1768976227
-20.425266 83.367805 7.203876 1.880790849211783e-38 1768976227
-21.535427 87.899048 3.766064 1.880790849211783e-38 1768976227
-21.859350 89.221169 3.390826 1.880790849211783e-38 1768976227
-20.801188 84.902168 6.782537 1.880790849211783e-38 1768976227
-20.945370 85.490669 6.271782 1.880790849211783e-38 1768976227
-22.059195 90.036850 2.796500 1.880790849211783e-38 1768976227
-20.553871 83.892723 5.713150 1.880790849211783e-38 1768976227
-20.948622 85.503929 5.265021 1.880790849211783e-38 1768976227
-18.662842 76.174286 15.744657 1.880790849211783e-38 1768976227
-17.672817 72.133408 14.135191 1.880790849211783e-38 1768976227
-17.547503 71.621918 18.150061 1.880790849211783e-38 1768976227
-17.807796 72.684334 13.646559 1.880790849211783e-38 1768976227
-18.106564 73.903786 13.191141 1.880790849211783e-38 1768976227
-17.779976 72.570786 17.565756 1.880790849211783e-38 1768976227
-17.921682 73.149178 17.243902 1.880790849211783e-38 1768976227
-18.462664 75.357239 12.816179 1.880790849211783e-38 1768976227
-17.821823 72.741585 11.713031 1.880790849211783e-38 1768976227
-17.878374 72.972412 16.480415 1.880790849211783e-38 1768976227
-17.900255 73.061714 15.947027 1.880790849211783e-38 1768976227
-19.014956 78.636856 10.097655 1.880790849211783e-38 1768976227
-18.140106 75.018898 9.238655 1.880790849211783e-38 1768976227
-19.019188 78.654366 9.206660 1.880790849211783e-38 1768976227
-21.041315 87.016914 9.563308 1.880790849211783e-38 1768976227
-18.116760 74.922356 11.558753 1.880790849211783e-38 1768976227
-17.585320 72.724556 10.730260 1.880790849211783e-38 1768976227
-20.822378 86.111504 9.065386 1.880790849211783e-38 1768976227
-20.688173 85.556496 8.431178 1.880790849211783e-38 1768976227
-17.253208 71.351105 10.122462 1.880790849211783e-38 1768976227
-18.114927 74.914772 10.186891 1.880790849211783e-38 1768976227
-20.747488 85.801788 4.702055 1.880790849211783e-38 1768976227
-21.012665 86.898438 4.323545 1.880790849211783e-38 1768976227
-20.391741 84.330597 7.671900 1.880790849211783e-38 1768976227
-20.268055 83.819077 7.237556 1.880790849211783e-38 1768976227
-21.246353 87.864861 3.761837 1.880790849211783e-38 1768976227
-21.573133 89.216278 3.388152 1.880790849211783e-38 1768976227
-20.659294 85.437073 6.820259 1.880790849211783e-38 1768976227
-20.449875 84.571007 6.199761 1.880790849211783e-38 1768976227
-21.782095 90.080444 2.795801 1.880790849211783e-38 1768976227
-20.542673 84.954773 5.781230 1.880790849211783e-38 1768976227
-20.631910 85.323822 5.250075 1.880790849211783e-38 1768976227
-18.165981 75.125900 15.516567 1.880790849211783e-38 1768976227
-17.180498 71.050407 13.912750 1.880790849211783e-38 1768976227
-17.339781 71.709129 18.158825 1.880790849211783e-38 1768976227
-17.700500 73.200897 13.733458 1.880790849211783e-38 1768976227
-18.011610 74.487503 13.285573 1.880790849211783e-38 1768976227
-17.446316 72.149719 17.451019 1.880790849211783e-38 1768976227
-17.671200 73.079727 17.214890 1.880790849211783e-38 1768976227
-18.242949 75.444199 12.821552 1.880790849211783e-38 1768976227
-17.499695 72.370461 11.644719 1.880790849211783e-38 1768976227
-17.661654 73.040245 16.483631 1.880790849211783e-38 1768976227
-17.712557 73.250748 15.976555 1.880790849211783e-38 1768976227
-18.999184 79.622047 10.216758 1.880790849211783e-38 1768976227
-18.089924 75.811508 9.329504 1.880790849211783e-38 1768976227
-18.871840 79.088371 9.250757 1.880790849211783e-38 1768976227
-20.708908 86.787186 9.531152 1.880790849211783e-38 1768976227
-18.008568 75.470558 11.634895 1.880790849211783e-38 1768976227
-17.160877 71.918037 10.603577 1.880790849211783e-38 1768976227
-21.101551 88.432678 9.303005 1.880790849211783e-38 1768976227
-20.401545 85.499084 8.419417 1.880790849211783e-38 1768976227
-17.001196 71.248848 10.100635 1.880790849211783e-38 1768976227
-19.214296 80.523537 10.941639 1.880790849211783e-38 1768976227
-20.654064 86.557350 4.740026 1.880790849211783e-38 1768976227
-20.882320 87.513916 4.351014 1.880790849211783e-38 1768976227
-18.555153 77.761192 7.069131 1.880790849211783e-38 1768976227
-20.274059 84.964806 7.331173 1.880790849211783e-38 1768976227
-21.161415 88.683548 3.794138 1.880790849211783e-38 1768976227
-21.627689 90.637627 3.439637 1.880790849211783e-38 1768976227
-20.292477 85.041992 6.783804 1.880790849211783e-38 1768976227
-20.411968 85.542755 6.266457 1.880790849211783e-38 1768976227
-20.518950 85.991104 5.847516 1.880790849211783e-38 1768976227
-20.505152 85.933273 5.283746 1.880790849211783e-38 1768976227
-17.846449 74.791145 15.436239 1.880790849211783e-38 1768976227
-16.916172 70.892532 13.871781 1.880790849211783e-38 1768976227
-17.023224 71.341171 18.052563 1.880790849211783e-38 1768976227
-17.533798 73.480888 13.776005 1.880790849211783e-38 1768976227
-17.675783 74.075912 13.202594 1.880790849211783e-38 1768976227
-17.306429 72.528023 17.529818 1.880790849211783e-38 1768976227
-17.452415 73.139824 17.216568 1.880790849211783e-38 1768976227
-18.110636 75.898300 12.889384 1.880790849211783e-38 1768976227
-17.398928 72.915665 11.723949 1.880790849211783e-38 1768976227
-17.541157 73.511726 16.578018 1.880790849211783e-38 1768976227
-17.411087 72.966629 15.903058 1.880790849211783e-38 1768976227
-17.003696 72.223488 9.260784 1.880790849211783e-38 1768976227
-17.508993 74.369736 9.145537 1.880790849211783e-38 1768976227
-18.819698 79.936981 9.343335 1.880790849211783e-38 1768976227
-20.171509 85.678825 9.402704 1.880790849211783e-38 1768976227
-17.533901 74.475533 11.473293 1.880790849211783e-38 1768976227
-17.074787 72.525444 10.685490 1.880790849211783e-38 1768976227
-19.930517 84.655197 8.899255 1.880790849211783e-38 1768976227
-20.186640 85.743088 8.437412 1.880790849211783e-38 1768976227
-17.848936 75.813652 10.740088 1.880790849211783e-38 1768976227
-18.993523 80.675301 10.954428 1.880790849211783e-38 1768976227
-20.273540 86.112190 4.712278 1.880790849211783e-38 1768976227
-20.667915 87.787308 4.361488 1.880790849211783e-38 1768976227
-19.864115 84.373154 7.664732 1.880790849211783e-38 1768976227
-19.958252 84.773003 7.309397 1.880790849211783e-38 1768976227
-20.913467 88.830299 3.797701 1.880790849211783e-38 1768976227
-21.422565 90.992699 3.450645 1.880790849211783e-38 1768976227
-19.923878 84.626999 6.745876 1.880790849211783e-38 1768976227
-19.931795 84.660629 6.197404 1.880790849211783e-38 1768976227
-19.773083 83.986496 5.707118 1.880790849211783e-38 1768976227
-20.302439 86.234940 5.298505 1.880790849211783e-38 1768976227
-17.569775 74.627907 15.391541 1.880790849211783e-38 1768976227
-16.696514 70.918716 13.866989 1.880790849211783e-38 1768976227
-16.828888 71.480980 18.075016 1.880790849211783e-38 1768976227
-17.374613 73.798950 13.825747 1.880790849211783e-38 1768976227
-17.462395 74.171806 13.210237 1.880790849211783e-38 1768976227
-17.205978 73.082680 17.651253 1.880790849211783e-38 1768976227
-17.170250 72.930916 17.155127 1.880790849211783e-38 1768976227
-17.250683 73.272560 12.434577 1.880790849211783e-38 1768976227
-17.458967 74.157249 11.915059 1.880790849211783e-38 1768976227
-17.323914 73.583611 16.582371 1.880790849211783e-38 1768976227
-17.295406 73.462517 15.999697 1.880790849211783e-38 1768976227
-16.654533 71.709114 9.188348 1.880790849211783e-38 1768976227
-17.249683 74.271637 9.127035 1.880790849211783e-38 1768976227
-18.203815 78.379837 9.154872 1.880790849211783e-38 1768976227
-19.931240 85.817574 9.411293 1.880790849211783e-38 1768976227
-16.913277 72.823174 11.210832 1.880790849211783e-38 1768976227
-16.791759 72.299965 10.644761 1.880790849211783e-38 1768976227
-19.954599 85.918144 9.025654 1.880790849211783e-38 1768976227
-17.676460 76.109207 7.484127 1.880790849211783e-38 1768976227
-17.396391 74.903313 10.603644 1.880790849211783e-38 1768976227
-18.763348 80.788994 10.962132 1.880790849211783e-38 1768976227
-20.500572 88.268929 4.826895 1.880790849211783e-38 1768976227
-20.422546 87.932968 4.365645 1.880790849211783e-38 1768976227
-19.645111 84.585579 7.678613 1.880790849211783e-38 1768976227
-19.648052 84.598251 7.289187 1.880790849211783e-38 1768976227
-20.486004 88.206207 3.768361 1.880790849211783e-38 1768976227
-19.971159 85.989449 6.849649 1.880790849211783e-38 1768976227
-19.452738 83.757286 6.126955 1.880790849211783e-38 1768976227
-20.005163 86.135857 5.849048 1.880790849211783e-38 1768976227
-19.962946 85.954079 5.277526 1.880790849211783e-38 1768976227
-17.369459 74.787346 15.413553 1.880790849211783e-38 1768976227
-16.277081 70.083923 13.694098 1.880790849211783e-38 1768976227
-16.557817 71.292686 18.014696 1.880790849211783e-38 1768976227
-17.003620 73.212166 13.706148 1.880790849211783e-38 1768976227
-17.173615 73.944107 13.160400 1.880790849211783e-38 1768976227
-16.945555 72.962158 17.609722 1.880790849211783e-38 1768976227
-16.928518 72.888809 17.133135 1.880790849211783e-38 1768976227
-16.969841 73.066727 12.390906 1.880790849211783e-38 1768976227
-17.297493 74.477493 11.958078 1.880790849211783e-38 1768976227
-16.916157 72.835579 16.402229 1.880790849211783e-38 1768976227
-17.031036 73.330215 15.959623 1.880790849211783e-38 1768976227
-16.760227 73.164864 9.368360 1.880790849211783e-38 1768976227
-17.088449 74.597679 9.160727 1.880790849211783e-38 1768976227
-17.898592 78.134254 9.119842 1.880790849211783e-38 1768976227
-19.465424 84.974091 9.312310 1.880790849211783e-38 1768976227
-16.660095 72.727745 11.188354 1.880790849211783e-38 1768976227
-16.615742 72.534126 10.671810 1.880790849211783e-38 1768976227
-19.726126 86.112160 9.039743 1.880790849211783e-38 1768976227
-17.820564 77.793640 7.644444 1.880790849211783e-38 1768976227
-17.125528 74.759544 10.575932 1.880790849211783e-38 1768976227
-17.921961 78.236275 10.608375 1.880790849211783e-38 1768976227
-20.176390 88.077728 4.813090 1.880790849211783e-38 1768976227
-20.102516 87.755249 4.353791 1.880790849211783e-38 1768976227
-19.464954 84.972038 7.708331 1.880790849211783e-38 1768976227
-19.383579 84.616814 7.285716 1.880790849211783e-38 1768976227
-20.344652 88.812263 3.791615 1.880790849211783e-38 1768976227
-19.331011 84.387329 6.717354 1.880790849211783e-38 1768976227
-19.631079 85.697235 6.264505 1.880790849211783e-38 1768976227
-19.468689 84.988342 5.767112 1.880790849211783e-38 1768976227
-19.910454 86.916817 5.332926 1.880790849211783e-38 1768976227
-16.971466 74.087006 15.258594 1.880790849211783e-38 1768976227
-16.308508 71.192932 13.901120 1.880790849211783e-38 1768976227
-16.293026 71.125351 17.959915 1.880790849211783e-38 1768976227
-16.805712 73.363419 13.724914 1.880790849211783e-38 1768976227
-17.012798 74.267426 13.208752 1.880790849211783e-38 1768976227
-16.661270 72.732880 17.542177 1.880790849211783e-38 1768976227
-16.726482 73.017555 17.151461 1.880790849211783e-38 1768976227
-16.585590 72.402504 12.269727 1.880790849211783e-38 1768976227
-17.300924 75.525223 12.117867 1.880790849211783e-38 1768976227
-16.885538 73.711891 16.588026 1.880790849211783e-38 1768976227
-16.965752 74.062057 16.107691 1.880790849211783e-38 1768976227
-16.170380 71.581161 9.159288 1.880790849211783e-38 1768976227
-16.762138 74.200684 9.105725 1.880790849211783e-38 1768976227
-17.562504 77.743660 9.068027 1.880790849211783e-38 1768976227
-19.200754 84.995659 9.308287 1.880790849211783e-38 1768976227
-16.354555 72.396439 11.129747 1.880790849211783e-38 1768976227
-16.996611 75.238632 11.062126 1.880790849211783e-38 1768976227
-19.421688 85.973671 9.019015 1.880790849211783e-38 1768976227
-17.677435 78.252411 7.684251 1.880790849211783e-38 1768976227
-15.723377 69.602425 9.839621 1.880790849211783e-38 1768976227
-15.804460 69.961349 9.479838 1.880790849211783e-38 1768976227
-19.631109 86.900719 4.745515 1.880790849211783e-38 1768976227
-19.969852 88.400223 4.382783 1.880790849211783e-38 1768976227
-19.283426 85.361641 7.738362 1.880790849211783e-38 1768976227
-19.235022 85.147362 7.326370 1.880790849211783e-38 1768976227
-19.289362 85.387909 6.792340 1.880790849211783e-38 1768976227
-19.395987 85.859901 6.272091 1.880790849211783e-38 1768976227
-19.327812 85.558121 5.801794 1.880790849211783e-38 1768976227
-19.373188 85.758972 5.258275 1.880790849211783e-38 1768976227
-16.575396 73.374031 15.101390 1.880790849211783e-38 1768976227
-16.270475 72.024246 14.053798 1.880790849211783e-38 1768976227
-16.101948 71.278236 17.986174 1.880790849211783e-38 1768976227
-16.691334 73.887253 13.813432 1.880790849211783e-38 1768976227
-16.800436 74.370216 13.217961 1.880790849211783e-38 1768976227
-16.116098 71.340874 17.194643 1.880790849211783e-38 1768976227
-16.463856 72.880280 17.107475 1.880790849211783e-38 1768976227
-16.551136 73.266647 12.407653 1.880790849211783e-38 1768976227
-17.206566 76.168022 12.212623 1.880790849211783e-38 1768976227
-16.627565 73.604973 16.552605 1.880790849211783e-38 1768976227
-16.759386 74.188499 16.124125 1.880790849211783e-38 1768976227
-15.874606 71.271271 9.113468 1.880790849211783e-38 1768976227
-16.662542 74.808830 9.174147 1.880790849211783e-38 1768976227
-16.491451 74.040688 8.630273 1.880790849211783e-38 1768976227
-19.022848 85.405754 9.346871 1.880790849211783e-38 1768976227
-16.451025 73.859184 11.346941 1.880790849211783e-38 1768976227
-16.686222 74.915146 11.007115 1.880790849211783e-38 1768976227
-19.244968 86.402992 9.057922 1.880790849211783e-38 1768976227
-17.455999 78.371162 7.690707 1.880790849211783e-38 1768976227
-15.649836 70.262138 9.926167 1.880790849211783e-38 1768976227
-15.739822 70.666145 9.568863 1.880790849211783e-38 1768976227
-19.564341 87.836861 4.793392 1.880790849211783e-38 1768976227
-19.646885 88.207451 4.370267 1.880790849211783e-38 1768976227
-18.446125 82.816475 7.502555 1.880790849211783e-38 1768976227
-18.833744 84.556740 7.270630 1.880790849211783e-38 1768976227
-18.900702 84.857353 6.745571 1.880790849211783e-38 1768976227
-18.916317 84.927460 6.199780 1.880790849211783e-38 1768976227
-19.389477 87.051781 5.899088 1.880790849211783e-38 1768976227
-19.483730 87.474945 5.359862 1.880790849211783e-38 1768976227
-16.304747 73.202454 15.055886 1.880790849211783e-38 1768976227
