# .PCD v0.7 - Point Cloud Data file format
VERSION 0.7
FIELDS x y z rgb label
SIZE 4 4 4 4 4
TYPE F F F F U
COUNT 1 1 1 1 1
WIDTH 769
HEIGHT 1
VIEWPOINT 0 0 0 1 0 0 0
POINTS 769
DATA ascii
16.999998 -2.767042 1.336418 1.880790849211783e-38 1768976227
16.999998 -2.767042 1.227273 1.880790849211783e-38 1768976227
16.999998 -2.767042 0.519594 1.880790849211783e-38 1768976227
17.000000 -2.767042 0.435095 1.880790849211783e-38 1768976227
17.000002 -2.767042 1.139254 1.880790849211783e-38 1768976227
17.000002 -2.767042 1.030109 1.880790849211783e-38 1768976227
17.000000 -2.767042 -0.307792 1.880790849211783e-38 1768976227
17.000002 -2.767042 -0.402854 1.880790849211783e-38 1768976227
17.000000 -2.767042 0.297784 1.880790849211783e-38 1768976227
17.000000 -2.767042 0.209764 1.880790849211783e-38 1768976227
17.000000 -2.767042 -0.508478 1.880790849211783e-38 1768976227
17.000000 -2.767042 -0.592977 1.880790849211783e-38 1768976227
16.999998 -2.767042 0.104140 1.880790849211783e-38 1768976227
17.000000 -2.767042 0.012600 1.880790849211783e-38 1768976227
17.000002 -2.767042 3.457750 1.880790849211783e-38 1768976227
16.999998 -2.767042 3.278189 1.880790849211783e-38 1768976227
17.000000 -2.767042 4.943525 1.880790849211783e-38 1768976227
17.000000 -2.767042 4.774526 1.880790849211783e-38 1768976227
17.000000 -2.767042 4.619611 1.880790849211783e-38 1768976227
17.000002 -2.767042 4.443572 1.880790849211783e-38 1768976227
16.999998 -2.767042 4.239366 1.880790849211783e-38 1768976227
17.000000 -2.767042 3.140878 1.880790849211783e-38 1768976227
17.000000 -2.767042 2.985964 1.880790849211783e-38 1768976227
17.000002 -2.767042 4.049243 1.880790849211783e-38 1768976227
16.999998 -2.767042 3.943619 1.880790849211783e-38 1768976227
17.000002 -2.767042 2.845132 1.880790849211783e-38 1768976227
16.999998 -2.767042 2.693738 1.880790849211783e-38 1768976227
17.000000 -2.767042 3.778142 1.880790849211783e-38 1768976227
17.000000 -2.767042 3.651394 1.880790849211783e-38 1768976227
16.999998 -2.819698 2.150787 1.880790849211783e-38 1768976227
16.999998 -2.819698 2.062723 1.880790849211783e-38 1768976227
17.000004 -2.819699 -0.100115 1.880790849211783e-38 1768976227
17.000000 -2.819698 -0.198746 1.880790849211783e-38 1768976227
16.999998 -2.819698 1.960569 1.880790849211783e-38 1768976227
17.000000 -2.819699 1.840803 1.880790849211783e-38 1768976227
17.000000 -2.819698 2.584059 1.880790849211783e-38 1768976227
16.999998 -2.819698 2.471338 1.880790849211783e-38 1768976227
17.000000 -2.819698 1.763308 1.880790849211783e-38 1768976227
17.000000 -2.819698 1.650586 1.880790849211783e-38 1768976227
17.000000 -2.819698 2.376230 1.880790849211783e-38 1768976227
17.000000 -2.819698 2.277598 1.880790849211783e-38 1768976227
17.000000 -2.819699 0.917898 1.880790849211783e-38 1768976227
16.999998 -2.819698 0.833357 1.880790849211783e-38 1768976227
17.000000 -2.819699 1.523775 1.880790849211783e-38 1768976227
17.000002 -2.819699 1.446279 1.880790849211783e-38 1768976227
17.000000 -2.819698 0.717114 1.880790849211783e-38 1768976227
16.999998 -2.819698 0.636095 1.880790849211783e-38 1768976227
17.000000 -2.819699 1.337080 1.880790849211783e-38 1768976227
17.000000 -2.819698 1.227882 1.880790849211783e-38 1768976227
16.999998 -2.819698 0.519851 1.880790849211783e-38 1768976227
17.000002 -2.819699 0.435311 1.880790849211783e-38 1768976227
17.000000 -2.819698 1.139818 1.880790849211783e-38 1768976227
16.999998 -2.819698 1.030619 1.880790849211783e-38 1768976227
17.000002 -2.819699 -0.307945 1.880790849211783e-38 1768976227
17.000000 -2.819699 -0.403054 1.880790849211783e-38 1768976227
16.999998 -2.819698 0.297932 1.880790849211783e-38 1768976227
16.999998 -2.819698 0.209868 1.880790849211783e-38 1768976227
16.999998 -2.819698 -0.508730 1.880790849211783e-38 1768976227
16.999996 -2.819698 -0.593271 1.880790849211783e-38 1768976227
17.000000 -2.819698 0.104192 1.880790849211783e-38 1768976227
17.000000 -2.819698 0.012606 1.880790849211783e-38 1768976227
17.000002 -2.819699 3.459465 1.880790849211783e-38 1768976227
16.999998 -2.819698 3.279814 1.880790849211783e-38 1768976227
17.000002 -2.819699 4.945976 1.880790849211783e-38 1768976227
17.000000 -2.819698 4.776893 1.880790849211783e-38 1768976227
16.999996 -2.819698 4.621901 1.880790849211783e-38 1768976227
17.000002 -2.819699 4.445775 1.880790849211783e-38 1768976227
16.999998 -2.819698 4.241467 1.880790849211783e-38 1768976227
17.000000 -2.819698 3.142436 1.880790849211783e-38 1768976227
16.999998 -2.819698 2.987443 1.880790849211783e-38 1768976227
17.000000 -2.819698 4.051250 1.880790849211783e-38 1768976227
17.000000 -2.819698 3.945574 1.880790849211783e-38 1768976227
17.000000 -2.819698 2.846542 1.880790849211783e-38 1768976227
17.000000 -2.819698 2.695073 1.880790849211783e-38 1768976227
16.999998 -2.819698 3.780015 1.880790849211783e-38 1768976227
16.999998 -2.819698 3.653203 1.880790849211783e-38 1768976227
16.999998 -2.872405 2.151873 1.880790849211783e-38 1768976227
17.000000 -2.872405 2.063765 1.880790849211783e-38 1768976227
17.000000 -2.872406 -0.100166 1.880790849211783e-38 1768976227
17.000000 -2.872405 -0.198847 1.880790849211783e-38 1768976227
16.999998 -2.872405 1.961560 1.880790849211783e-38 1768976227
17.000000 -2.872405 1.841733 1.880790849211783e-38 1768976227
16.999998 -2.872405 2.585364 1.880790849211783e-38 1768976227
16.999998 -2.872405 2.472585 1.880790849211783e-38 1768976227
17.000002 -2.872405 1.764198 1.880790849211783e-38 1768976227
17.000002 -2.872406 1.651420 1.880790849211783e-38 1768976227
16.999998 -2.872405 2.377429 1.880790849211783e-38 1768976227
17.000000 -2.872405 2.278749 1.880790849211783e-38 1768976227
17.000000 -2.872405 0.918362 1.880790849211783e-38 1768976227
16.999998 -2.872405 0.833778 1.880790849211783e-38 1768976227
17.000000 -2.872405 1.524544 1.880790849211783e-38 1768976227
16.999998 -2.872405 1.447009 1.880790849211783e-38 1768976227
17.000002 -2.872406 0.717476 1.880790849211783e-38 1768976227
16.999998 -2.872405 0.636416 1.880790849211783e-38 1768976227
17.000002 -2.872406 1.337756 1.880790849211783e-38 1768976227
17.000000 -2.872405 1.228502 1.880790849211783e-38 1768976227
16.999996 -2.872405 0.520114 1.880790849211783e-38 1768976227
17.000000 -2.872405 0.435530 1.880790849211783e-38 1768976227
16.999998 -2.872405 1.140394 1.880790849211783e-38 1768976227
16.999998 -2.872405 1.031140 1.880790849211783e-38 1768976227
17.000000 -2.872405 -0.308100 1.880790849211783e-38 1768976227
16.999996 -2.872405 -0.403257 1.880790849211783e-38 1768976227
16.999998 -2.872405 0.298082 1.880790849211783e-38 1768976227
17.000000 -2.872405 0.209974 1.880790849211783e-38 1768976227
16.999998 -2.872405 -0.508987 1.880790849211783e-38 1768976227
17.000000 -2.872405 -0.593570 1.880790849211783e-38 1768976227
17.000000 -2.872405 0.104245 1.880790849211783e-38 1768976227
16.999998 -2.872405 0.012612 1.880790849211783e-38 1768976227
16.999998 -2.872405 3.461211 1.880790849211783e-38 1768976227
17.000000 -2.872405 3.281471 1.880790849211783e-38 1768976227
16.999998 -2.872405 4.948473 1.880790849211783e-38 1768976227
16.999998 -2.872405 4.779305 1.880790849211783e-38 1768976227
16.999998 -2.872405 4.624235 1.880790849211783e-38 1768976227
17.000000 -2.872405 4.448020 1.880790849211783e-38 1768976227
17.000000 -2.872405 4.243609 1.880790849211783e-38 1768976227
17.000002 -2.872405 3.144023 1.880790849211783e-38 1768976227
16.999998 -2.872405 2.988952 1.880790849211783e-38 1768976227
17.000000 -2.872405 4.053296 1.880790849211783e-38 1768976227
16.999998 -2.872405 3.947567 1.880790849211783e-38 1768976227
17.000000 -2.872405 2.847980 1.880790849211783e-38 1768976227
16.999998 -2.872405 2.696434 1.880790849211783e-38 1768976227
17.000000 -2.872405 3.781924 1.880790849211783e-38 1768976227
17.000002 -2.872406 3.655049 1.880790849211783e-38 1768976227
16.999998 -2.925166 2.152980 1.880790849211783e-38 1768976227
16.999998 -2.925166 2.064827 1.880790849211783e-38 1768976227
16.999998 -2.925166 -0.100217 1.880790849211783e-38 1768976227
16.999998 -2.925166 -0.198949 1.880790849211783e-38 1768976227
17.000000 -2.925166 1.962569 1.880790849211783e-38 1768976227
16.999998 -2.925166 1.842680 1.880790849211783e-38 1768976227
17.000002 -2.925166 2.586694 1.880790849211783e-38 1768976227
16.999998 -2.925166 2.473858 1.880790849211783e-38 1768976227
16.999998 -2.925165 1.765105 1.880790849211783e-38 1768976227
17.000000 -2.925166 1.652269 1.880790849211783e-38 1768976227
16.999998 -2.925166 2.378652 1.880790849211783e-38 1768976227
17.000000 -2.925166 2.279921 1.880790849211783e-38 1768976227
17.000000 -2.925166 0.918834 1.880790849211783e-38 1768976227
16.999998 -2.925166 0.834207 1.880790849211783e-38 1768976227
17.000000 -2.925166 1.525329 1.880790849211783e-38 1768976227
17.000000 -2.925166 1.447754 1.880790849211783e-38 1768976227
16.999998 -2.925166 0.717845 1.880790849211783e-38 1768976227
16.999998 -2.925166 0.636744 1.880790849211783e-38 1768976227
17.000000 -2.925166 1.338444 1.880790849211783e-38 1768976227
17.000002 -2.925166 1.229134 1.880790849211783e-38 1768976227
16.999996 -2.925166 0.520381 1.880790849211783e-38 1768976227
17.000000 -2.925166 0.435754 1.880790849211783e-38 1768976227
16.999998 -2.925165 1.140980 1.880790849211783e-38 1768976227
16.999998 -2.925166 1.031670 1.880790849211783e-38 1768976227
16.999998 -2.925166 -0.308259 1.880790849211783e-38 1768976227
16.999998 -2.925166 -0.403465 1.880790849211783e-38 1768976227
17.000000 -2.925166 0.298235 1.880790849211783e-38 1768976227
17.000000 -2.925166 0.210082 1.880790849211783e-38 1768976227
17.000000 -2.925166 -0.509248 1.880790849211783e-38 1768976227
17.000000 -2.925166 -0.593876 1.880790849211783e-38 1768976227
16.999998 -2.925166 0.104298 1.880790849211783e-38 1768976227
17.000000 -2.925166 0.012619 1.880790849211783e-38 1768976227
17.000002 -2.925166 3.462992 1.880790849211783e-38 1768976227
17.000000 -2.925166 3.283159 1.880790849211783e-38 1768976227
17.000000 -2.925166 4.951019 1.880790849211783e-38 1768976227
16.999998 -2.925165 4.781763 1.880790849211783e-38 1768976227
16.999998 -2.925165 4.626614 1.880790849211783e-38 1768976227
17.000002 -2.925166 4.450307 1.880790849211783e-38 1768976227
17.000000 -2.925166 4.245792 1.880790849211783e-38 1768976227
17.000000 -2.925166 3.145640 1.880790849211783e-38 1768976227
16.999998 -2.925166 2.990490 1.880790849211783e-38 1768976227
17.000000 -2.925165 4.055381 1.880790849211783e-38 1768976227
17.000000 -2.925165 3.949597 1.880790849211783e-38 1768976227
16.999998 -2.925165 2.849445 1.880790849211783e-38 1768976227
17.000000 -2.925166 2.697821 1.880790849211783e-38 1768976227
17.000002 -2.925166 3.783870 1.880790849211783e-38 1768976227
17.000000 -2.925165 3.656929 1.880790849211783e-38 1768976227
17.000000 -2.977983 2.154107 1.880790849211783e-38 1768976227
17.000000 -2.977984 2.065908 1.880790849211783e-38 1768976227
17.000002 -2.977984 -0.100270 1.880790849211783e-38 1768976227
16.999998 -2.977983 -0.199053 1.880790849211783e-38 1768976227
17.000000 -2.977983 1.963597 1.880790849211783e-38 1768976227
17.000000 -2.977983 1.843645 1.880790849211783e-38 1768976227
17.000000 -2.977983 2.588049 1.880790849211783e-38 1768976227
17.000000 -2.977984 2.475153 1.880790849211783e-38 1768976227
17.000002 -2.977984 1.766030 1.880790849211783e-38 1768976227
16.999998 -2.977983 1.653135 1.880790849211783e-38 1768976227
17.000000 -2.977984 2.379899 1.880790849211783e-38 1768976227
17.000000 -2.977984 2.281115 1.880790849211783e-38 1768976227
17.000000 -2.977983 0.919315 1.880790849211783e-38 1768976227
17.000000 -2.977983 0.834644 1.880790849211783e-38 1768976227
17.000000 -2.977983 1.526127 1.880790849211783e-38 1768976227
17.000000 -2.977984 1.448512 1.880790849211783e-38 1768976227
17.000000 -2.977984 0.718221 1.880790849211783e-38 1768976227
17.000000 -2.977984 0.637077 1.880790849211783e-38 1768976227
17.000000 -2.977983 1.339145 1.880790849211783e-38 1768976227
17.000000 -2.977983 1.229777 1.880790849211783e-38 1768976227
16.999998 -2.977983 0.520654 1.880790849211783e-38 1768976227
17.000000 -2.977983 0.435983 1.880790849211783e-38 1768976227
17.000000 -2.977983 1.141578 1.880790849211783e-38 1768976227
16.999998 -2.977983 1.032210 1.880790849211783e-38 1768976227
16.999998 -2.977983 -0.308420 1.880790849211783e-38 1768976227
17.000000 -2.977983 -0.403676 1.880790849211783e-38 1768976227
16.999998 -2.977983 0.298392 1.880790849211783e-38 1768976227
17.000000 -2.977983 0.210192 1.880790849211783e-38 1768976227
17.000000 -2.977983 -0.509515 1.880790849211783e-38 1768976227
17.000004 -2.977984 -0.594187 1.880790849211783e-38 1768976227
16.999998 -2.977983 0.104353 1.880790849211783e-38 1768976227
17.000000 -2.977983 0.012625 1.880790849211783e-38 1768976227
16.999998 -2.977983 3.464805 1.880790849211783e-38 1768976227
17.000002 -2.977983 3.284878 1.880790849211783e-38 1768976227
17.000000 -2.977983 4.953612 1.880790849211783e-38 1768976227
17.000000 -2.977983 4.784269 1.880790849211783e-38 1768976227
16.999998 -2.977983 4.629037 1.880790849211783e-38 1768976227
17.000000 -2.977983 4.452639 1.880790849211783e-38 1768976227
16.999998 -2.977983 4.248016 1.880790849211783e-38 1768976227
16.999998 -2.977983 3.147287 1.880790849211783e-38 1768976227
17.000000 -2.977983 2.992056 1.880790849211783e-38 1768976227
17.000000 -2.977983 4.057505 1.880790849211783e-38 1768976227
17.000000 -2.977983 3.951666 1.880790849211783e-38 1768976227
17.000000 -2.977983 2.850937 1.880790849211783e-38 1768976227
16.999998 -2.977983 2.699234 1.880790849211783e-38 1768976227
16.999998 -2.977983 3.785851 1.880790849211783e-38 1768976227
17.000000 -2.977983 3.658844 1.880790849211783e-38 1768976227
17.000000 -3.030854 2.155256 1.880790849211783e-38 1768976227
17.000000 -3.030855 2.067010 1.880790849211783e-38 1768976227
17.000000 -3.030855 -0.100323 1.880790849211783e-38 1768976227
16.999996 -3.030854 -0.199159 1.880790849211783e-38 1768976227
17.000000 -3.030854 1.964643 1.880790849211783e-38 1768976227
17.000000 -3.030854 1.844628 1.880790849211783e-38 1768976227
17.000000 -3.030854 2.589429 1.880790849211783e-38 1768976227
17.000000 -3.030854 2.476473 1.880790849211783e-38 1768976227
16.999998 -3.030855 1.766972 1.880790849211783e-38 1768976227
16.999998 -3.030854 1.654016 1.880790849211783e-38 1768976227
16.999998 -3.030854 2.381167 1.880790849211783e-38 1768976227
17.000000 -3.030855 2.282331 1.880790849211783e-38 1768976227
17.000000 -3.030855 0.919806 1.880790849211783e-38 1768976227
17.000000 -3.030855 0.835089 1.880790849211783e-38 1768976227
17.000000 -3.030854 1.526941 1.880790849211783e-38 1768976227
17.000000 -3.030855 1.449284 1.880790849211783e-38 1768976227
17.000000 -3.030855 0.718604 1.880790849211783e-38 1768976227
17.000000 -3.030855 0.637417 1.880790849211783e-38 1768976227
16.999996 -3.030854 1.339859 1.880790849211783e-38 1768976227
16.999998 -3.030854 1.230433 1.880790849211783e-38 1768976227
17.000000 -3.030854 0.520932 1.880790849211783e-38 1768976227
17.000000 -3.030855 0.436215 1.880790849211783e-38 1768976227
17.000000 -3.030855 1.142187 1.880790849211783e-38 1768976227
17.000000 -3.030855 1.032761 1.880790849211783e-38 1768976227
17.000000 -3.030855 -0.308585 1.880790849211783e-38 1768976227
16.999996 -3.030854 -0.403891 1.880790849211783e-38 1768976227
16.999998 -3.030854 0.298551 1.880790849211783e-38 1768976227
17.000000 -3.030855 0.210304 1.880790849211783e-38 1768976227
16.999996 -3.030854 -0.509787 1.880790849211783e-38 1768976227
16.999998 -3.030854 -0.594503 1.880790849211783e-38 1768976227
17.000000 -3.030854 0.104409 1.880790849211783e-38 1768976227
16.999998 -3.030854 0.012632 1.880790849211783e-38 1768976227
17.000000 -3.030854 3.466653 1.880790849211783e-38 1768976227
17.000002 -3.030855 3.286630 1.880790849211783e-38 1768976227
16.999998 -3.030854 4.956253 1.880790849211783e-38 1768976227
17.000000 -3.030854 4.786819 1.880790849211783e-38 1768976227
17.000000 -3.030855 4.631505 1.880790849211783e-38 1768976227
16.999998 -3.030854 4.455012 1.880790849211783e-38 1768976227
17.000000 -3.030854 4.250281 1.880790849211783e-38 1768976227
16.999998 -3.030854 3.148965 1.880790849211783e-38 1768976227
17.000002 -3.030855 2.993652 1.880790849211783e-38 1768976227
17.000000 -3.030854 4.059668 1.880790849211783e-38 1768976227
16.999998 -3.030854 3.953772 1.880790849211783e-38 1768976227
17.000000 -3.030854 2.852457 1.880790849211783e-38 1768976227
17.000000 -3.030854 2.700674 1.880790849211783e-38 1768976227
17.000002 -3.030855 3.787870 1.880790849211783e-38 1768976227
16.999998 -3.030854 3.660795 1.880790849211783e-38 1768976227
17.000002 -3.083785 2.156426 1.880790849211783e-38 1768976227
16.999998 -3.083785 2.068131 1.880790849211783e-38 1768976227
17.000000 -3.083785 -0.100378 1.880790849211783e-38 1768976227
16.999998 -3.083785 -0.199267 1.880790849211783e-38 1768976227
17.000000 -3.083785 1.965709 1.880790849211783e-38 1768976227
17.000000 -3.083785 1.845629 1.880790849211783e-38 1768976227
16.999998 -3.083785 2.590833 1.880790849211783e-38 1768976227
17.000000 -3.083785 2.477817 1.880790849211783e-38 1768976227
16.999998 -3.083784 1.767930 1.880790849211783e-38 1768976227
17.000000 -3.083785 1.654914 1.880790849211783e-38 1768976227
17.000000 -3.083785 2.382459 1.880790849211783e-38 1768976227
17.000000 -3.083785 2.283569 1.880790849211783e-38 1768976227
16.999998 -3.083785 0.920305 1.880790849211783e-38 1768976227
17.000000 -3.083785 0.835542 1.880790849211783e-38 1768976227
16.999998 -3.083785 1.527769 1.880790849211783e-38 1768976227
16.999998 -3.083785 1.450071 1.880790849211783e-38 1768976227
17.000000 -3.083785 0.718994 1.880790849211783e-38 1768976227
17.000000 -3.083785 0.637763 1.880790849211783e-38 1768976227
16.999998 -3.083785 1.340586 1.880790849211783e-38 1768976227
17.000000 -3.083785 1.231101 1.880790849211783e-38 1768976227
17.000000 -3.083785 0.521214 1.880790849211783e-38 1768976227
17.000000 -3.083785 0.436452 1.880790849211783e-38 1768976227
17.000000 -3.083785 1.142806 1.880790849211783e-38 1768976227
16.999998 -3.083785 1.033321 1.880790849211783e-38 1768976227
17.000000 -3.083785 -0.308752 1.880790849211783e-38 1768976227
16.999998 -3.083785 -0.404110 1.880790849211783e-38 1768976227
17.000000 -3.083785 0.298713 1.880790849211783e-38 1768976227
17.000000 -3.083785 0.210418 1.880790849211783e-38 1768976227
17.000000 -3.083785 -0.510063 1.880790849211783e-38 1768976227
17.000002 -3.083785 -0.594826 1.880790849211783e-38 1768976227
17.000000 -3.083785 0.104465 1.880790849211783e-38 1768976227
16.999998 -3.083784 0.012639 1.880790849211783e-38 1768976227
16.999998 -3.083785 3.468533 1.880790849211783e-38 1768976227
16.999998 -3.083784 3.288413 1.880790849211783e-38 1768976227
16.999998 -3.083784 4.958942 1.880790849211783e-38 1768976227
17.000000 -3.083785 4.789416 1.880790849211783e-38 1768976227
17.000000 -3.083785 4.634018 1.880790849211783e-38 1768976227
17.000002 -3.083785 4.457430 1.880790849211783e-38 1768976227
17.000000 -3.083785 4.252587 1.880790849211783e-38 1768976227
17.000002 -3.083785 3.150674 1.880790849211783e-38 1768976227
16.999998 -3.083785 2.995276 1.880790849211783e-38 1768976227
17.000000 -3.083785 4.061871 1.880790849211783e-38 1768976227
17.000000 -3.083785 3.955918 1.880790849211783e-38 1768976227
17.000000 -3.083785 2.854005 1.880790849211783e-38 1768976227
16.999998 -3.083785 2.702139 1.880790849211783e-38 1768976227
17.000000 -3.083784 3.789925 1.880790849211783e-38 1768976227
16.999998 -3.083785 3.662781 1.880790849211783e-38 1768976227
17.000002 -3.136771 2.157616 1.880790849211783e-38 1768976227
17.000000 -3.136771 2.069273 1.880790849211783e-38 1768976227
16.999998 -3.136770 -0.100433 1.880790849211783e-38 1768976227
17.000000 -3.136771 -0.199377 1.880790849211783e-38 1768976227
16.999998 -3.136771 1.966794 1.880790849211783e-38 1768976227
16.999998 -3.136771 1.846648 1.880790849211783e-38 1768976227
16.999998 -3.136771 2.592263 1.880790849211783e-38 1768976227
17.000000 -3.136771 2.479184 1.880790849211783e-38 1768976227
16.999996 -3.136770 1.768906 1.880790849211783e-38 1768976227
17.000000 -3.136771 1.655827 1.880790849211783e-38 1768976227
17.000000 -3.136771 2.383774 1.880790849211783e-38 1768976227
16.999998 -3.136770 2.284829 1.880790849211783e-38 1768976227
17.000000 -3.136771 0.920813 1.880790849211783e-38 1768976227
17.000000 -3.136771 0.836003 1.880790849211783e-38 1768976227
16.999998 -3.136771 1.528613 1.880790849211783e-38 1768976227
17.000000 -3.136771 1.450871 1.880790849211783e-38 1768976227
17.000000 -3.136771 0.719390 1.880790849211783e-38 1768976227
16.999998 -3.136771 0.638115 1.880790849211783e-38 1768976227
16.999998 -3.136771 1.341326 1.880790849211783e-38 1768976227
17.000002 -3.136771 1.231780 1.880790849211783e-38 1768976227
17.000000 -3.136771 0.521502 1.880790849211783e-38 1768976227
17.000000 -3.136771 0.436693 1.880790849211783e-38 1768976227
16.999996 -3.136771 1.143437 1.880790849211783e-38 1768976227
17.000000 -3.136771 1.033892 1.880790849211783e-38 1768976227
17.000000 -3.136771 -0.308923 1.880790849211783e-38 1768976227
17.000000 -3.136771 -0.404333 1.880790849211783e-38 1768976227
17.000000 -3.136771 0.298878 1.880790849211783e-38 1768976227
17.000000 -3.136771 0.210535 1.880790849211783e-38 1768976227
16.999998 -3.136771 -0.510345 1.880790849211783e-38 1768976227
16.999998 -3.136771 -0.595154 1.880790849211783e-38 1768976227
17.000000 -3.136771 0.104523 1.880790849211783e-38 1768976227
17.000000 -3.136771 0.012646 1.880790849211783e-38 1768976227
17.000000 -3.136771 3.470448 1.880790849211783e-38 1768976227
17.000000 -3.136771 3.290228 1.880790849211783e-38 1768976227
17.000002 -3.136771 4.961679 1.880790849211783e-38 1768976227
17.000000 -3.136771 4.792059 1.880790849211783e-38 1768976227
16.999998 -3.136771 4.636576 1.880790849211783e-38 1768976227
17.000000 -3.136771 4.459890 1.880790849211783e-38 1768976227
17.000000 -3.136771 4.254934 1.880790849211783e-38 1768976227
17.000000 -3.136771 3.152413 1.880790849211783e-38 1768976227
16.999998 -3.136770 2.996929 1.880790849211783e-38 1768976227
16.999998 -3.136770 4.064112 1.880790849211783e-38 1768976227
16.999998 -3.136770 3.958101 1.880790849211783e-38 1768976227
17.000000 -3.136771 2.855580 1.880790849211783e-38 1768976227
17.000000 -3.136771 2.703630 1.880790849211783e-38 1768976227
17.000000 -3.136771 3.792017 1.880790849211783e-38 1768976227
17.000000 -3.136771 3.664803 1.880790849211783e-38 1768976227
16.999998 -3.189818 2.158827 1.880790849211783e-38 1768976227
16.999998 -3.189818 2.070434 1.880790849211783e-38 1768976227
16.999998 -3.189818 -0.100489 1.880790849211783e-38 1768976227
17.000000 -3.189818 -0.199489 1.880790849211783e-38 1768976227
17.000000 -3.189818 1.967899 1.880790849211783e-38 1768976227
16.999998 -3.189818 1.847684 1.880790849211783e-38 1768976227
17.000002 -3.189819 2.593719 1.880790849211783e-38 1768976227
17.000000 -3.189818 2.480576 1.880790849211783e-38 1768976227
17.000000 -3.189818 1.769899 1.880790849211783e-38 1768976227
17.000000 -3.189818 1.656757 1.880790849211783e-38 1768976227
16.999998 -3.189818 2.385112 1.880790849211783e-38 1768976227
17.000002 -3.189818 2.286112 1.880790849211783e-38 1768976227
16.999996 -3.189818 0.921329 1.880790849211783e-38 1768976227
17.000000 -3.189819 0.836473 1.880790849211783e-38 1768976227
17.000000 -3.189818 1.529471 1.880790849211783e-38 1768976227
17.000000 -3.189818 1.451685 1.880790849211783e-38 1768976227
16.999998 -3.189818 0.719794 1.880790849211783e-38 1768976227
17.000000 -3.189818 0.638473 1.880790849211783e-38 1768976227
17.000000 -3.189818 1.342079 1.880790849211783e-38 1768976227
17.000000 -3.189818 1.232472 1.880790849211783e-38 1768976227
17.000000 -3.189818 0.521795 1.880790849211783e-38 1768976227
17.000000 -3.189818 0.436938 1.880790849211783e-38 1768976227
17.000000 -3.189818 1.144079 1.880790849211783e-38 1768976227
16.999998 -3.189818 1.034472 1.880790849211783e-38 1768976227
17.000000 -3.189818 -0.309096 1.880790849211783e-38 1768976227
16.999998 -3.189818 -0.404560 1.880790849211783e-38 1768976227
17.000000 -3.189818 0.299045 1.880790849211783e-38 1768976227
17.000002 -3.189819 0.210653 1.880790849211783e-38 1768976227
16.999998 -3.189818 -0.510631 1.880790849211783e-38 1768976227
17.000002 -3.189818 -0.595488 1.880790849211783e-38 1768976227
16.999998 -3.189818 0.104582 1.880790849211783e-38 1768976227
17.000000 -3.189818 0.012653 1.880790849211783e-38 1768976227
16.999998 -3.189818 3.472396 1.880790849211783e-38 1768976227
16.999998 -3.189818 3.292074 1.880790849211783e-38 1768976227
17.000000 -3.189818 4.964465 1.880790849211783e-38 1768976227
17.000000 -3.189818 4.794750 1.880790849211783e-38 1768976227
16.999998 -3.189818 4.639178 1.880790849211783e-38 1768976227
17.000000 -3.189818 4.462393 1.880790849211783e-38 1768976227
16.999998 -3.189818 4.257322 1.880790849211783e-38 1768976227
17.000000 -3.189818 3.154182 1.880790849211783e-38 1768976227
17.000000 -3.189818 2.998611 1.880790849211783e-38 1768976227
17.000000 -3.189818 4.066394 1.880790849211783e-38 1768976227
17.000000 -3.189818 3.960323 1.880790849211783e-38 1768976227
16.999998 -3.189818 2.857183 1.880790849211783e-38 1768976227
16.999998 -3.189818 2.705148 1.880790849211783e-38 1768976227
16.999998 -3.189818 3.794145 1.880790849211783e-38 1768976227
17.000002 -3.189818 3.666860 1.880790849211783e-38 1768976227
16.999998 -3.242923 2.160059 1.880790849211783e-38 1768976227
16.999998 -3.242923 2.071616 1.880790849211783e-38 1768976227
17.000000 -3.242923 -0.100547 1.880790849211783e-38 1768976227
17.000002 -3.242924 -0.199603 1.880790849211783e-38 1768976227
16.999998 -3.242923 1.969021 1.880790849211783e-38 1768976227
17.000000 -3.242923 1.848739 1.880790849211783e-38 1768976227
17.000002 -3.242924 2.595199 1.880790849211783e-38 1768976227
17.000002 -3.242924 2.481992 1.880790849211783e-38 1768976227
17.000000 -3.242923 1.770909 1.880790849211783e-38 1768976227
17.000000 -3.242923 1.657702 1.880790849211783e-38 1768976227
16.999998 -3.242923 2.386473 1.880790849211783e-38 1768976227
17.000002 -3.242923 2.287417 1.880790849211783e-38 1768976227
16.999998 -3.242923 0.921855 1.880790849211783e-38 1768976227
16.999996 -3.242923 0.836950 1.880790849211783e-38 1768976227
17.000000 -3.242923 1.530344 1.880790849211783e-38 1768976227
17.000002 -3.242924 1.452514 1.880790849211783e-38 1768976227
17.000000 -3.242923 0.720205 1.880790849211783e-38 1768976227
17.000000 -3.242923 0.638837 1.880790849211783e-38 1768976227
17.000000 -3.242923 1.342845 1.880790849211783e-38 1768976227
17.000000 -3.242923 1.233175 1.880790849211783e-38 1768976227
17.000000 -3.242923 0.522093 1.880790849211783e-38 1768976227
17.000000 -3.242923 0.437187 1.880790849211783e-38 1768976227
17.000000 -3.242923 1.144732 1.880790849211783e-38 1768976227
17.000000 -3.242923 1.035062 1.880790849211783e-38 1768976227
16.999998 -3.242923 -0.309272 1.880790849211783e-38 1768976227
17.000000 -3.242923 -0.404791 1.880790849211783e-38 1768976227
17.000000 -3.242923 0.299216 1.880790849211783e-38 1768976227
16.999998 -3.242923 0.210773 1.880790849211783e-38 1768976227
17.000000 -3.242923 -0.510923 1.880790849211783e-38 1768976227
16.999998 -3.242923 -0.595828 1.880790849211783e-38 1768976227
17.000000 -3.242923 0.104641 1.880790849211783e-38 1768976227
17.000000 -3.242923 0.012660 1.880790849211783e-38 1768976227
17.000002 -3.242924 3.474379 1.880790849211783e-38 1768976227
16.999998 -3.242923 3.293954 1.880790849211783e-38 1768976227
17.000000 -3.242923 4.967298 1.880790849211783e-38 1768976227
17.000000 -3.242923 4.797486 1.880790849211783e-38 1768976227
17.000000 -3.242923 4.641827 1.880790849211783e-38 1768976227
17.000002 -3.242923 4.464941 1.880790849211783e-38 1768976227
16.999998 -3.242923 4.259752 1.880790849211783e-38 1768976227
17.000002 -3.242923 3.155983 1.880790849211783e-38 1768976227
17.000000 -3.242923 3.000323 1.880790849211783e-38 1768976227
16.999998 -3.242923 4.068714 1.880790849211783e-38 1768976227
17.000000 -3.242923 3.962583 1.880790849211783e-38 1768976227
17.000000 -3.242923 2.858814 1.880790849211783e-38 1768976227
16.999998 -3.242923 2.706692 1.880790849211783e-38 1768976227
17.000000 -3.242923 3.796311 1.880790849211783e-38 1768976227
17.000000 -3.242923 3.668953 1.880790849211783e-38 1768976227
17.000000 -3.296092 2.161312 1.880790849211783e-38 1768976227
17.000000 -3.296092 2.072818 1.880790849211783e-38 1768976227
17.000000 -3.296092 -0.100605 1.880790849211783e-38 1768976227
17.000000 -3.296092 -0.199719 1.880790849211783e-38 1768976227
17.000000 -3.296092 1.970164 1.880790849211783e-38 1768976227
16.999998 -3.296092 1.849812 1.880790849211783e-38 1768976227
17.000000 -3.296092 2.596705 1.880790849211783e-38 1768976227
17.000000 -3.296092 2.483432 1.880790849211783e-38 1768976227
17.000000 -3.296092 1.771937 1.880790849211783e-38 1768976227
17.000000 -3.296092 1.658664 1.880790849211783e-38 1768976227
17.000000 -3.296092 2.387858 1.880790849211783e-38 1768976227
17.000000 -3.296092 2.288744 1.880790849211783e-38 1768976227
17.000000 -3.296092 0.922390 1.880790849211783e-38 1768976227
17.000000 -3.296092 0.837435 1.880790849211783e-38 1768976227
16.999998 -3.296091 1.531232 1.880790849211783e-38 1768976227
16.999996 -3.296091 1.453356 1.880790849211783e-38 1768976227
16.999998 -3.296091 0.720623 1.880790849211783e-38 1768976227
16.999998 -3.296092 0.639208 1.880790849211783e-38 1768976227
16.999998 -3.296092 1.343624 1.880790849211783e-38 1768976227
16.999998 -3.296091 1.233890 1.880790849211783e-38 1768976227
17.000000 -3.296092 0.522395 1.880790849211783e-38 1768976227
17.000000 -3.296092 0.437441 1.880790849211783e-38 1768976227
16.999998 -3.296091 1.145396 1.880790849211783e-38 1768976227
17.000002 -3.296092 1.035663 1.880790849211783e-38 1768976227
17.000000 -3.296092 -0.309452 1.880790849211783e-38 1768976227
17.000000 -3.296092 -0.405026 1.880790849211783e-38 1768976227
17.000002 -3.296092 0.299390 1.880790849211783e-38 1768976227
17.000000 -3.296092 0.210895 1.880790849211783e-38 1768976227
17.000002 -3.296092 -0.511219 1.880790849211783e-38 1768976227
17.000000 -3.296092 -0.596174 1.880790849211783e-38 1768976227
17.000002 -3.296092 0.104702 1.880790849211783e-38 1768976227
16.999998 -3.296092 0.012668 1.880790849211783e-38 1768976227
17.000000 -3.296091 3.476394 1.880790849211783e-38 1768976227
17.000000 -3.296092 3.295865 1.880790849211783e-38 1768976227
16.999998 -3.296091 4.970180 1.880790849211783e-38 1768976227
16.999998 -3.296092 4.800270 1.880790849211783e-38 1768976227
16.999998 -3.296092 4.644519 1.880790849211783e-38 1768976227
17.000000 -3.296092 4.467531 1.880790849211783e-38 1768976227
17.000000 -3.296092 4.262224 1.880790849211783e-38 1768976227
17.000000 -3.296092 3.157814 1.880790849211783e-38 1768976227
16.999998 -3.296091 3.002063 1.880790849211783e-38 1768976227
17.000002 -3.296092 4.071076 1.880790849211783e-38 1768976227
16.999998 -3.296091 3.964882 1.880790849211783e-38 1768976227
16.999998 -3.296091 2.860472 1.880790849211783e-38 1768976227
17.000000 -3.296092 2.708262 1.880790849211783e-38 1768976227
17.000000 -3.296091 3.798513 1.880790849211783e-38 1768976227
17.000000 -3.296092 3.671082 1.880790849211783e-38 1768976227
16.999998 -3.349320 2.162586 1.880790849211783e-38 1768976227
17.000000 -3.349321 2.074040 1.880790849211783e-38 1768976227
17.000000 -3.349321 -0.100664 1.880790849211783e-38 1768976227
16.999998 -3.349320 -0.199837 1.880790849211783e-38 1768976227
17.000000 -3.349320 1.971326 1.880790849211783e-38 1768976227
16.999998 -3.349320 1.850902 1.880790849211783e-38 1768976227
17.000000 -3.349321 2.598236 1.880790849211783e-38 1768976227
16.999996 -3.349320 2.484896 1.880790849211783e-38 1768976227
16.999998 -3.349320 1.772981 1.880790849211783e-38 1768976227
16.999998 -3.349320 1.659642 1.880790849211783e-38 1768976227
17.000000 -3.349320 2.389266 1.880790849211783e-38 1768976227
16.999996 -3.349320 2.290093 1.880790849211783e-38 1768976227
16.999998 -3.349320 0.922934 1.880790849211783e-38 1768976227
17.000000 -3.349320 0.837929 1.880790849211783e-38 1768976227
16.999998 -3.349320 1.532134 1.880790849211783e-38 1768976227
17.000000 -3.349320 1.454214 1.880790849211783e-38 1768976227
17.000000 -3.349320 0.721048 1.880790849211783e-38 1768976227
17.000002 -3.349321 0.639585 1.880790849211783e-38 1768976227
16.999998 -3.349320 1.344416 1.880790849211783e-38 1768976227
16.999998 -3.349320 1.234618 1.880790849211783e-38 1768976227
17.000000 -3.349320 0.522703 1.880790849211783e-38 1768976227
16.999998 -3.349320 0.437699 1.880790849211783e-38 1768976227
17.000000 -3.349320 1.146072 1.880790849211783e-38 1768976227
16.999998 -3.349320 1.036274 1.880790849211783e-38 1768976227
17.000000 -3.349320 -0.309634 1.880790849211783e-38 1768976227
16.999998 -3.349320 -0.405265 1.880790849211783e-38 1768976227
17.000000 -3.349320 0.299566 1.880790849211783e-38 1768976227
17.000000 -3.349320 0.211020 1.880790849211783e-38 1768976227
17.000000 -3.349320 -0.511521 1.880790849211783e-38 1768976227
16.999998 -3.349320 -0.596526 1.880790849211783e-38 1768976227
16.999998 -3.349320 0.104764 1.880790849211783e-38 1768976227
17.000000 -3.349320 0.012675 1.880790849211783e-38 1768976227
16.999998 -3.349320 3.478444 1.880790849211783e-38 1768976227
17.000000 -3.349320 3.297808 1.880790849211783e-38 1768976227
17.000000 -3.349320 4.973111 1.880790849211783e-38 1768976227
17.000000 -3.349320 4.803100 1.880790849211783e-38 1768976227
17.000000 -3.349320 4.647258 1.880790849211783e-38 1768976227
17.000000 -3.349320 4.470165 1.880790849211783e-38 1768976227
16.999998 -3.349320 4.264737 1.880790849211783e-38 1768976227
17.000000 -3.349320 3.159676 1.880790849211783e-38 1768976227
16.999998 -3.349320 3.003834 1.880790849211783e-38 1768976227
16.999998 -3.349320 4.073476 1.880790849211783e-38 1768976227
16.999998 -3.349320 3.967220 1.880790849211783e-38 1768976227
17.000000 -3.349320 2.862159 1.880790849211783e-38 1768976227
16.999996 -3.349320 2.709859 1.880790849211783e-38 1768976227
16.999998 -3.349320 3.800753 1.880790849211783e-38 1768976227
17.000002 -3.349320 3.673247 1.880790849211783e-38 1768976227
17.000000 -3.402612 2.163882 1.880790849211783e-38 1768976227
17.000002 -3.402612 2.075283 1.880790849211783e-38 1768976227
17.000000 -3.402612 -0.100725 1.880790849211783e-38 1768976227
17.000000 -3.402612 -0.199956 1.880790849211783e-38 1768976227
16.999998 -3.402612 1.972507 1.880790849211783e-38 1768976227
17.000000 -3.402612 1.852011 1.880790849211783e-38 1768976227
16.999998 -3.402612 2.599792 1.880790849211783e-38 1768976227
16.999998 -3.402612 2.486385 1.880790849211783e-38 1768976227
17.000000 -3.402612 1.774044 1.880790849211783e-38 1768976227
16.999998 -3.402612 1.660636 1.880790849211783e-38 1768976227
17.000000 -3.402612 2.390697 1.880790849211783e-38 1768976227
16.999998 -3.402612 2.291465 1.880790849211783e-38 1768976227
16.999998 -3.402612 0.923487 1.880790849211783e-38 1768976227
16.999998 -3.402612 0.838431 1.880790849211783e-38 1768976227
17.000000 -3.402612 1.533053 1.880790849211783e-38 1768976227
17.000000 -3.402612 1.455085 1.880790849211783e-38 1768976227
17.000000 -3.402612 0.721480 1.880790849211783e-38 1768976227
17.000002 -3.402613 0.639968 1.880790849211783e-38 1768976227
17.000000 -3.402612 1.345222 1.880790849211783e-38 1768976227
17.000000 -3.402612 1.235358 1.880790849211783e-38 1768976227
17.000000 -3.402612 0.523017 1.880790849211783e-38 1768976227
16.999998 -3.402612 0.437961 1.880790849211783e-38 1768976227
17.000000 -3.402612 1.146758 1.880790849211783e-38 1768976227
17.000000 -3.402612 1.036895 1.880790849211783e-38 1768976227
17.000000 -3.402612 -0.309820 1.880790849211783e-38 1768976227
17.000000 -3.402612 -0.405508 1.880790849211783e-38 1768976227
17.000000 -3.402612 0.299746 1.880790849211783e-38 1768976227
16.999998 -3.402612 0.211146 1.880790849211783e-38 1768976227
16.999998 -3.402612 -0.511827 1.880790849211783e-38 1768976227
17.000002 -3.402612 -0.596883 1.880790849211783e-38 1768976227
16.999998 -3.402612 0.104826 1.880790849211783e-38 1768976227
17.000000 -3.402612 0.012683 1.880790849211783e-38 1768976227
17.000002 -3.402612 3.480528 1.880790849211783e-38 1768976227
17.000000 -3.402612 3.299784 1.880790849211783e-38 1768976227
16.999998 -3.402611 4.976089 1.880790849211783e-38 1768976227
16.999998 -3.402611 4.805977 1.880790849211783e-38 1768976227
17.000000 -3.402612 4.650043 1.880790849211783e-38 1768976227
17.000000 -3.402612 4.472843 1.880790849211783e-38 1768976227
17.000000 -3.402612 4.267292 1.880790849211783e-38 1768976227
17.000000 -3.402612 3.161568 1.880790849211783e-38 1768976227
17.000000 -3.402612 3.005633 1.880790849211783e-38 1768976227
17.000000 -3.402612 4.075916 1.880790849211783e-38 1768976227
17.000000 -3.402612 3.969597 1.880790849211783e-38 1768976227
17.000000 -3.402612 2.863874 1.880790849211783e-38 1768976227
17.000000 -3.402612 2.711483 1.880790849211783e-38 1768976227
16.999998 -3.402612 3.803030 1.880790849211783e-38 1768976227
17.000000 -3.402612 3.675447 1.880790849211783e-38 1768976227
17.000000 -3.455971 2.165199 1.880790849211783e-38 1768976227
16.999998 -3.455970 2.076545 1.880790849211783e-38 1768976227
17.000000 -3.455971 -0.100786 1.880790849211783e-38 1768976227
17.000000 -3.455971 -0.200078 1.880790849211783e-38 1768976227
17.000000 -3.455971 1.973707 1.880790849211783e-38 1768976227
16.999996 -3.455970 1.853138 1.880790849211783e-38 1768976227
17.000002 -3.455971 2.601375 1.880790849211783e-38 1768976227
17.000000 -3.455971 2.487898 1.880790849211783e-38 1768976227
17.000000 -3.455971 1.775123 1.880790849211783e-38 1768976227
17.000000 -3.455970 1.661647 1.880790849211783e-38 1768976227
17.000000 -3.455970 2.392152 1.880790849211783e-38 1768976227
17.000000 -3.455971 2.292860 1.880790849211783e-38 1768976227
17.000000 -3.455970 0.924049 1.880790849211783e-38 1768976227
17.000000 -3.455971 0.838942 1.880790849211783e-38 1768976227
16.999998 -3.455970 1.533985 1.880790849211783e-38 1768976227
17.000000 -3.455971 1.455971 1.880790849211783e-38 1768976227
17.000000 -3.455971 0.721919 1.880790849211783e-38 1768976227
17.000000 -3.455971 0.640358 1.880790849211783e-38 1768976227
17.000000 -3.455970 1.346040 1.880790849211783e-38 1768976227
17.000000 -3.455971 1.236110 1.880790849211783e-38 1768976227
17.000000 -3.455970 0.523335 1.880790849211783e-38 1768976227
16.999998 -3.455970 0.438227 1.880790849211783e-38 1768976227
17.000000 -3.455971 1.147456 1.880790849211783e-38 1768976227
16.999998 -3.455970 1.037526 1.880790849211783e-38 1768976227
16.999998 -3.455971 -0.310008 1.880790849211783e-38 1768976227
16.999998 -3.455970 -0.405754 1.880790849211783e-38 1768976227
17.000000 -3.455971 0.299928 1.880790849211783e-38 1768976227
17.000000 -3.455970 0.211275 1.880790849211783e-38 1768976227
17.000000 -3.455971 -0.512139 1.880790849211783e-38 1768976227
17.000000 -3.455971 -0.597246 1.880790849211783e-38 1768976227
17.000000 -3.455971 0.104890 1.880790849211783e-38 1768976227
17.000000 -3.455971 0.012690 1.880790849211783e-38 1768976227
16.999998 -3.455970 3.482646 1.880790849211783e-38 1768976227
17.000000 -3.455970 3.301792 1.880790849211783e-38 1768976227
17.000000 -3.455970 4.979118 1.880790849211783e-38 1768976227
17.000000 -3.455971 4.808903 1.880790849211783e-38 1768976227
17.000002 -3.455971 4.652873 1.880790849211783e-38 1768976227
17.000000 -3.455970 4.475565 1.880790849211783e-38 1768976227
17.000002 -3.455971 4.269890 1.880790849211783e-38 1768976227
17.000000 -3.455970 3.163493 1.880790849211783e-38 1768976227
17.000000 -3.455970 3.007463 1.880790849211783e-38 1768976227
16.999998 -3.455970 4.078397 1.880790849211783e-38 1768976227
16.999998 -3.455970 3.972013 1.880790849211783e-38 1768976227
16.999998 -3.455970 2.865617 1.880790849211783e-38 1768976227
17.000000 -3.455971 2.713133 1.880790849211783e-38 1768976227
17.000000 -3.455971 3.805345 1.880790849211783e-38 1768976227
16.999998 -3.455970 3.677683 1.880790849211783e-38 1768976227
16.999998 -3.509392 2.166537 1.880790849211783e-38 1768976227
16.999998 -3.509392 2.077829 1.880790849211783e-38 1768976227
17.000000 -3.509392 -0.100848 1.880790849211783e-38 1768976227
16.999998 -3.509392 -0.200202 1.880790849211783e-38 1768976227
17.000000 -3.509392 1.974927 1.880790849211783e-38 1768976227
17.000002 -3.509392 1.854284 1.880790849211783e-38 1768976227
16.999998 -3.509392 2.602982 1.880790849211783e-38 1768976227
16.999998 -3.509392 2.489435 1.880790849211783e-38 1768976227
17.000000 -3.509392 1.776220 1.880790849211783e-38 1768976227
17.000000 -3.509392 1.662674 1.880790849211783e-38 1768976227
16.999998 -3.509392 2.393631 1.880790849211783e-38 1768976227
17.000000 -3.509392 2.294277 1.880790849211783e-38 1768976227
17.000002 -3.509392 0.924620 1.880790849211783e-38 1768976227
16.999998 -3.509392 0.839460 1.880790849211783e-38 1768976227
16.999998 -3.509392 1.534933 1.880790849211783e-38 1768976227
17.000000 -3.509392 1.456870 1.880790849211783e-38 1768976227
17.000000 -3.509392 0.722365 1.880790849211783e-38 1768976227
17.000000 -3.509392 0.640754 1.880790849211783e-38 1768976227
17.000000 -3.509392 1.346872 1.880790849211783e-38 1768976227
17.000000 -3.509392 1.236874 1.880790849211783e-38 1768976227
16.999998 -3.509392 0.523658 1.880790849211783e-38 1768976227
17.000002 -3.509392 0.438498 1.880790849211783e-38 1768976227
17.000002 -3.509392 1.148165 1.880790849211783e-38 1768976227
16.999998 -3.509392 1.038167 1.880790849211783e-38 1768976227
17.000000 -3.509392 -0.310200 1.880790849211783e-38 1768976227
17.000000 -3.509392 -0.406005 1.880790849211783e-38 1768976227
17.000002 -3.509393 0.300113 1.880790849211783e-38 1768976227
17.000000 -3.509392 0.211405 1.880790849211783e-38 1768976227
17.000000 -3.509392 -0.512455 1.880790849211783e-38 1768976227
17.000000 -3.509392 -0.597615 1.880790849211783e-38 1768976227
16.999998 -3.509392 0.104955 1.880790849211783e-38 1768976227
17.000000 -3.509392 0.012698 1.880790849211783e-38 1768976227
17.000000 -3.509392 3.484798 1.880790849211783e-38 1768976227
17.000002 -3.509392 3.303833 1.880790849211783e-38 1768976227
17.000000 -3.509392 4.982195 1.880790849211783e-38 1768976227
16.999998 -3.509392 4.811874 1.880790849211783e-38 1768976227
17.000000 -3.509392 4.655748 1.880790849211783e-38 1768976227
16.999998 -3.509392 4.478331 1.880790849211783e-38 1768976227
17.000000 -3.509392 4.272528 1.880790849211783e-38 1768976227
17.000000 -3.509392 3.165448 1.880790849211783e-38 1768976227
17.000002 -3.509392 3.009321 1.880790849211783e-38 1768976227
17.000000 -3.509392 4.080917 1.880790849211783e-38 1768976227
16.999998 -3.509392 3.974468 1.880790849211783e-38 1768976227
16.999998 -3.509392 2.867388 1.880790849211783e-38 1768976227
16.999998 -3.509392 2.714809 1.880790849211783e-38 1768976227
16.999998 -3.509392 3.807696 1.880790849211783e-38 1768976227
16.999998 -3.509392 3.679956 1.880790849211783e-38 1768976227
17.000000 -3.562882 2.167897 1.880790849211783e-38 1768976227
16.999998 -3.562882 2.079133 1.880790849211783e-38 1768976227
17.000000 -3.562883 -0.100912 1.880790849211783e-38 1768976227
16.999998 -3.562883 -0.200327 1.880790849211783e-38 1768976227
16.999998 -3.562882 1.976166 1.880790849211783e-38 1768976227
16.999998 -3.562882 1.855447 1.880790849211783e-38 1768976227
17.000000 -3.562883 2.604616 1.880790849211783e-38 1768976227
17.000000 -3.562883 2.490998 1.880790849211783e-38 1768976227
16.999998 -3.562882 1.777335 1.880790849211783e-38 1768976227
16.999998 -3.562882 1.663717 1.880790849211783e-38 1768976227
16.999998 -3.562882 2.395133 1.880790849211783e-38 1768976227
16.999998 -3.562882 2.295717 1.880790849211783e-38 1768976227
17.000000 -3.562882 0.925200 1.880790849211783e-38 1768976227
17.000000 -3.562883 0.839987 1.880790849211783e-38 1768976227
16.999998 -3.562882 1.535897 1.880790849211783e-38 1768976227
17.000000 -3.562883 1.457785 1.880790849211783e-38 1768976227
17.000000 -3.562882 0.722818 1.880790849211783e-38 1768976227
17.000002 -3.562883 0.641156 1.880790849211783e-38 1768976227
17.000000 -3.562883 1.347717 1.880790849211783e-38 1768976227
17.000000 -3.562883 1.237650 1.880790849211783e-38 1768976227
17.000000 -3.562883 0.523987 1.880790849211783e-38 1768976227
17.000000 -3.562883 0.438774 1.880790849211783e-38 1768976227
17.000000 -3.562883 1.148886 1.880790849211783e-38 1768976227
17.000002 -3.562883 1.038818 1.880790849211783e-38 1768976227
17.000000 -3.562883 -0.310395 1.880790849211783e-38 1768976227
17.000000 -3.562883 -0.406260 1.880790849211783e-38 1768976227
16.999998 -3.562882 0.300302 1.880790849211783e-38 1768976227
17.000002 -3.562883 0.211538 1.880790849211783e-38 1768976227
17.000000 -3.562882 -0.512777 1.880790849211783e-38 1768976227
17.000000 -3.562882 -0.597990 1.880790849211783e-38 1768976227
17.000000 -3.562882 0.105021 1.880790849211783e-38 1768976227
17.000002 -3.562883 0.012706 1.880790849211783e-38 1768976227
16.999998 -3.562882 3.486985 1.880790849211783e-38 1768976227
17.000000 -3.562882 3.305906 1.880790849211783e-38 1768976227
17.000002 -3.562883 4.985322 1.880790849211783e-38 1768976227
16.999998 -3.562882 4.814894 1.880790849211783e-38 1768976227
17.000000 -3.562882 4.658669 1.880790849211783e-38 1768976227
16.999998 -3.562882 4.481141 1.880790849211783e-38 1768976227
16.999998 -3.562882 4.275209 1.880790849211783e-38 1768976227
17.000000 -3.562882 3.167434 1.880790849211783e-38 1768976227
17.000000 -3.562882 3.011210 1.880790849211783e-38 1768976227
17.000000 -3.562882 4.083478 1.880790849211783e-38 1768976227
17.000000 -3.562882 3.976962 1.880790849211783e-38 1768976227
17.000002 -3.562883 2.869188 1.880790849211783e-38 1768976227
16.999998 -3.562882 2.716513 1.880790849211783e-38 1768976227
16.999996 -3.562882 3.810086 1.880790849211783e-38 1768976227
17.000000 -3.562882 3.682266 1.880790849211783e-38 1768976227
17.000000 -3.616439 2.169278 1.880790849211783e-38 1768976227
17.000002 -3.616439 2.080458 1.880790849211783e-38 1768976227
17.000000 -3.616439 -0.100976 1.880790849211783e-38 1768976227
17.000002 -3.616439 -0.200455 1.880790849211783e-38 1768976227
17.000000 -3.616438 1.977425 1.880790849211783e-38 1768976227
16.999998 -3.616438 1.856629 1.880790849211783e-38 1768976227
17.000000 -3.616438 2.606275 1.880790849211783e-38 1768976227
17.000000 -3.616439 2.492584 1.880790849211783e-38 1768976227
17.000000 -3.616439 1.778468 1.880790849211783e-38 1768976227
17.000000 -3.616438 1.664777 1.880790849211783e-38 1768976227
17.000000 -3.616438 2.396659 1.880790849211783e-38 1768976227
17.000002 -3.616439 2.297180 1.880790849211783e-38 1768976227
16.999998 -3.616438 0.925790 1.880790849211783e-38 1768976227
17.000000 -3.616438 0.840522 1.880790849211783e-38 1768976227
16.999998 -3.616438 1.536875 1.880790849211783e-38 1768976227
17.000000 -3.616438 1.458713 1.880790849211783e-38 1768976227
16.999998 -3.616438 0.723279 1.880790849211783e-38 1768976227
17.000000 -3.616439 0.641564 1.880790849211783e-38 1768976227
17.000000 -3.616438 1.348576 1.880790849211783e-38 1768976227
17.000000 -3.616439 1.238438 1.880790849211783e-38 1768976227
17.000000 -3.616439 0.524321 1.880790849211783e-38 1768976227
17.000000 -3.616438 0.439053 1.880790849211783e-38 1768976227
17.000000 -3.616438 1.149618 1.880790849211783e-38 1768976227
17.000000 -3.616438 1.039480 1.880790849211783e-38 1768976227
17.000002 -3.616439 -0.310592 1.880790849211783e-38 1768976227
17.000000 -3.616438 -0.406519 1.880790849211783e-38 1768976227
17.000000 -3.616438 0.300493 1.880790849211783e-38 1768976227
16.999998 -3.616438 0.211673 1.880790849211783e-38 1768976227
17.000000 -3.616438 -0.513103 1.880790849211783e-38 1768976227
17.000000 -3.616439 -0.598371 1.880790849211783e-38 1768976227
17.000000 -3.616439 0.105088 1.880790849211783e-38 1768976227
17.000002 -3.616438 0.012714 1.880790849211783e-38 1768976227
16.999998 -3.616438 3.489206 1.880790849211783e-38 1768976227
17.000000 -3.616438 3.308012 1.880790849211783e-38 1768976227
17.000002 -3.616439 4.988498 1.880790849211783e-38 1768976227
