# .PCD v0.7 - Point Cloud Data file format
VERSION 0.7
FIELDS x y z rgb label
SIZE 4 4 4 4 4
TYPE F F F F U
COUNT 1 1 1 1 1
WIDTH 757
HEIGHT 1
VIEWPOINT 0 0 0 1 0 0 0
POINTS 757
DATA ascii
16.369974 -11.023074 2.108192 1.880790849211783e-38 1768976227
16.245899 -10.939527 2.936980 1.880790849211783e-38 1768976227
16.792418 -11.307535 2.903355 1.880790849211783e-38 1768976227
16.943962 -11.409582 2.090248 1.880790849211783e-38 1768976227
16.155499 -10.878653 1.865578 1.880790849211783e-38 1768976227
16.090904 -10.835157 2.674999 1.880790849211783e-38 1768976227
16.175989 -10.892449 2.577524 1.880790849211783e-38 1768976227
16.605499 -11.181671 1.066354 1.880790849211783e-38 1768976227
16.338865 -11.002127 0.952594 1.880790849211783e-38 1768976227
16.012154 -10.782127 1.706968 1.880790849211783e-38 1768976227
16.465553 -11.087436 1.666032 1.880790849211783e-38 1768976227
15.946403 -10.737853 0.800029 1.880790849211783e-38 1768976227
16.299406 -10.975555 0.725352 1.880790849211783e-38 1768976227
16.433029 -11.065535 1.537199 1.880790849211783e-38 1768976227
16.742983 -11.274248 1.438282 1.880790849211783e-38 1768976227
16.459108 -11.083096 0.598605 1.880790849211783e-38 1768976227
16.071648 -10.822189 0.489457 1.880790849211783e-38 1768976227
16.139378 -10.867797 1.286996 1.880790849211783e-38 1768976227
16.192261 -10.903407 1.167510 1.880790849211783e-38 1768976227
16.206852 -10.913232 -0.349161 1.880790849211783e-38 1768976227
16.353394 -11.011910 -0.461132 1.880790849211783e-38 1768976227
16.364061 -11.019093 0.341085 1.880790849211783e-38 1768976227
16.661900 -11.219648 0.244640 1.880790849211783e-38 1768976227
15.708018 -10.577332 -0.559066 1.880790849211783e-38 1768976227
16.388212 -11.035356 -0.680204 1.880790849211783e-38 1768976227
16.219069 -10.921458 0.118227 1.880790849211783e-38 1768976227
15.630261 -10.524973 0.013785 1.880790849211783e-38 1768976227
16.217588 -10.920464 3.925092 1.880790849211783e-38 1768976227
16.773661 -11.294905 3.848858 1.880790849211783e-38 1768976227
16.413530 -11.052402 4.870493 1.880790849211783e-38 1768976227
15.865149 -10.683138 3.487910 1.880790849211783e-38 1768976227
16.171921 -10.889711 3.379996 1.880790849211783e-38 1768976227
16.329630 -10.995908 4.628286 1.880790849211783e-38 1768976227
16.517378 -11.122331 4.559383 1.880790849211783e-38 1768976227
15.970440 -10.754039 3.180455 1.880790849211783e-38 1768976227
16.215405 -10.918992 3.057407 1.880790849211783e-38 1768976227
16.272457 -10.957409 4.303298 1.880790849211783e-38 1768976227
16.217175 -10.920182 4.144803 1.880790849211783e-38 1768976227
16.643799 -11.280566 2.509513 1.880790849211783e-38 1768976227
16.621920 -11.265738 2.403598 1.880790849211783e-38 1768976227
16.790173 -11.379774 -0.117840 1.880790849211783e-38 1768976227
16.487482 -11.174622 -0.229717 1.880790849211783e-38 1768976227
16.728588 -11.338035 2.299224 1.880790849211783e-38 1768976227
16.719320 -11.331753 2.157574 1.880790849211783e-38 1768976227
16.527777 -11.201931 2.994033 1.880790849211783e-38 1768976227
16.457043 -11.153991 2.851173 1.880790849211783e-38 1768976227
16.401205 -11.116146 2.027419 1.880790849211783e-38 1768976227
16.302240 -11.049071 1.886363 1.880790849211783e-38 1768976227
16.156324 -10.950174 2.691353 1.880790849211783e-38 1768976227
15.999160 -10.843654 2.554547 1.880790849211783e-38 1768976227
16.394783 -11.111793 1.054970 1.880790849211783e-38 1768976227
16.333920 -11.070542 0.954248 1.880790849211783e-38 1768976227
16.415897 -11.126104 1.753578 1.880790849211783e-38 1768976227
16.254864 -11.016961 1.648068 1.880790849211783e-38 1768976227
16.286537 -11.038429 0.818760 1.880790849211783e-38 1768976227
16.382000 -11.103129 0.730515 1.880790849211783e-38 1768976227
16.204180 -10.982611 1.518883 1.880790849211783e-38 1768976227
16.432957 -11.137667 1.414529 1.880790849211783e-38 1768976227
16.593992 -11.246812 0.604742 1.880790849211783e-38 1768976227
16.457323 -11.154181 0.502225 1.880790849211783e-38 1768976227
16.188555 -10.972018 1.293550 1.880790849211783e-38 1768976227
16.409178 -11.121550 1.185564 1.880790849211783e-38 1768976227
16.643759 -11.280540 -0.359305 1.880790849211783e-38 1768976227
15.942409 -10.805190 -0.450460 1.880790849211783e-38 1768976227
16.471392 -11.163715 0.344023 1.880790849211783e-38 1768976227
16.307837 -11.052865 0.239929 1.880790849211783e-38 1768976227
16.674698 -11.301509 -0.594682 1.880790849211783e-38 1768976227
16.780888 -11.373481 -0.697923 1.880790849211783e-38 1768976227
16.240791 -11.007424 0.118627 1.880790849211783e-38 1768976227
16.260025 -11.020458 0.014370 1.880790849211783e-38 1768976227
16.830015 -11.406778 4.081624 1.880790849211783e-38 1768976227
16.627367 -11.269432 3.823072 1.880790849211783e-38 1768976227
16.280807 -11.034544 4.840963 1.880790849211783e-38 1768976227
16.527563 -11.201787 3.640951 1.880790849211783e-38 1768976227
16.174433 -10.962448 3.387416 1.880790849211783e-38 1768976227
16.436129 -11.139815 4.667972 1.880790849211783e-38 1768976227
16.224571 -10.996430 4.487693 1.880790849211783e-38 1768976227
16.436607 -11.140141 3.279967 1.880790849211783e-38 1768976227
16.328606 -11.066942 3.085030 1.880790849211783e-38 1768976227
16.388882 -11.107793 4.342927 1.880790849211783e-38 1768976227
16.268005 -11.025868 4.166274 1.880790849211783e-38 1768976227
16.324705 -11.136292 2.466454 1.880790849211783e-38 1768976227
16.158865 -11.023160 2.341435 1.880790849211783e-38 1768976227
16.497753 -11.254339 -0.116026 1.880790849211783e-38 1768976227
15.847793 -10.810953 -0.221257 1.880790849211783e-38 1768976227
16.331417 -11.140870 2.249243 1.880790849211783e-38 1768976227
16.367058 -11.165182 2.116451 1.880790849211783e-38 1768976227
16.223120 -11.066993 2.944876 1.880790849211783e-38 1768976227
16.174040 -11.033512 2.807895 1.880790849211783e-38 1768976227
16.642431 -11.353035 2.061461 1.880790849211783e-38 1768976227
15.991810 -10.909198 1.854241 1.880790849211783e-38 1768976227
16.404625 -11.190810 2.738325 1.880790849211783e-38 1768976227
15.787762 -10.770002 2.525968 1.880790849211783e-38 1768976227
16.644228 -11.354262 1.073219 1.880790849211783e-38 1768976227
16.347845 -11.152076 0.957022 1.880790849211783e-38 1768976227
16.408955 -11.193765 1.756435 1.880790849211783e-38 1768976227
15.682097 -10.697922 1.593260 1.880790849211783e-38 1768976227
16.443882 -11.217591 0.828367 1.880790849211783e-38 1768976227
16.250206 -11.085468 0.726125 1.880790849211783e-38 1768976227
16.348219 -11.152332 1.535530 1.880790849211783e-38 1768976227
16.228979 -11.070988 1.399839 1.880790849211783e-38 1768976227
15.953114 -10.882802 0.582579 1.880790849211783e-38 1768976227
16.330688 -11.140372 0.499383 1.880790849211783e-38 1768976227
15.887388 -10.837964 1.272092 1.880790849211783e-38 1768976227
16.340204 -11.146865 1.183004 1.880790849211783e-38 1768976227
15.568110 -10.620160 -0.336774 1.880790849211783e-38 1768976227
16.185349 -11.041226 -0.458263 1.880790849211783e-38 1768976227
16.548590 -11.289020 0.346345 1.880790849211783e-38 1768976227
16.086660 -10.973904 0.237161 1.880790849211783e-38 1768976227
16.236034 -11.075800 -0.580226 1.880790849211783e-38 1768976227
16.234249 -11.074585 -0.676574 1.880790849211783e-38 1768976227
15.941643 -10.874976 0.116681 1.880790849211783e-38 1768976227
16.234631 -11.074843 0.014377 1.880790849211783e-38 1768976227
16.173332 -11.033029 3.930417 1.880790849211783e-38 1768976227
16.547045 -11.287967 3.812413 1.880790849211783e-38 1768976227
16.582397 -11.312082 4.940760 1.880790849211783e-38 1768976227
16.398611 -11.186708 3.619959 1.880790849211783e-38 1768976227
16.702202 -11.393809 3.505126 1.880790849211783e-38 1768976227
16.153414 -11.019440 4.597096 1.880790849211783e-38 1768976227
16.301996 -11.120800 4.518364 1.880790849211783e-38 1768976227
16.222973 -11.066893 3.243981 1.880790849211783e-38 1768976227
16.785229 -11.450448 3.177811 1.880790849211783e-38 1768976227
16.260408 -11.092429 4.317728 1.880790849211783e-38 1768976227
16.479891 -11.242155 4.229202 1.880790849211783e-38 1768976227
16.271425 -11.172005 2.463483 1.880790849211783e-38 1768976227
16.420868 -11.274612 2.384316 1.880790849211783e-38 1768976227
16.747223 -11.498689 -0.118023 1.880790849211783e-38 1768976227
16.133810 -11.077518 -0.225716 1.880790849211783e-38 1768976227
15.980888 -10.972523 2.205514 1.880790849211783e-38 1768976227
16.292795 -11.186677 2.111201 1.880790849211783e-38 1768976227
16.115259 -11.064781 2.931341 1.880790849211783e-38 1768976227
16.159985 -11.095490 2.811252 1.880790849211783e-38 1768976227
15.982553 -10.973665 1.983814 1.880790849211783e-38 1768976227
16.430557 -11.281265 1.909050 1.880790849211783e-38 1768976227
16.476391 -11.312736 2.755987 1.880790849211783e-38 1768976227
16.463840 -11.304118 2.639581 1.880790849211783e-38 1768976227
16.263647 -11.166664 1.050846 1.880790849211783e-38 1768976227
16.198597 -11.122002 0.950245 1.880790849211783e-38 1768976227
16.095873 -11.051471 1.726482 1.880790849211783e-38 1768976227
16.280144 -11.177991 1.657437 1.880790849211783e-38 1768976227
16.262070 -11.165582 0.820901 1.880790849211783e-38 1768976227
16.572779 -11.378916 0.742069 1.880790849211783e-38 1768976227
16.297161 -11.189675 1.533897 1.880790849211783e-38 1768976227
16.249680 -11.157074 1.404520 1.880790849211783e-38 1768976227
16.117733 -11.066479 0.589807 1.880790849211783e-38 1768976227
16.519722 -11.342487 0.506208 1.880790849211783e-38 1768976227
16.264366 -11.167158 1.304967 1.880790849211783e-38 1768976227
16.215281 -11.133456 1.176385 1.880790849211783e-38 1768976227
16.521864 -11.343958 -0.358145 1.880790849211783e-38 1768976227
16.473816 -11.310966 -0.467394 1.880790849211783e-38 1768976227
16.596207 -11.395000 0.348059 1.880790849211783e-38 1768976227
16.415861 -11.271175 0.242514 1.880790849211783e-38 1768976227
16.229843 -11.143455 -0.581203 1.880790849211783e-38 1768976227
16.478092 -11.313905 -0.688155 1.880790849211783e-38 1768976227
16.512934 -11.337827 0.121112 1.880790849211783e-38 1768976227
15.822623 -10.863854 0.014041 1.880790849211783e-38 1768976227
16.413847 -11.269793 3.997108 1.880790849211783e-38 1768976227
16.814425 -11.544829 3.882022 1.880790849211783e-38 1768976227
16.780939 -11.521839 5.010246 1.880790849211783e-38 1768976227
16.284872 -11.181238 3.602279 1.880790849211783e-38 1768976227
16.106575 -11.058817 3.387112 1.880790849211783e-38 1768976227
16.618557 -11.410346 4.739244 1.880790849211783e-38 1768976227
16.049952 -11.019941 4.457697 1.880790849211783e-38 1768976227
16.090727 -11.047939 3.224185 1.880790849211783e-38 1768976227
16.450542 -11.294988 3.120883 1.880790849211783e-38 1768976227
16.490999 -11.322766 4.388006 1.880790849211783e-38 1768976227
16.259413 -11.163757 4.181243 1.880790849211783e-38 1768976227
16.467344 -11.379755 2.498330 1.880790849211783e-38 1768976227
16.350241 -11.298829 2.378998 1.880790849211783e-38 1768976227
16.360994 -11.306263 -0.115541 1.880790849211783e-38 1768976227
15.978372 -11.041850 -0.224006 1.880790849211783e-38 1768976227
16.417503 -11.345312 2.270483 1.880790849211783e-38 1768976227
16.226881 -11.213582 2.107033 1.880790849211783e-38 1768976227
16.573359 -11.453014 3.020938 1.880790849211783e-38 1768976227
16.007847 -11.062219 2.790576 1.880790849211783e-38 1768976227
16.839689 -11.637064 2.094552 1.880790849211783e-38 1768976227
16.490578 -11.395809 1.920008 1.880790849211783e-38 1768976227
16.450274 -11.367959 2.757341 1.880790849211783e-38 1768976227
16.468479 -11.380540 2.645815 1.880790849211783e-38 1768976227
16.870300 -11.658217 1.092311 1.880790849211783e-38 1768976227
16.438778 -11.360015 0.966340 1.880790849211783e-38 1768976227
16.432222 -11.355484 1.766225 1.880790849211783e-38 1768976227
16.153967 -11.163195 1.648012 1.880790849211783e-38 1768976227
16.242191 -11.224162 0.821602 1.880790849211783e-38 1768976227
16.278023 -11.248923 0.730387 1.880790849211783e-38 1768976227
15.992214 -11.051415 1.508326 1.880790849211783e-38 1768976227
16.730637 -11.561703 1.449099 1.880790849211783e-38 1768976227
16.166426 -11.171804 0.592819 1.880790849211783e-38 1768976227
16.331898 -11.286155 0.501493 1.880790849211783e-38 1768976227
16.440794 -11.361407 1.321866 1.880790849211783e-38 1768976227
16.293827 -11.259846 1.184542 1.880790849211783e-38 1768976227
16.402683 -11.335071 -0.356300 1.880790849211783e-38 1768976227
15.970366 -11.036318 -0.454053 1.880790849211783e-38 1768976227
16.577827 -11.456103 0.348396 1.880790849211783e-38 1768976227
16.287849 -11.255714 0.241124 1.880790849211783e-38 1768976227
16.341614 -11.292869 -0.586423 1.880790849211783e-38 1768976227
16.606192 -11.475705 -0.694947 1.880790849211783e-38 1768976227
16.204346 -11.198010 0.119096 1.880790849211783e-38 1768976227
15.959844 -11.029046 0.014192 1.880790849211783e-38 1768976227
16.035570 -11.081376 3.913111 1.880790849211783e-38 1768976227
16.210779 -11.202456 3.750439 1.880790849211783e-38 1768976227
15.822742 -10.934302 4.733984 1.880790849211783e-38 1768976227
16.513094 -11.411369 3.660359 1.880790849211783e-38 1768976227
16.269329 -11.242916 3.428454 1.880790849211783e-38 1768976227
15.729586 -10.869926 4.495057 1.880790849211783e-38 1768976227
16.689547 -11.533308 4.644978 1.880790849211783e-38 1768976227
16.009708 -11.063506 3.214623 1.880790849211783e-38 1768976227
16.106304 -11.130258 3.061931 1.880790849211783e-38 1768976227
15.907396 -10.992804 4.241520 1.880790849211783e-38 1768976227
16.376535 -11.317001 4.220120 1.880790849211783e-38 1768976227
16.389706 -11.399292 2.491756 1.880790849211783e-38 1768976227
15.892049 -11.053164 2.317170 1.880790849211783e-38 1768976227
15.918545 -11.071592 -0.112652 1.880790849211783e-38 1768976227
16.308096 -11.342532 -0.229107 1.880790849211783e-38 1768976227
16.042265 -11.157642 2.223233 1.880790849211783e-38 1768976227
16.393839 -11.402167 2.133168 1.880790849211783e-38 1768976227
16.596256 -11.542951 3.031444 1.880790849211783e-38 1768976227
15.955026 -11.096966 2.787190 1.880790849211783e-38 1768976227
16.618427 -11.558372 2.071357 1.880790849211783e-38 1768976227
16.006075 -11.132473 1.867498 1.880790849211783e-38 1768976227
16.109522 -11.204420 2.705877 1.880790849211783e-38 1768976227
16.175606 -11.250383 2.604202 1.880790849211783e-38 1768976227
16.076969 -11.181778 1.043124 1.880790849211783e-38 1768976227
16.305374 -11.340639 0.960504 1.880790849211783e-38 1768976227
16.289740 -11.329764 1.754575 1.880790849211783e-38 1768976227
16.069019 -11.176250 1.642777 1.880790849211783e-38 1768976227
15.893705 -11.054317 0.805657 1.880790849211783e-38 1768976227
16.091595 -11.191952 0.723533 1.880790849211783e-38 1768976227
15.946699 -11.091174 1.507181 1.880790849211783e-38 1768976227
16.546162 -11.508110 1.436120 1.880790849211783e-38 1768976227
16.645058 -11.576895 0.611648 1.880790849211783e-38 1768976227
16.554256 -11.513740 0.509385 1.880790849211783e-38 1768976227
16.129288 -11.218166 1.299535 1.880790849211783e-38 1768976227
16.059273 -11.169472 1.169934 1.880790849211783e-38 1768976227
16.640736 -11.573887 -0.362228 1.880790849211783e-38 1768976227
16.149685 -11.232354 -0.460112 1.880790849211783e-38 1768976227
16.357958 -11.377211 0.344495 1.880790849211783e-38 1768976227
16.710510 -11.622416 0.247899 1.880790849211783e-38 1768976227
16.004725 -11.131534 -0.575535 1.880790849211783e-38 1768976227
16.336979 -11.362618 -0.685112 1.880790849211783e-38 1768976227
16.251196 -11.302957 0.119690 1.880790849211783e-38 1768976227
15.764632 -10.964544 0.014048 1.880790849211783e-38 1768976227
15.895549 -11.055598 3.887061 1.880790849211783e-38 1768976227
16.845345 -11.716196 3.905406 1.880790849211783e-38 1768976227
16.333502 -11.360203 4.897027 1.880790849211783e-38 1768976227
16.508326 -11.481793 3.666962 1.880790849211783e-38 1768976227
16.205574 -11.271225 3.422167 1.880790849211783e-38 1768976227
15.821441 -11.004056 4.530771 1.880790849211783e-38 1768976227
15.806888 -10.993934 4.408528 1.880790849211783e-38 1768976227
16.289946 -11.329908 3.277739 1.880790849211783e-38 1768976227
16.608116 -11.551201 3.163938 1.880790849211783e-38 1768976227
16.131716 -11.219858 4.310336 1.880790849211783e-38 1768976227
16.665037 -11.590791 4.303454 1.880790849211783e-38 1768976227
16.273943 -11.391750 2.479368 1.880790849211783e-38 1768976227
16.365862 -11.456094 2.391282 1.880790849211783e-38 1768976227
16.559649 -11.591745 -0.117436 1.880790849211783e-38 1768976227
16.388172 -11.471710 -0.230717 1.880790849211783e-38 1768976227
15.969603 -11.178713 2.217825 1.880790849211783e-38 1768976227
16.094374 -11.266052 2.098613 1.880790849211783e-38 1768976227
16.253769 -11.377628 2.975140 1.880790849211783e-38 1768976227
15.972919 -11.181033 2.796193 1.880790849211783e-38 1768976227
16.420788 -11.494541 2.051034 1.880790849211783e-38 1768976227
16.142677 -11.299864 1.887403 1.880790849211783e-38 1768976227
16.350111 -11.445068 2.752073 1.880790849211783e-38 1768976227
16.453966 -11.517768 2.654597 1.880790849211783e-38 1768976227
15.877087 -11.113952 1.032325 1.880790849211783e-38 1768976227
15.627820 -10.939464 0.922530 1.880790849211783e-38 1768976227
16.453093 -11.517156 1.775903 1.880790849211783e-38 1768976227
16.122513 -11.285750 1.651718 1.880790849211783e-38 1768976227
16.255491 -11.378834 0.825732 1.880790849211783e-38 1768976227
15.977446 -11.184202 0.719914 1.880790849211783e-38 1768976227
16.399971 -11.479970 1.553286 1.880790849211783e-38 1768976227
16.424438 -11.497097 1.428558 1.880790849211783e-38 1768976227
16.262556 -11.383780 0.598851 1.880790849211783e-38 1768976227
16.648237 -11.653756 0.513356 1.880790849211783e-38 1768976227
16.560030 -11.592011 1.337050 1.880790849211783e-38 1768976227
16.625782 -11.638037 1.213756 1.880790849211783e-38 1768976227
16.380148 -11.466093 -0.357307 1.880790849211783e-38 1768976227
16.019537 -11.213667 -0.457365 1.880790849211783e-38 1768976227
16.310291 -11.417193 0.344215 1.880790849211783e-38 1768976227
16.201632 -11.341133 0.240856 1.880790849211783e-38 1768976227
16.231499 -11.362039 -0.584920 1.880790849211783e-38 1768976227
16.784098 -11.748858 -0.705345 1.880790849211783e-38 1768976227
15.832928 -11.083039 0.116855 1.880790849211783e-38 1768976227
16.410175 -11.487114 0.014654 1.880790849211783e-38 1768976227
16.309883 -11.416908 3.996783 1.880790849211783e-38 1768976227
16.769783 -11.738839 3.896077 1.880790849211783e-38 1768976227
16.519178 -11.563416 4.963128 1.880790849211783e-38 1768976227
16.167208 -11.317037 3.598755 1.880790849211783e-38 1768976227
16.078886 -11.255210 3.402566 1.880790849211783e-38 1768976227
16.390793 -11.473545 4.703703 1.880790849211783e-38 1768976227
15.960961 -11.172664 4.460876 1.880790849211783e-38 1768976227
16.270275 -11.389182 3.280676 1.880790849211783e-38 1768976227
16.183281 -11.328287 3.089499 1.880790849211783e-38 1768976227
16.060221 -11.242145 4.300272 1.880790849211783e-38 1768976227
16.813475 -11.769423 4.350932 1.880790849211783e-38 1768976227
16.015409 -11.282900 2.445153 1.880790849211783e-38 1768976227
16.350504 -11.518974 2.394103 1.880790849211783e-38 1768976227
16.143377 -11.373054 -0.114726 1.880790849211783e-38 1768976227
16.194124 -11.408807 -0.228469 1.880790849211783e-38 1768976227
16.309675 -11.490211 2.269856 1.880790849211783e-38 1768976227
16.444883 -11.585466 2.148864 1.880790849211783e-38 1768976227
16.461540 -11.597199 3.019559 1.880790849211783e-38 1768976227
16.031567 -11.294283 2.812411 1.880790849211783e-38 1768976227
15.997962 -11.270608 2.002458 1.880790849211783e-38 1768976227
15.646018 -11.022662 1.833212 1.880790849211783e-38 1768976227
16.460648 -11.596572 2.776553 1.880790849211783e-38 1768976227
16.243099 -11.443308 2.626133 1.880790849211783e-38 1768976227
15.863046 -11.175559 1.033599 1.880790849211783e-38 1768976227
16.110912 -11.350181 0.953064 1.880790849211783e-38 1768976227
16.519156 -11.637790 1.786814 1.880790849211783e-38 1768976227
16.177525 -11.397111 1.660867 1.880790849211783e-38 1768976227
16.171785 -11.393068 0.823222 1.880790849211783e-38 1768976227
16.506224 -11.628678 0.745317 1.880790849211783e-38 1768976227
16.726551 -11.783901 1.587577 1.880790849211783e-38 1768976227
16.075216 -11.325035 1.401148 1.880790849211783e-38 1768976227
16.186308 -11.403298 0.597307 1.880790849211783e-38 1768976227
16.075922 -11.325532 0.496759 1.880790849211783e-38 1768976227
16.078335 -11.327230 1.300911 1.880790849211783e-38 1768976227
16.043921 -11.302988 1.173761 1.880790849211783e-38 1768976227
16.201263 -11.413835 -0.354154 1.880790849211783e-38 1768976227
16.096867 -11.340287 -0.460548 1.880790849211783e-38 1768976227
16.572231 -11.675184 0.350484 1.880790849211783e-38 1768976227
16.110132 -11.349632 0.240003 1.880790849211783e-38 1768976227
15.784457 -11.120193 -0.570016 1.880790849211783e-38 1768976227
16.599398 -11.694321 -0.699062 1.880790849211783e-38 1768976227
16.060747 -11.314840 0.118788 1.880790849211783e-38 1768976227
16.561417 -11.667565 0.014820 1.880790849211783e-38 1768976227
16.314238 -11.493425 4.006326 1.880790849211783e-38 1768976227
16.175739 -11.395853 3.766033 1.880790849211783e-38 1768976227
16.589954 -11.687668 4.994960 1.880790849211783e-38 1768976227
16.401077 -11.554604 3.658554 1.880790849211783e-38 1768976227
15.971890 -11.252240 3.387090 1.880790849211783e-38 1768976227
16.060015 -11.314324 4.618550 1.880790849211783e-38 1768976227
16.229082 -11.433434 4.545429 1.880790849211783e-38 1768976227
15.870330 -11.180692 3.206818 1.880790849211783e-38 1768976227
15.598491 -10.989179 2.984172 1.880790849211783e-38 1768976227
15.964132 -11.246775 4.283607 1.880790849211783e-38 1768976227
16.179655 -11.398611 4.195791 1.880790849211783e-38 1768976227
16.160721 -11.458360 2.472604 1.880790849211783e-38 1768976227
16.211523 -11.494380 2.378818 1.880790849211783e-38 1768976227
16.562395 -11.743156 -0.117955 1.880790849211783e-38 1768976227
16.295876 -11.554189 -0.230395 1.880790849211783e-38 1768976227
16.442419 -11.658090 2.293213 1.880790849211783e-38 1768976227
16.293634 -11.552599 2.133643 1.880790849211783e-38 1768976227
16.459999 -11.670556 3.025720 1.880790849211783e-38 1768976227
16.759302 -11.882769 2.946351 1.880790849211783e-38 1768976227
16.390039 -11.620953 2.055912 1.880790849211783e-38 1768976227
16.214344 -11.496380 1.903856 1.880790849211783e-38 1768976227
16.130812 -11.437154 2.726723 1.880790849211783e-38 1768976227
16.417818 -11.640650 2.660045 1.880790849211783e-38 1768976227
16.001112 -11.345194 1.044819 1.880790849211783e-38 1768976227
16.379314 -11.613348 0.971009 1.880790849211783e-38 1768976227
15.908649 -11.279634 1.724450 1.880790849211783e-38 1768976227
16.065050 -11.390527 1.652839 1.880790849211783e-38 1768976227
16.063009 -11.389080 0.819429 1.880790849211783e-38 1768976227
16.041161 -11.373589 0.725863 1.880790849211783e-38 1768976227
16.132843 -11.438593 1.534493 1.880790849211783e-38 1768976227
16.747704 -11.874547 1.462879 1.880790849211783e-38 1768976227
15.942259 -11.303465 0.589557 1.880790849211783e-38 1768976227
16.216263 -11.497740 0.502165 1.880790849211783e-38 1768976227
16.450367 -11.663726 1.333852 1.880790849211783e-38 1768976227
16.188385 -11.477975 1.186857 1.880790849211783e-38 1768976227
16.275156 -11.539498 -0.356528 1.880790849211783e-38 1768976227
16.318327 -11.570107 -0.467880 1.880790849211783e-38 1768976227
16.153305 -11.453101 0.342354 1.880790849211783e-38 1768976227
16.250961 -11.522343 0.242618 1.880790849211783e-38 1768976227
16.201395 -11.487198 -0.586321 1.880790849211783e-38 1768976227
16.087816 -11.406669 -0.678963 1.880790849211783e-38 1768976227
16.431814 -11.650572 0.121792 1.880790849211783e-38 1768976227
16.176767 -11.469737 0.014507 1.880790849211783e-38 1768976227
16.292292 -11.551646 4.009474 1.880790849211783e-38 1768976227
16.304811 -11.560524 3.804184 1.880790849211783e-38 1768976227
16.389673 -11.620693 4.945189 1.880790849211783e-38 1768976227
16.548199 -11.733090 3.699249 1.880790849211783e-38 1768976227
16.083500 -11.403608 3.418037 1.880790849211783e-38 1768976227
16.107489 -11.420616 4.642087 1.880790849211783e-38 1768976227
16.607170 -11.774902 4.661248 1.880790849211783e-38 1768976227
16.025993 -11.362835 3.245182 1.880790849211783e-38 1768976227
16.059790 -11.386798 3.078980 1.880790849211783e-38 1768976227
16.813509 -11.921204 4.521144 1.880790849211783e-38 1768976227
15.854912 -11.241534 4.120350 1.880790849211783e-38 1768976227
15.972360 -11.397346 2.449032 1.880790849211783e-38 1768976227
16.711168 -11.924536 2.457400 1.880790849211783e-38 1768976227
16.003780 -11.419766 -0.114222 1.880790849211783e-38 1768976227
16.009800 -11.424063 -0.226836 1.880790849211783e-38 1768976227
16.140402 -11.517255 2.255925 1.880790849211783e-38 1768976227
16.255348 -11.599279 2.133201 1.880790849211783e-38 1768976227
16.399170 -11.701904 3.021011 1.880790849211783e-38 1768976227
16.917587 -12.071828 2.980564 1.880790849211783e-38 1768976227
16.105164 -11.492112 2.024517 1.880790849211783e-38 1768976227
16.515339 -11.784800 1.943363 1.880790849211783e-38 1768976227
15.800803 -11.274928 2.676675 1.880790849211783e-38 1768976227
16.625834 -11.863643 2.699533 1.880790849211783e-38 1768976227
16.363039 -11.676121 1.070746 1.880790849211783e-38 1768976227
16.341776 -11.660950 0.970865 1.880790849211783e-38 1768976227
16.260160 -11.602711 1.766337 1.880790849211783e-38 1768976227
16.237970 -11.586878 1.674218 1.880790849211783e-38 1768976227
16.356699 -11.671598 0.836203 1.880790849211783e-38 1768976227
16.224627 -11.577355 0.735741 1.880790849211783e-38 1768976227
16.231031 -11.581925 1.547148 1.880790849211783e-38 1768976227
16.218550 -11.573020 1.419700 1.880790849211783e-38 1768976227
15.873891 -11.327083 0.588289 1.880790849211783e-38 1768976227
16.045740 -11.449708 0.497952 1.880790849211783e-38 1768976227
16.102169 -11.489974 1.308423 1.880790849211783e-38 1768976227
15.841382 -11.303885 1.163910 1.880790849211783e-38 1768976227
16.521788 -11.789398 -0.362708 1.880790849211783e-38 1768976227
16.610933 -11.853010 -0.477292 1.880790849211783e-38 1768976227
16.284079 -11.619780 0.345866 1.880790849211783e-38 1768976227
16.315874 -11.642467 0.244110 1.880790849211783e-38 1768976227
16.211617 -11.568071 -0.587951 1.880790849211783e-38 1768976227
16.226200 -11.578479 -0.686274 1.880790849211783e-38 1768976227
16.300076 -11.631195 0.121075 1.880790849211783e-38 1768976227
16.108881 -11.494763 0.014477 1.880790849211783e-38 1768976227
16.437426 -11.729200 4.053878 1.880790849211783e-38 1768976227
15.967779 -11.394077 3.733548 1.880790849211783e-38 1768976227
16.230431 -11.581498 4.907658 1.880790849211783e-38 1768976227
16.027313 -11.436558 3.590502 1.880790849211783e-38 1768976227
16.349367 -11.666366 3.482000 1.880790849211783e-38 1768976227
16.435322 -11.727701 4.746738 1.880790849211783e-38 1768976227
16.297836 -11.629597 4.584249 1.880790849211783e-38 1768976227
15.977153 -11.400765 3.242239 1.880790849211783e-38 1768976227
16.289291 -11.623497 3.129686 1.880790849211783e-38 1768976227
15.999546 -11.416747 4.311509 1.880790849211783e-38 1768976227
16.504057 -11.776749 4.298259 1.880790849211783e-38 1768976227
16.424025 -11.794558 2.523728 1.880790849211783e-38 1768976227
16.582434 -11.908316 2.443740 1.880790849211783e-38 1768976227
16.382645 -11.764841 -0.117179 1.880790849211783e-38 1768976227
16.302299 -11.707144 -0.231480 1.880790849211783e-38 1768976227
16.133791 -11.586133 2.259875 1.880790849211783e-38 1768976227
16.408264 -11.783240 2.157922 1.880790849211783e-38 1768976227
15.839112 -11.374516 2.924145 1.880790849211783e-38 1768976227
15.873494 -11.399206 2.802659 1.880790849211783e-38 1768976227
16.385565 -11.766938 2.064216 1.880790849211783e-38 1768976227
16.206875 -11.638616 1.911187 1.880790849211783e-38 1768976227
16.355579 -11.745405 2.776643 1.880790849211783e-38 1768976227
16.072927 -11.542425 2.615398 1.880790849211783e-38 1768976227
16.325560 -11.723846 1.070603 1.880790849211783e-38 1768976227
16.342388 -11.735930 0.972999 1.880790849211783e-38 1768976227
16.022552 -11.506250 1.744288 1.880790849211783e-38 1768976227
15.875348 -11.400537 1.640367 1.880790849211783e-38 1768976227
15.767369 -11.322994 0.807817 1.880790849211783e-38 1768976227
15.960779 -11.461888 0.725341 1.880790849211783e-38 1768976227
16.235931 -11.659481 1.550959 1.880790849211783e-38 1768976227
16.247749 -11.667970 1.425330 1.880790849211783e-38 1768976227
16.388758 -11.769232 0.608683 1.880790849211783e-38 1768976227
16.157291 -11.603009 0.502497 1.880790849211783e-38 1768976227
16.089342 -11.554214 1.310206 1.880790849211783e-38 1768976227
15.989730 -11.482678 1.177349 1.880790849211783e-38 1768976227
16.252520 -11.671395 -0.357568 1.880790849211783e-38 1768976227
16.577965 -11.905108 -0.477375 1.880790849211783e-38 1768976227
16.383543 -11.765486 0.348731 1.880790849211783e-38 1768976227
15.810835 -11.354210 0.237065 1.880790849211783e-38 1768976227
15.846743 -11.379996 -0.575960 1.880790849211783e-38 1768976227
16.368706 -11.754832 -0.693797 1.880790849211783e-38 1768976227
16.287514 -11.696525 0.121243 1.880790849211783e-38 1768976227
16.188345 -11.625310 0.014580 1.880790849211783e-38 1768976227
16.210562 -11.641263 4.006568 1.880790849211783e-38 1768976227
16.537739 -11.876219 3.875173 1.880790849211783e-38 1768976227
16.527079 -11.868563 5.008157 1.880790849211783e-38 1768976227
16.265985 -11.681066 3.651846 1.880790849211783e-38 1768976227
16.361315 -11.749525 3.492075 1.880790849211783e-38 1768976227
15.987814 -11.481301 4.627472 1.880790849211783e-38 1768976227
16.456934 -11.818192 4.639004 1.880790849211783e-38 1768976227
16.203796 -11.636406 3.295339 1.880790849211783e-38 1768976227
16.342697 -11.736155 3.146734 1.880790849211783e-38 1768976227
16.185642 -11.623369 4.371084 1.880790849211783e-38 1768976227
16.497038 -11.846990 4.305717 1.880790849211783e-38 1768976227
16.710674 -12.076963 2.573360 1.880790849211783e-38 1768976227
15.987120 -11.554046 2.361134 1.880790849211783e-38 1768976227
16.272850 -11.760546 -0.116646 1.880790849211783e-38 1768976227
16.260918 -11.751922 -0.231394 1.880790849211783e-38 1768976227
16.334002 -11.804741 2.292895 1.880790849211783e-38 1768976227
16.399212 -11.851868 2.161422 1.880790849211783e-38 1768976227
16.292479 -11.774732 3.014386 1.880790849211783e-38 1768976227
16.293219 -11.775267 2.883024 1.880790849211783e-38 1768976227
16.650826 -12.033713 2.102196 1.880790849211783e-38 1768976227
16.435358 -11.877993 1.942347 1.880790849211783e-38 1768976227
16.052174 -11.601062 2.731062 1.880790849211783e-38 1768976227
16.373459 -11.833257 2.670096 1.880790849211783e-38 1768976227
16.204916 -11.711450 1.065003 1.880790849211783e-38 1768976227
15.957949 -11.532963 0.952177 1.880790849211783e-38 1768976227
16.012161 -11.572145 1.746948 1.880790849211783e-38 1768976227
15.932908 -11.514867 1.649896 1.880790849211783e-38 1768976227
16.409231 -11.859111 0.842531 1.880790849211783e-38 1768976227
15.865232 -11.465958 0.722567 1.880790849211783e-38 1768976227
16.656282 -12.037656 1.594575 1.880790849211783e-38 1768976227
16.091951 -11.629809 1.414733 1.880790849211783e-38 1768976227
16.217634 -11.720640 0.603638 1.880790849211783e-38 1768976227
15.680710 -11.332601 0.488736 1.880790849211783e-38 1768976227
16.164768 -11.682435 1.319212 1.880790849211783e-38 1768976227
16.124470 -11.653310 1.189853 1.880790849211783e-38 1768976227
16.227802 -11.727989 -0.357801 1.880790849211783e-38 1768976227
16.308228 -11.786113 -0.470629 1.880790849211783e-38 1768976227
16.158953 -11.678230 0.344699 1.880790849211783e-38 1768976227
16.011307 -11.571525 0.240593 1.880790849211783e-38 1768976227
16.768768 -12.118950 -0.610798 1.880790849211783e-38 1768976227
16.272852 -11.760547 -0.691235 1.880790849211783e-38 1768976227
15.994656 -11.559493 0.119322 1.880790849211783e-38 1768976227
16.073278 -11.616314 0.014508 1.880790849211783e-38 1768976227
16.320957 -11.795313 4.042627 1.880790849211783e-38 1768976227
16.511271 -11.932856 3.877387 1.880790849211783e-38 1768976227
16.066137 -11.611154 4.879069 1.880790849211783e-38 1768976227
16.273630 -11.761109 3.661509 1.880790849211783e-38 1768976227
16.447231 -11.886573 3.518049 1.880790849211783e-38 1768976227
16.007347 -11.568664 4.643203 1.880790849211783e-38 1768976227
16.024626 -11.581152 4.526968 1.880790849211783e-38 1768976227
15.980335 -11.549142 3.256963 1.880790849211783e-38 1768976227
15.987455 -11.554287 3.085029 1.880790849211783e-38 1768976227
16.327061 -11.799725 4.418866 1.880790849211783e-38 1768976227
15.886218 -11.481122 4.155313 1.880790849211783e-38 1768976227
16.026939 -11.656569 2.473471 1.880790849211783e-38 1768976227
15.819188 -11.505469 2.341446 1.880790849211783e-38 1768976227
15.866308 -11.539740 -0.113981 1.880790849211783e-38 1768976227
16.303320 -11.857584 -0.232506 1.880790849211783e-38 1768976227
16.158545 -11.752287 2.273230 1.880790849211783e-38 1768976227
15.680173 -11.404361 2.071177 1.880790849211783e-38 1768976227
16.385759 -11.917542 3.038281 1.880790849211783e-38 1768976227
16.647186 -12.107679 2.952105 1.880790849211783e-38 1768976227
16.184929 -11.771478 2.047849 1.880790849211783e-38 1768976227
15.940433 -11.593651 1.887980 1.880790849211783e-38 1768976227
15.745798 -11.452092 2.684800 1.880790849211783e-38 1768976227
16.124743 -11.727703 2.635293 1.880790849211783e-38 1768976227
16.462584 -11.973416 1.084305 1.880790849211783e-38 1768976227
16.112303 -11.718655 0.963492 1.880790849211783e-38 1768976227
16.143999 -11.741707 1.765188 1.880790849211783e-38 1768976227
16.285460 -11.844594 1.690095 1.880790849211783e-38 1768976227
16.294676 -11.851295 0.838480 1.880790849211783e-38 1768976227
16.325499 -11.873714 0.745157 1.880790849211783e-38 1768976227
15.953662 -11.603274 1.530654 1.880790849211783e-38 1768976227
16.218220 -11.795690 1.428955 1.880790849211783e-38 1768976227
16.517925 -12.013668 0.616161 1.880790849211783e-38 1768976227
15.774472 -11.472947 0.492735 1.880790849211783e-38 1768976227
16.172043 -11.762105 1.322694 1.880790849211783e-38 1768976227
16.216909 -11.794736 1.199293 1.880790849211783e-38 1768976227
16.204033 -11.785371 -0.358059 1.880790849211783e-38 1768976227
16.663740 -12.119722 -0.481941 1.880790849211783e-38 1768976227
16.335121 -11.880713 0.349219 1.880790849211783e-38 1768976227
16.539726 -12.029525 0.249078 1.880790849211783e-38 1768976227
16.380640 -11.913818 -0.597966 1.880790849211783e-38 1768976227
16.268778 -11.832460 -0.692575 1.880790849211783e-38 1768976227
15.946533 -11.598088 0.119223 1.880790849211783e-38 1768976227
16.054014 -11.676260 0.014522 1.880790849211783e-38 1768976227
15.864824 -11.538660 3.938247 1.880790849211783e-38 1768976227
16.277470 -11.838783 3.830849 1.880790849211783e-38 1768976227
16.307766 -11.860816 4.963289 1.880790849211783e-38 1768976227
16.150387 -11.746352 3.641734 1.880790849211783e-38 1768976227
16.509710 -12.007695 3.539143 1.880790849211783e-38 1768976227
16.078558 -11.694113 4.674069 1.880790849211783e-38 1768976227
16.151636 -11.747262 4.572836 1.880790849211783e-38 1768976227
15.927808 -11.584470 3.253364 1.880790849211783e-38 1768976227
16.361158 -11.899650 3.164052 1.880790849211783e-38 1768976227
16.393278 -11.923012 4.446500 1.880790849211783e-38 1768976227
16.573078 -12.053782 4.344462 1.880790849211783e-38 1768976227
16.359463 -11.974018 2.530352 1.880790849211783e-38 1768976227
15.966560 -11.686439 2.368465 1.880790849211783e-38 1768976227
16.399160 -12.003074 -0.118069 1.880790849211783e-38 1768976227
16.270523 -11.908919 -0.232549 1.880790849211783e-38 1768976227
15.994919 -11.707195 2.255168 1.880790849211783e-38 1768976227
16.650736 -12.187209 2.204222 1.880790849211783e-38 1768976227
16.138813 -11.812514 2.999083 1.880790849211783e-38 1768976227
15.971807 -11.690279 2.838577 1.880790849211783e-38 1768976227
16.282309 -11.917547 2.064708 1.880790849211783e-38 1768976227
15.844984 -11.597453 1.880809 1.880790849211783e-38 1768976227
15.990756 -11.704149 2.732574 1.880790849211783e-38 1768976227
16.139505 -11.813023 2.643516 1.880790849211783e-38 1768976227
16.458609 -12.046583 1.086431 1.880790849211783e-38 1768976227
16.451250 -12.041199 0.985927 1.880790849211783e-38 1768976227
16.225107 -11.875678 1.777964 1.880790849211783e-38 1768976227
16.107576 -11.789654 1.675317 1.880790849211783e-38 1768976227
15.891997 -11.631864 0.819561 1.880790849211783e-38 1768976227
16.114302 -11.794577 0.737137 1.880790849211783e-38 1768976227
16.600801 -12.150660 1.596251 1.880790849211783e-38 1768976227
16.366541 -11.979198 1.445200 1.880790849211783e-38 1768976227
16.267635 -11.906805 0.608161 1.880790849211783e-38 1768976227
16.036221 -11.737425 0.502014 1.880790849211783e-38 1768976227
16.027380 -11.730953 1.313750 1.880790849211783e-38 1768976227
15.895763 -11.634620 1.178133 1.880790849211783e-38 1768976227
15.878189 -11.621757 -0.351632 1.880790849211783e-38 1768976227
16.255323 -11.897794 -0.471165 1.880790849211783e-38 1768976227
15.602938 -11.420292 0.334301 1.880790849211783e-38 1768976227
16.300705 -11.931009 0.246019 1.880790849211783e-38 1768976227
16.104883 -11.787682 -0.589195 1.880790849211783e-38 1768976227
16.468328 -12.053699 -0.702614 1.880790849211783e-38 1768976227
16.417698 -12.016640 0.123016 1.880790849211783e-38 1768976227
16.060837 -11.755444 0.014560 1.880790849211783e-38 1768976227
16.071320 -11.763117 3.998296 1.880790849211783e-38 1768976227
16.466015 -12.052006 3.883759 1.880790849211783e-38 1768976227
16.339407 -11.959337 4.983873 1.880790849211783e-38 1768976227
16.248819 -11.893032 3.672000 1.880790849211783e-38 1768976227
15.658596 -11.461029 3.364086 1.880790849211783e-38 1768976227
16.097460 -11.782248 4.689871 1.880790849211783e-38 1768976227
16.197599 -11.855544 4.595951 1.880790849211783e-38 1768976227
16.226435 -11.876650 3.321661 1.880790849211783e-38 1768976227
15.912199 -11.646651 3.084007 1.880790849211783e-38 1768976227
16.204557 -11.860636 4.404993 1.880790849211783e-38 1768976227
16.264711 -11.904665 4.273019 1.880790849211783e-38 1768976227
16.082291 -11.845799 2.492996 1.880790849211783e-38 1768976227
16.650764 -12.264523 2.475435 1.880790849211783e-38 1768976227
15.954219 -11.751465 -0.115120 1.880790849211783e-38 1768976227
16.210630 -11.940332 -0.232207 1.880790849211783e-38 1768976227
16.261103 -11.977508 2.297781 1.880790849211783e-38 1768976227
16.079865 -11.844012 2.133369 1.880790849211783e-38 1768976227
16.346899 -12.040704 3.044487 1.880790849211783e-38 1768976227
16.306789 -12.011159 2.904536 1.880790849211783e-38 1768976227
16.036030 -11.811726 2.037986 1.880790849211783e-38 1768976227
16.230661 -11.955086 1.930860 1.880790849211783e-38 1768976227
15.729527 -11.585963 2.693893 1.880790849211783e-38 1768976227
16.356974 -12.048124 2.685075 1.880790849211783e-38 1768976227
16.109192 -11.865615 1.065724 1.880790849211783e-38 1768976227
15.937821 -11.739388 0.957275 1.880790849211783e-38 1768976227
15.729118 -11.585662 1.727434 1.880790849211783e-38 1768976227
16.026901 -11.805000 1.670621 1.880790849211783e-38 1768976227
15.873775 -11.692211 0.820436 1.880790849211783e-38 1768976227
16.220102 -11.947309 0.743622 1.880790849211783e-38 1768976227
16.342592 -12.037531 1.574907 1.880790849211783e-38 1768976227
16.556730 -12.195259 1.465235 1.880790849211783e-38 1768976227
16.387918 -12.070917 0.614016 1.880790849211783e-38 1768976227
16.204008 -11.935454 0.508391 1.880790849211783e-38 1768976227
16.148218 -11.894360 1.326589 1.880790849211783e-38 1768976227
16.283443 -11.993964 1.209542 1.880790849211783e-38 1768976227
16.062962 -11.831563 -0.356512 1.880790849211783e-38 1768976227
16.205418 -11.936491 -0.470759 1.880790849211783e-38 1768976227
16.510027 -12.160859 0.354520 1.880790849211783e-38 1768976227
16.347967 -12.041491 0.247279 1.880790849211783e-38 1768976227
15.819788 -11.652447 -0.580048 1.880790849211783e-38 1768976227
16.668819 -12.277822 -0.712744 1.880790849211783e-38 1768976227
15.833493 -11.662541 0.118902 1.880790849211783e-38 1768976227
16.005665 -11.789360 0.014542 1.880790849211783e-38 1768976227
15.855412 -11.678687 3.953326 1.880790849211783e-38 1768976227
16.176455 -11.915159 3.823921 1.880790849211783e-38 1768976227
16.280239 -11.991604 4.976835 1.880790849211783e-38 1768976227
16.306257 -12.010767 3.693150 1.880790849211783e-38 1768976227
16.106081 -11.863322 3.467894 1.880790849211783e-38 1768976227
16.023331 -11.802370 4.678623 1.880790849211783e-38 1768976227
15.813082 -11.647508 4.496794 1.880790849211783e-38 1768976227
15.897499 -11.709687 3.261540 1.880790849211783e-38 1768976227
16.314104 -12.016547 3.168911 1.880790849211783e-38 1768976227
16.288738 -11.997863 4.437693 1.880790849211783e-38 1768976227
16.280592 -11.991863 4.286673 1.880790849211783e-38 1768976227
16.163292 -11.980826 2.511142 1.880790849211783e-38 1768976227
16.225500 -12.026939 2.417593 1.880790849211783e-38 1768976227
15.790530 -11.704522 -0.114193 1.880790849211783e-38 1768976227
16.213284 -12.017882 -0.232763 1.880790849211783e-38 1768976227
16.437626 -12.184173 2.327906 1.880790849211783e-38 1768976227
16.172382 -11.987565 2.150431 1.880790849211783e-38 1768976227
16.026291 -11.879276 2.991435 1.880790849211783e-38 1768976227
16.559263 -12.274336 2.956087 1.880790849211783e-38 1768976227
16.310076 -12.089629 2.077439 1.880790849211783e-38 1768976227
16.246412 -12.042440 1.937046 1.880790849211783e-38 1768976227
16.000898 -11.860454 2.746482 1.880790849211783e-38 1768976227
16.286135 -12.071882 2.679410 1.880790849211783e-38 1768976227
16.380213 -12.141617 1.086071 1.880790849211783e-38 1768976227
16.254990 -12.048798 0.978503 1.880790849211783e-38 1768976227
16.120861 -11.949376 1.774407 1.880790849211783e-38 1768976227
15.975358 -11.841523 1.668964 1.880790849211783e-38 1768976227
16.203583 -12.010694 0.839350 1.880790849211783e-38 1768976227
16.226767 -12.027879 0.745587 1.880790849211783e-38 1768976227
16.311058 -12.090357 1.575375 1.880790849211783e-38 1768976227
15.963870 -11.833009 1.415920 1.880790849211783e-38 1768976227
16.123631 -11.951429 0.605461 1.880790849211783e-38 1768976227
16.173336 -11.988273 0.508561 1.880790849211783e-38 1768976227
16.411104 -12.164515 1.351194 1.880790849211783e-38 1768976227
16.403418 -12.158817 1.221172 1.880790849211783e-38 1768976227
16.007841 -11.865601 -0.356082 1.880790849211783e-38 1768976227
16.260946 -12.053211 -0.473426 1.880790849211783e-38 1768976227
16.100248 -11.934096 0.346492 1.880790849211783e-38 1768976227
16.342760 -12.113855 0.247752 1.880790849211783e-38 1768976227
15.825041 -11.730103 -0.581535 1.880790849211783e-38 1768976227
16.276161 -12.064490 -0.697507 1.880790849211783e-38 1768976227
16.351051 -12.120001 0.123062 1.880790849211783e-38 1768976227
15.974077 -11.840574 0.014546 1.880790849211783e-38 1768976227
15.845709 -11.745423 3.959721 1.880790849211783e-38 1768976227
16.424679 -12.174577 3.891260 1.880790849211783e-38 1768976227
16.037920 -11.887897 4.913697 1.880790849211783e-38 1768976227
16.113016 -11.943560 3.657525 1.880790849211783e-38 1768976227
16.277100 -12.065187 3.512537 1.880790849211783e-38 1768976227
16.218185 -12.021517 4.746084 1.880790849211783e-38 1768976227
15.971851 -11.838925 4.552077 1.880790849211783e-38 1768976227
15.881712 -11.772110 3.265571 1.880790849211783e-38 1768976227
16.089647 -11.926240 3.132285 1.880790849211783e-38 1768976227
16.115818 -11.945638 4.400378 1.880790849211783e-38 1768976227
16.108633 -11.940310 4.250858 1.880790849211783e-38 1768976227
15.926064 -11.879570 2.479841 1.880790849211783e-38 1768976227
16.052095 -11.973579 2.397125 1.880790849211783e-38 1768976227
16.160999 -12.054813 -0.117134 1.880790849211783e-38 1768976227
16.327175 -12.178767 -0.234924 1.880790849211783e-38 1768976227
15.900856 -11.860767 2.256944 1.880790849211783e-38 1768976227
15.787514 -11.776222 2.103968 1.880790849211783e-38 1768976227
15.943954 -11.892915 2.982747 1.880790849211783e-38 1768976227
16.032787 -11.959177 2.868528 1.880790849211783e-38 1768976227
16.182295 -12.070697 2.065790 1.880790849211783e-38 1768976227
16.198803 -12.083012 1.935705 1.880790849211783e-38 1768976227
15.707494 -11.716534 2.702174 1.880790849211783e-38 1768976227
16.195189 -12.080314 2.670429 1.880790849211783e-38 1768976227
15.990422 -11.927576 1.062607 1.880790849211783e-38 1768976227
16.087639 -12.000092 0.970603 1.880790849211783e-38 1768976227
15.862432 -11.832106 1.749881 1.880790849211783e-38 1768976227
15.749364 -11.747766 1.649047 1.880790849211783e-38 1768976227
16.054903 -11.975673 0.833516 1.880790849211783e-38 1768976227
16.012564 -11.944093 0.737397 1.880790849211783e-38 1768976227
16.068453 -11.985781 1.555427 1.880790849211783e-38 1768976227
16.161413 -12.055122 1.436660 1.880790849211783e-38 1768976227
16.496292 -12.304914 0.620846 1.880790849211783e-38 1768976227
15.805467 -11.789614 0.498109 1.880790849211783e-38 1768976227
16.637184 -12.410008 1.372883 1.880790849211783e-38 1768976227
15.706232 -11.715593 1.171894 1.880790849211783e-38 1768976227
16.273218 -12.138518 -0.362797 1.880790849211783e-38 1768976227
15.893504 -11.855283 -0.463767 1.880790849211783e-38 1768976227
16.082752 -11.996448 0.346893 1.880790849211783e-38 1768976227
16.160965 -12.054789 0.245546 1.880790849211783e-38 1768976227
15.708729 -11.717454 -0.578557 1.880790849211783e-38 1768976227
16.004398 -11.938000 -0.687401 1.880790849211783e-38 1768976227
15.875353 -11.841743 0.119750 1.880790849211783e-38 1768976227
16.076727 -11.991952 0.014672 1.880790849211783e-38 1768976227
16.368849 -12.209851 4.099633 1.880790849211783e-38 1768976227
16.353321 -12.198272 3.883053 1.880790849211783e-38 1768976227
15.894874 -11.856304 4.880802 1.880790849211783e-38 1768976227
15.944290 -11.893165 3.627351 1.880790849211783e-38 1768976227
16.523876 -12.325491 3.573795 1.880790849211783e-38 1768976227
15.850120 -11.822922 4.648787 1.880790849211783e-38 1768976227
16.205114 -12.087719 4.628927 1.880790849211783e-38 1768976227
15.917024 -11.872827 3.280179 1.880790849211783e-38 1768976227
16.098906 -12.008495 3.141123 1.880790849211783e-38 1768976227
16.062634 -11.981440 4.395702 1.880790849211783e-38 1768976227
15.909358 -11.867108 4.207697 1.880790849211783e-38 1768976227
15.712506 -11.794196 2.452116 1.880790849211783e-38 1768976227
15.989331 -12.001987 2.393147 1.880790849211783e-38 1768976227
16.368938 -12.286930 -0.118910 1.880790849211783e-38 1768976227
15.867404 -11.910466 -0.228825 1.880790849211783e-38 1768976227
16.144310 -12.118320 2.296677 1.880790849211783e-38 1768976227
15.977742 -11.993288 2.134130 1.880790849211783e-38 1768976227
16.023003 -12.027262 3.004308 1.880790849211783e-38 1768976227
16.671106 -12.513744 2.989473 1.880790849211783e-38 1768976227
16.185980 -12.149596 2.070929 1.880790849211783e-38 1768976227
15.964563 -11.983396 1.912024 1.880790849211783e-38 1768976227
15.803166 -11.862247 2.724775 1.880790849211783e-38 1768976227
16.544744 -12.418894 2.734231 1.880790849211783e-38 1768976227
16.120161 -12.100190 1.073648 1.880790849211783e-38 1768976227
15.776158 -11.841972 0.953961 1.880790849211783e-38 1768976227
16.099388 -12.084599 1.780034 1.880790849211783e-38 1768976227
16.147331 -12.120586 1.694537 1.880790849211783e-38 1768976227
16.576378 -12.442639 0.862533 1.880790849211783e-38 1768976227
15.940722 -11.965500 0.735747 1.880790849211783e-38 1768976227
15.818549 -11.873794 1.534696 1.880790849211783e-38 1768976227
15.705028 -11.788581 1.399244 1.880790849211783e-38 1768976227
15.647370 -11.745301 0.590227 1.880790849211783e-38 1768976227
16.347603 -12.270915 0.516359 1.880790849211783e-38 1768976227
16.353565 -12.275392 1.352528 1.880790849211783e-38 1768976227
16.176109 -12.142188 1.209680 1.880790849211783e-38 1768976227
15.946818 -11.970077 -0.356324 1.880790849211783e-38 1768976227
16.461046 -12.356066 -0.481413 1.880790849211783e-38 1768976227
15.874864 -11.916064 0.343183 1.880790849211783e-38 1768976227
15.756019 -11.826857 0.239934 1.880790849211783e-38 1768976227
16.064997 -12.058784 -0.593015 1.880790849211783e-38 1768976227
16.012259 -12.019197 -0.689292 1.880790849211783e-38 1768976227
16.408861 -12.316897 0.124054 1.880790849211783e-38 1768976227
