# .PCD v0.7 - Point Cloud Data file format
VERSION 0.7
FIELDS x y z rgb label
SIZE 4 4 4 4 4
TYPE F F F F U
COUNT 1 1 1 1 1
WIDTH 744
HEIGHT 1
VIEWPOINT 0 0 0 1 0 0 0
POINTS 744
DATA ascii
-27.274366 -13.544815 0.526499 1.880790849211783e-38 1768976227
-27.724556 -13.768385 0.376997 1.880790849211783e-38 1768976227
-27.613810 -13.713387 -0.910204 1.880790849211783e-38 1768976227
-27.715286 -13.763783 -1.065364 1.880790849211783e-38 1768976227
-27.564236 -13.688766 0.186083 1.880790849211783e-38 1768976227
-27.471022 -13.642477 0.022438 1.880790849211783e-38 1768976227
-27.685991 -13.749232 4.834553 1.880790849211783e-38 1768976227
-27.571213 -13.588725 3.836462 1.880790849211783e-38 1768976227
-27.782965 -13.693089 3.707638 1.880790849211783e-38 1768976227
-27.499565 -13.553411 -0.178116 1.880790849211783e-38 1768976227
-27.831261 -13.716891 -0.357857 1.880790849211783e-38 1768976227
-27.836668 -13.719556 3.530834 1.880790849211783e-38 1768976227
-27.784122 -13.693659 3.308886 1.880790849211783e-38 1768976227
-27.504236 -13.555715 4.598114 1.880790849211783e-38 1768976227
-27.602989 -13.604386 4.413325 1.880790849211783e-38 1768976227
-27.248331 -13.429588 3.108463 1.880790849211783e-38 1768976227
-27.928835 -13.764982 2.982420 1.880790849211783e-38 1768976227
-27.445986 -13.527006 4.219344 1.880790849211783e-38 1768976227
-27.564287 -13.585312 4.061642 1.880790849211783e-38 1768976227
-27.634773 -13.620051 1.641074 1.880790849211783e-38 1768976227
-27.622450 -13.613976 1.489262 1.880790849211783e-38 1768976227
-27.722475 -13.663276 2.732943 1.880790849211783e-38 1768976227
-27.453863 -13.530888 2.568818 1.880790849211783e-38 1768976227
-27.797653 -13.700327 1.289656 1.880790849211783e-38 1768976227
-27.627209 -13.616323 1.136939 1.880790849211783e-38 1768976227
-27.954182 -13.777474 2.418144 1.880790849211783e-38 1768976227
-28.312267 -13.953959 2.249101 1.880790849211783e-38 1768976227
-27.294394 -13.452291 0.917974 1.880790849211783e-38 1768976227
-28.151630 -13.874788 0.792831 1.880790849211783e-38 1768976227
-28.040787 -13.820158 2.067776 1.880790849211783e-38 1768976227
-27.429037 -13.518651 1.828886 1.880790849211783e-38 1768976227
-27.611212 -13.608439 -0.550093 1.880790849211783e-38 1768976227
-27.372578 -13.490825 -0.713766 1.880790849211783e-38 1768976227
-27.906820 -13.754131 0.537904 1.880790849211783e-38 1768976227
-27.697681 -13.651055 0.376070 1.880790849211783e-38 1768976227
-27.377001 -13.493004 -0.901053 1.880790849211783e-38 1768976227
-28.110468 -13.854503 -1.078943 1.880790849211783e-38 1768976227
-27.059784 -13.336663 0.182405 1.880790849211783e-38 1768976227
-27.630800 -13.618093 0.022535 1.880790849211783e-38 1768976227
-27.693201 -13.648848 4.828602 1.880790849211783e-38 1768976227
-27.707455 -13.552161 3.849715 1.880790849211783e-38 1768976227
-27.363924 -13.384135 3.646313 1.880790849211783e-38 1768976227
-27.469946 -13.435992 -0.177661 1.880790849211783e-38 1768976227
-27.216105 -13.311834 -0.349429 1.880790849211783e-38 1768976227
-27.779354 -13.587329 3.518350 1.880790849211783e-38 1768976227
-27.653704 -13.525871 3.288481 1.880790849211783e-38 1768976227
-27.866789 -13.630096 4.651832 1.880790849211783e-38 1768976227
-27.414104 -13.408680 4.376639 1.880790849211783e-38 1768976227
-27.672897 -13.535260 3.152226 1.880790849211783e-38 1768976227
-27.903000 -13.647806 2.975252 1.880790849211783e-38 1768976227
-27.712744 -13.554749 4.254049 1.880790849211783e-38 1768976227
-28.066895 -13.727970 4.129581 1.880790849211783e-38 1768976227
-27.877754 -13.635459 1.653054 1.880790849211783e-38 1768976227
-28.176769 -13.781712 1.516901 1.880790849211783e-38 1768976227
-28.427279 -13.904241 2.798277 1.880790849211783e-38 1768976227
-27.625683 -13.512166 2.581070 1.880790849211783e-38 1768976227
-27.380337 -13.392163 1.268415 1.880790849211783e-38 1768976227
-27.276997 -13.341619 1.120865 1.880790849211783e-38 1768976227
-27.623529 -13.511112 2.386005 1.880790849211783e-38 1768976227
-28.022375 -13.706196 2.222778 1.880790849211783e-38 1768976227
-27.458321 -13.430307 0.922121 1.880790849211783e-38 1768976227
-27.878147 -13.635650 0.783967 1.880790849211783e-38 1768976227
-27.042919 -13.227127 1.991241 1.880790849211783e-38 1768976227
-27.738256 -13.567228 1.846767 1.880790849211783e-38 1768976227
-27.554195 -13.477201 -0.548145 1.880790849211783e-38 1768976227
-27.781679 -13.588467 -0.723362 1.880790849211783e-38 1768976227
-27.491955 -13.446758 0.529124 1.880790849211783e-38 1768976227
-27.513578 -13.457333 0.373017 1.880790849211783e-38 1768976227
-27.028742 -13.220193 -0.888275 1.880790849211783e-38 1768976227
-27.526459 -13.463634 -1.054964 1.880790849211783e-38 1768976227
-27.862024 -13.627764 0.187535 1.880790849211783e-38 1768976227
-27.571276 -13.485556 0.022453 1.880790849211783e-38 1768976227
-27.333216 -13.369116 4.758783 1.880790849211783e-38 1768976227
-27.714916 -13.452379 3.845097 1.880790849211783e-38 1768976227
-27.550438 -13.372544 3.665776 1.880790849211783e-38 1768976227
-27.618237 -13.405453 -0.178357 1.880790849211783e-38 1768976227
-28.092318 -13.635563 -0.360149 1.880790849211783e-38 1768976227
-28.003008 -13.592215 3.541468 1.880790849211783e-38 1768976227
-27.859766 -13.522687 3.308120 1.880790849211783e-38 1768976227
-27.756126 -13.472382 4.626554 1.880790849211783e-38 1768976227
-28.222702 -13.698850 4.499114 1.880790849211783e-38 1768976227
-27.695211 -13.442815 3.150135 1.880790849211783e-38 1768976227
-28.029566 -13.605104 2.984359 1.880790849211783e-38 1768976227
-28.195723 -13.685754 4.321833 1.880790849211783e-38 1768976227
-27.530132 -13.362688 4.044658 1.880790849211783e-38 1768976227
-27.735964 -13.462595 1.642231 1.880790849211783e-38 1768976227
-28.033319 -13.606927 1.506962 1.880790849211783e-38 1768976227
-27.542627 -13.368752 2.707214 1.880790849211783e-38 1768976227
-27.727036 -13.458260 2.586735 1.880790849211783e-38 1768976227
-27.667206 -13.429221 1.279823 1.880790849211783e-38 1768976227
-27.639515 -13.415778 1.134094 1.880790849211783e-38 1768976227
-27.630465 -13.411387 2.383099 1.880790849211783e-38 1768976227
-27.511236 -13.353517 2.179029 1.880790849211783e-38 1768976227
-28.065367 -13.622481 0.941123 1.880790849211783e-38 1768976227
-27.549952 -13.372308 0.773600 1.880790849211783e-38 1768976227
-28.115370 -13.646752 2.067168 1.880790849211783e-38 1768976227
-26.868061 -13.041329 1.786204 1.880790849211783e-38 1768976227
-27.854544 -13.520151 -0.553306 1.880790849211783e-38 1768976227
-27.868010 -13.526687 -0.724544 1.880790849211783e-38 1768976227
-27.971432 -13.576887 0.537561 1.880790849211783e-38 1768976227
-27.734200 -13.461739 0.375456 1.880790849211783e-38 1768976227
-27.903730 -13.544026 -0.915684 1.880790849211783e-38 1768976227
-27.246178 -13.224860 -1.042689 1.880790849211783e-38 1768976227
-28.039242 -13.609801 0.188451 1.880790849211783e-38 1768976227
-27.795193 -13.491343 0.022602 1.880790849211783e-38 1768976227
-27.591078 -13.392269 4.796623 1.880790849211783e-38 1768976227
-28.011501 -13.492102 3.880581 1.880790849211783e-38 1768976227
-27.866083 -13.422060 3.702371 1.880790849211783e-38 1768976227
-27.233334 -13.117288 -0.175615 1.880790849211783e-38 1768976227
-28.089468 -13.529656 -0.359588 1.880790849211783e-38 1768976227
-27.852932 -13.415725 3.517355 1.880790849211783e-38 1768976227
-27.932358 -13.453982 3.311906 1.880790849211783e-38 1768976227
-27.626225 -13.306529 4.598191 1.880790849211783e-38 1768976227
-27.678890 -13.331896 4.405993 1.880790849211783e-38 1768976227
-27.831982 -13.405634 3.161078 1.880790849211783e-38 1768976227
-27.303024 -13.150856 2.902766 1.880790849211783e-38 1768976227
-27.935144 -13.455324 4.275652 1.880790849211783e-38 1768976227
-27.930431 -13.453055 4.097489 1.880790849211783e-38 1768976227
-28.438780 -13.697906 1.681391 1.880790849211783e-38 1768976227
-27.738823 -13.360764 1.488958 1.880790849211783e-38 1768976227
-27.450653 -13.221963 2.694242 1.880790849211783e-38 1768976227
-28.234692 -13.599606 2.630257 1.880790849211783e-38 1768976227
-27.793730 -13.387210 1.283802 1.880790849211783e-38 1768976227
-27.184431 -13.093734 1.113796 1.880790849211783e-38 1768976227
-27.731966 -13.357462 2.388368 1.880790849211783e-38 1768976227
-28.417807 -13.687804 2.247554 1.880790849211783e-38 1768976227
-27.756468 -13.369263 0.929409 1.880790849211783e-38 1768976227
-27.647533 -13.316792 0.775209 1.880790849211783e-38 1768976227
-27.666222 -13.325794 2.031181 1.880790849211783e-38 1768976227
-27.701210 -13.342648 1.838909 1.880790849211783e-38 1768976227
-27.696953 -13.340596 -0.549374 1.880790849211783e-38 1768976227
-27.897900 -13.437385 -0.724264 1.880790849211783e-38 1768976227
-27.888538 -13.432876 0.535187 1.880790849211783e-38 1768976227
-28.011076 -13.491898 0.378652 1.880790849211783e-38 1768976227
-27.659395 -13.322506 -0.906343 1.880790849211783e-38 1768976227
-27.652103 -13.318993 -1.056681 1.880790849211783e-38 1768976227
-27.392513 -13.193958 0.183836 1.880790849211783e-38 1768976227
-27.559595 -13.274436 0.022378 1.880790849211783e-38 1768976227
-27.884836 -13.431092 4.840628 1.880790849211783e-38 1768976227
-27.654615 -13.217596 3.825600 1.880790849211783e-38 1768976227
-27.794580 -13.284492 3.687531 1.880790849211783e-38 1768976227
-28.123043 -13.441483 -0.181091 1.880790849211783e-38 1768976227
-27.860519 -13.316009 -0.356142 1.880790849211783e-38 1768976227
-27.568838 -13.176598 3.476445 1.880790849211783e-38 1768976227
-27.659613 -13.219985 3.274825 1.880790849211783e-38 1768976227
-27.926657 -13.347618 4.641474 1.880790849211783e-38 1768976227
-27.302994 -13.049538 4.339872 1.880790849211783e-38 1768976227
-28.124817 -13.442330 3.189719 1.880790849211783e-38 1768976227
-27.822954 -13.298054 2.953766 1.880790849211783e-38 1768976227
-27.660498 -13.220407 4.227493 1.880790849211783e-38 1768976227
-28.059954 -13.411328 4.110538 1.880790849211783e-38 1768976227
-27.641071 -13.211122 1.631864 1.880790849211783e-38 1768976227
-27.945583 -13.356665 1.497887 1.880790849211783e-38 1768976227
-27.734503 -13.255778 2.718165 1.880790849211783e-38 1768976227
-28.044525 -13.403954 2.608764 1.880790849211783e-38 1768976227
-27.788353 -13.281517 1.281698 1.880790849211783e-38 1768976227
-27.790934 -13.282749 1.136999 1.880790849211783e-38 1768976227
-28.001682 -13.383478 2.408110 1.880790849211783e-38 1768976227
-27.711729 -13.244893 2.188541 1.880790849211783e-38 1768976227
-28.197456 -13.477048 0.942809 1.880790849211783e-38 1768976227
-27.698502 -13.238571 0.775515 1.880790849211783e-38 1768976227
-28.180908 -13.469138 2.065976 1.880790849211783e-38 1768976227
-27.317278 -13.056365 1.810800 1.880790849211783e-38 1768976227
-28.482704 -13.613383 -0.564142 1.880790849211783e-38 1768976227
-27.691809 -13.235373 -0.717875 1.880790849211783e-38 1768976227
-27.899712 -13.334740 0.534627 1.880790849211783e-38 1768976227
-27.827362 -13.300161 0.375624 1.880790849211783e-38 1768976227
-27.802528 -13.288292 -0.909716 1.880790849211783e-38 1768976227
-28.089190 -13.425302 -1.071832 1.880790849211783e-38 1768976227
-27.507992 -13.147516 0.184344 1.880790849211783e-38 1768976227
-27.754478 -13.265326 0.022503 1.880790849211783e-38 1768976227
-27.212545 -13.006307 4.717092 1.880790849211783e-38 1768976227
-27.807558 -13.187818 3.841238 1.880790849211783e-38 1768976227
-28.226604 -13.386551 3.739475 1.880790849211783e-38 1768976227
-28.289633 -13.416442 -0.181902 1.880790849211783e-38 1768976227
-27.790428 -13.179692 -0.354736 1.880790849211783e-38 1768976227
-28.308668 -13.425469 3.564615 1.880790849211783e-38 1768976227
-27.392750 -12.991093 3.238575 1.880790849211783e-38 1768976227
-27.934601 -13.248067 4.636133 1.880790849211783e-38 1768976227
-28.115717 -13.333963 4.462644 1.880790849211783e-38 1768976227
-27.791918 -13.180401 3.147441 1.880790849211783e-38 1768976227
-28.002853 -13.280437 2.968599 1.880790849211783e-38 1768976227
-27.820129 -13.193780 4.245790 1.880790849211783e-38 1768976227
-27.616144 -13.097039 4.039719 1.880790849211783e-38 1768976227
-27.749716 -13.160386 1.635928 1.880790849211783e-38 1768976227
-27.400194 -12.994623 1.466547 1.880790849211783e-38 1768976227
-27.884134 -13.224134 2.728908 1.880790849211783e-38 1768976227
-27.892485 -13.228093 2.590898 1.880790849211783e-38 1768976227
-27.561573 -13.071157 1.269413 1.880790849211783e-38 1768976227
-27.721811 -13.147151 1.132543 1.880790849211783e-38 1768976227
-27.924452 -13.243256 2.398022 1.880790849211783e-38 1768976227
-28.060635 -13.307839 2.212916 1.880790849211783e-38 1768976227
-28.182755 -13.365754 0.940966 1.880790849211783e-38 1768976227
-27.411978 -13.000213 0.766392 1.880790849211783e-38 1768976227
-28.627466 -13.576660 2.095702 1.880790849211783e-38 1768976227
-27.324059 -12.958516 1.808650 1.880790849211783e-38 1768976227
-27.628120 -13.102717 -0.546431 1.880790849211783e-38 1768976227
-27.737661 -13.154668 -0.718031 1.880790849211783e-38 1768976227
-27.581829 -13.080765 0.527778 1.880790849211783e-38 1768976227
-27.851885 -13.208838 0.375416 1.880790849211783e-38 1768976227
-28.099976 -13.326498 -0.918129 1.880790849211783e-38 1768976227
-28.089092 -13.321336 -1.070290 1.880790849211783e-38 1768976227
-28.170420 -13.359905 0.188512 1.880790849211783e-38 1768976227
-27.596504 -13.087724 0.022343 1.880790849211783e-38 1768976227
-27.951092 -13.255888 4.838161 1.880790849211783e-38 1768976227
-27.839684 -13.100367 3.840201 1.880790849211783e-38 1768976227
-28.173992 -13.257681 3.727191 1.880790849211783e-38 1768976227
-28.197969 -13.268963 -0.181054 1.880790849211783e-38 1768976227
-27.984333 -13.168433 -0.356703 1.880790849211783e-38 1768976227
-28.102131 -13.223865 3.533571 1.880790849211783e-38 1768976227
-27.780027 -13.072294 3.279687 1.880790849211783e-38 1768976227
-27.989067 -13.170660 4.638560 1.880790849211783e-38 1768976227
-27.633858 -13.003511 4.379917 1.880790849211783e-38 1768976227
-28.264790 -13.300406 3.196437 1.880790849211783e-38 1768976227
-27.949591 -13.152083 2.958735 1.880790849211783e-38 1768976227
-27.776188 -13.070488 4.233049 1.880790849211783e-38 1768976227
-27.968719 -13.161085 4.085469 1.880790849211783e-38 1768976227
-27.712679 -13.040603 1.631419 1.880790849211783e-38 1768976227
-27.454935 -12.919317 1.467385 1.880790849211783e-38 1768976227
-28.029621 -13.189743 2.739241 1.880790849211783e-38 1768976227
-27.806473 -13.084739 2.579232 1.880790849211783e-38 1768976227
-28.292536 -13.313462 1.301225 1.880790849211783e-38 1768976227
-27.800919 -13.082126 1.134158 1.880790849211783e-38 1768976227
-28.199057 -13.269475 2.418157 1.880790849211783e-38 1768976227
-27.859423 -13.109655 2.193921 1.880790849211783e-38 1768976227
-27.828623 -13.095161 0.927819 1.880790849211783e-38 1768976227
-27.320244 -12.855937 0.762739 1.880790849211783e-38 1768976227
-28.451998 -13.388500 2.079892 1.880790849211783e-38 1768976227
-27.799007 -13.081226 1.837469 1.880790849211783e-38 1768976227
-27.735294 -13.051244 -0.547769 1.880790849211783e-38 1768976227
-27.721397 -13.044704 -0.716589 1.880790849211783e-38 1768976227
-28.183165 -13.261997 0.538516 1.880790849211783e-38 1768976227
-28.354712 -13.342721 0.381649 1.880790849211783e-38 1768976227
-27.777498 -13.071105 -0.906301 1.880790849211783e-38 1768976227
-28.026175 -13.188122 -1.066372 1.880790849211783e-38 1768976227
-28.347006 -13.339094 0.189424 1.880790849211783e-38 1768976227
-27.950850 -13.152678 0.022598 1.880790849211783e-38 1768976227
-27.914812 -13.135719 4.825003 1.880790849211783e-38 1768976227
-27.867952 -13.011154 3.838670 1.880790849211783e-38 1768976227
-27.734869 -12.949018 3.663916 1.880790849211783e-38 1768976227
-28.872583 -13.480201 -0.185124 1.880790849211783e-38 1768976227
-27.505407 -12.841887 -0.350103 1.880790849211783e-38 1768976227
-27.834862 -12.995704 3.495020 1.880790849211783e-38 1768976227
-28.053881 -13.097961 3.307339 1.880790849211783e-38 1768976227
-28.241461 -13.185538 4.673776 1.880790849211783e-38 1768976227
-28.140507 -13.138405 4.453919 1.880790849211783e-38 1768976227
-28.346640 -13.234645 3.201165 1.880790849211783e-38 1768976227
-28.022867 -13.083481 2.962301 1.880790849211783e-38 1768976227
-28.042246 -13.092529 4.267559 1.880790849211783e-38 1768976227
-28.584106 -13.345514 4.169462 1.880790849211783e-38 1768976227
-27.552824 -12.864024 1.619717 1.880790849211783e-38 1768976227
-28.062262 -13.101872 1.497726 1.880790849211783e-38 1768976227
-28.077732 -13.109097 2.740067 1.880790849211783e-38 1768976227
-27.833870 -12.995239 2.578125 1.880790849211783e-38 1768976227
-28.472597 -13.293453 1.307656 1.880790849211783e-38 1768976227
-28.025585 -13.084749 1.141709 1.880790849211783e-38 1768976227
-28.374359 -13.247588 2.429752 1.880790849211783e-38 1768976227
-27.577356 -12.875479 2.168640 1.880790849211783e-38 1768976227
-27.981316 -13.064080 0.931592 1.880790849211783e-38 1768976227
-28.242571 -13.186057 0.787376 1.880790849211783e-38 1768976227
-28.286655 -13.206638 2.064883 1.880790849211783e-38 1768976227
-28.071709 -13.106282 1.852873 1.880790849211783e-38 1768976227
-27.993542 -13.069788 -0.552089 1.880790849211783e-38 1768976227
-28.081659 -13.110929 -0.724876 1.880790849211783e-38 1768976227
-28.094200 -13.116784 0.536058 1.880790849211783e-38 1768976227
-27.886377 -13.019755 0.374815 1.880790849211783e-38 1768976227
-27.814466 -12.986180 -0.906225 1.880790849211783e-38 1768976227
-28.101007 -13.119963 -1.067709 1.880790849211783e-38 1768976227
-28.257370 -13.192967 0.188558 1.880790849211783e-38 1768976227
-27.890501 -13.021681 0.022517 1.880790849211783e-38 1768976227
-27.745501 -12.953980 4.788963 1.880790849211783e-38 1768976227
-28.532816 -13.216902 3.924743 1.880790849211783e-38 1768976227
-28.159346 -13.043904 3.714777 1.880790849211783e-38 1768976227
-28.046356 -12.991567 -0.179574 1.880790849211783e-38 1768976227
-27.678740 -12.821280 -0.351815 1.880790849211783e-38 1768976227
-28.176630 -13.051910 3.532975 1.880790849211783e-38 1768976227
-28.163979 -13.046051 3.315665 1.880790849211783e-38 1768976227
-28.177092 -13.052123 4.656588 1.880790849211783e-38 1768976227
-27.700821 -12.831507 4.378183 1.880790849211783e-38 1768976227
-28.112499 -13.022204 3.170274 1.880790849211783e-38 1768976227
-27.922602 -12.934240 2.947565 1.880790849211783e-38 1768976227
-27.959362 -12.951268 4.248981 1.880790849211783e-38 1768976227
-27.740679 -12.849970 4.040763 1.880790849211783e-38 1768976227
-27.877491 -12.913344 1.636506 1.880790849211783e-38 1768976227
-28.132505 -13.031472 1.499370 1.880790849211783e-38 1768976227
-28.039394 -12.988340 2.732490 1.880790849211783e-38 1768976227
-27.925131 -12.935411 2.582953 1.880790849211783e-38 1768976227
-28.299723 -13.108929 1.297895 1.880790849211783e-38 1768976227
-27.809925 -12.882047 1.131335 1.880790849211783e-38 1768976227
-28.186577 -13.056519 2.410289 1.880790849211783e-38 1768976227
-27.830751 -12.891693 2.185499 1.880790849211783e-38 1768976227
-27.739605 -12.849473 0.922250 1.880790849211783e-38 1768976227
-28.435986 -13.172050 0.791657 1.880790849211783e-38 1768976227
-28.278334 -13.099023 2.061383 1.880790849211783e-38 1768976227
-27.635191 -12.801106 1.821504 1.880790849211783e-38 1768976227
-27.592945 -12.781538 -0.543426 1.880790849211783e-38 1768976227
-28.126488 -13.028684 -0.725016 1.880790849211783e-38 1768976227
-27.900146 -12.923839 0.531609 1.880790849211783e-38 1768976227
-27.845871 -12.898697 0.373746 1.880790849211783e-38 1768976227
-27.683830 -12.823637 -0.900704 1.880790849211783e-38 1768976227
-28.077496 -13.005990 -1.065321 1.880790849211783e-38 1768976227
-28.208244 -13.066555 0.187967 1.880790849211783e-38 1768976227
-28.074377 -13.004545 0.022634 1.880790849211783e-38 1768976227
-27.746307 -12.852577 4.782390 1.880790849211783e-38 1768976227
-28.326551 -13.017738 3.890953 1.880790849211783e-38 1768976227
-28.102079 -12.914578 3.702067 1.880790849211783e-38 1768976227
-28.069147 -12.899444 -0.179470 1.880790849211783e-38 1768976227
-28.056620 -12.893686 -0.356122 1.880790849211783e-38 1768976227
-27.792601 -12.772355 3.479977 1.880790849211783e-38 1768976227
-28.139948 -12.931981 3.308229 1.880790849211783e-38 1768976227
-28.162233 -12.942225 4.647661 1.880790849211783e-38 1768976227
-28.622688 -13.153831 4.517596 1.880790849211783e-38 1768976227
-28.498016 -13.096534 3.209280 1.880790849211783e-38 1768976227
-27.814962 -12.782633 2.932119 1.880790849211783e-38 1768976227
-28.487110 -13.091523 4.323163 1.880790849211783e-38 1768976227
-27.983429 -12.860051 4.070455 1.880790849211783e-38 1768976227
-28.238070 -12.977076 1.655368 1.880790849211783e-38 1768976227
-27.916775 -12.829420 1.485804 1.880790849211783e-38 1768976227
-27.850565 -12.798993 2.710314 1.880790849211783e-38 1768976227
-28.170582 -12.946059 2.602033 1.880790849211783e-38 1768976227
-28.015829 -12.874941 1.283088 1.880790849211783e-38 1768976227
-28.231926 -12.974251 1.146906 1.880790849211783e-38 1768976227
-28.148596 -12.935956 2.403694 1.880790849211783e-38 1768976227
-28.007448 -12.871091 2.196317 1.880790849211783e-38 1768976227
-28.538242 -13.115021 0.947483 1.880790849211783e-38 1768976227
-28.175442 -12.948293 0.783312 1.880790849211783e-38 1768976227
-28.695322 -13.187209 2.088871 1.880790849211783e-38 1768976227
-28.570459 -13.129827 1.880531 1.880790849211783e-38 1768976227
-27.948780 -12.844129 -0.549668 1.880790849211783e-38 1768976227
-28.093035 -12.910422 -0.723146 1.880790849211783e-38 1768976227
-27.961134 -12.849805 0.532030 1.880790849211783e-38 1768976227
-27.969416 -12.853612 0.374883 1.880790849211783e-38 1768976227
-27.727751 -12.742554 -0.900879 1.880790849211783e-38 1768976227
-28.240261 -12.978082 -1.070006 1.880790849211783e-38 1768976227
-27.939552 -12.839888 0.185917 1.880790849211783e-38 1768976227
-27.869133 -12.807526 0.022437 1.880790849211783e-38 1768976227
-27.411814 -12.597362 4.718166 1.880790849211783e-38 1768976227
-28.108429 -12.814960 3.855665 1.880790849211783e-38 1768976227
-28.442772 -12.967391 3.741780 1.880790849211783e-38 1768976227
-28.468956 -12.979329 -0.181776 1.880790849211783e-38 1768976227
-27.967459 -12.750689 -0.354501 1.880790849211783e-38 1768976227
-28.196302 -12.855023 3.525655 1.880790849211783e-38 1768976227
-27.932602 -12.734798 3.279322 1.880790849211783e-38 1768976227
-28.068996 -12.796983 4.625883 1.880790849211783e-38 1768976227
-28.072489 -12.798574 4.424644 1.880790849211783e-38 1768976227
-27.965164 -12.749644 3.144929 1.880790849211783e-38 1768976227
-28.183054 -12.848983 2.966823 1.880790849211783e-38 1768976227
-28.193760 -12.853864 4.272742 1.880790849211783e-38 1768976227
-28.113417 -12.817235 4.083721 1.880790849211783e-38 1768976227
-28.601004 -13.039531 1.674331 1.880790849211783e-38 1768976227
-28.006069 -12.768293 1.488500 1.880790849211783e-38 1768976227
-28.146286 -12.832220 2.735314 1.880790849211783e-38 1768976227
-28.621725 -13.048977 2.640056 1.880790849211783e-38 1768976227
-28.081013 -12.802462 1.284299 1.880790849211783e-38 1768976227
-27.683842 -12.621385 1.123088 1.880790849211783e-38 1768976227
-28.171288 -12.843617 2.402313 1.880790849211783e-38 1768976227
-28.726397 -13.096698 2.249588 1.880790849211783e-38 1768976227
-28.147160 -12.832618 0.933210 1.880790849211783e-38 1768976227
-28.086678 -12.805043 0.779767 1.880790849211783e-38 1768976227
-27.911791 -12.725309 2.029031 1.880790849211783e-38 1768976227
-28.292566 -12.898910 1.859671 1.880790849211783e-38 1768976227
-28.022123 -12.775612 -0.550350 1.880790849211783e-38 1768976227
-27.772255 -12.661694 -0.713903 1.880790849211783e-38 1768976227
-28.036190 -12.782024 0.532723 1.880790849211783e-38 1768976227
-28.196182 -12.854967 0.377401 1.880790849211783e-38 1768976227
-27.724466 -12.639906 -0.899530 1.880790849211783e-38 1768976227
-28.322643 -12.912622 -1.071647 1.880790849211783e-38 1768976227
-27.989563 -12.760767 0.185993 1.880790849211783e-38 1768976227
-27.813061 -12.680299 0.022361 1.880790849211783e-38 1768976227
-28.064182 -12.794787 4.823789 1.880790849211783e-38 1768976227
-28.417454 -12.852468 3.892719 1.880790849211783e-38 1768976227
-28.082470 -12.700963 3.689324 1.880790849211783e-38 1768976227
-28.012136 -12.669153 -0.178614 1.880790849211783e-38 1768976227
-27.963202 -12.647021 -0.353962 1.880790849211783e-38 1768976227
-27.963875 -12.647326 3.491807 1.880790849211783e-38 1768976227
-28.400909 -12.844985 3.329739 1.880790849211783e-38 1768976227
-28.825632 -13.037076 4.744078 1.880790849211783e-38 1768976227
-28.469122 -12.875836 4.481018 1.880790849211783e-38 1768976227
-27.765285 -12.557509 3.118177 1.880790849211783e-38 1768976227
-28.170517 -12.740786 2.961445 1.880790849211783e-38 1768976227
-27.850868 -12.596216 4.215001 1.880790849211783e-38 1768976227
-27.758083 -12.554252 4.026587 1.880790849211783e-38 1768976227
-28.078239 -12.699051 1.641478 1.880790849211783e-38 1768976227
-27.873409 -12.606410 1.479421 1.880790849211783e-38 1768976227
-28.250181 -12.776814 2.741653 1.880790849211783e-38 1768976227
-27.703518 -12.529573 2.551864 1.880790849211783e-38 1768976227
-28.286835 -12.793392 1.291942 1.880790849211783e-38 1768976227
-27.510340 -12.442204 1.114522 1.880790849211783e-38 1768976227
-27.891499 -12.614592 2.375199 1.880790849211783e-38 1768976227
-28.012655 -12.669390 2.190692 1.880790849211783e-38 1768976227
-28.035522 -12.679729 0.928236 1.880790849211783e-38 1768976227
-28.361208 -12.827029 0.786311 1.880790849211783e-38 1768976227
-28.610731 -12.939883 2.076993 1.880790849211783e-38 1768976227
-28.332378 -12.813992 1.859739 1.880790849211783e-38 1768976227
-28.056339 -12.689146 -0.550268 1.880790849211783e-38 1768976227
-28.174559 -12.742613 -0.723253 1.880790849211783e-38 1768976227
-28.142061 -12.727915 0.534002 1.880790849211783e-38 1768976227
-28.218130 -12.762320 0.377178 1.880790849211783e-38 1768976227
-28.183081 -12.746467 -0.913158 1.880790849211783e-38 1768976227
-28.183121 -12.746486 -1.064909 1.880790849211783e-38 1768976227
-28.456520 -12.870137 0.188837 1.880790849211783e-38 1768976227
-28.223192 -12.764608 0.022660 1.880790849211783e-38 1768976227
-28.546719 -12.910933 4.900014 1.880790849211783e-38 1768976227
-28.390436 -12.737249 3.883738 1.880790849211783e-38 1768976227
-28.508303 -12.790129 3.740183 1.880790849211783e-38 1768976227
-28.513079 -12.792273 -0.181561 1.880790849211783e-38 1768976227
-28.578506 -12.821626 -0.361259 1.880790849211783e-38 1768976227
-27.866873 -12.502354 3.474970 1.880790849211783e-38 1768976227
-28.507202 -12.789636 3.337663 1.880790849211783e-38 1768976227
-27.926090 -12.528922 4.589793 1.880790849211783e-38 1768976227
-28.438763 -12.758930 4.470162 1.880790849211783e-38 1768976227
-28.312014 -12.702065 3.175261 1.880790849211783e-38 1768976227
-28.238941 -12.669280 2.964607 1.880790849211783e-38 1768976227
-28.204700 -12.653919 4.262755 1.880790849211783e-38 1768976227
-28.358208 -12.722790 4.108056 1.880790849211783e-38 1768976227
-28.507158 -12.789617 1.664290 1.880790849211783e-38 1768976227
-28.494818 -12.784079 1.510350 1.880790849211783e-38 1768976227
-28.594881 -12.828972 2.771339 1.880790849211783e-38 1768976227
-28.292191 -12.693171 2.602551 1.880790849211783e-38 1768976227
-28.205351 -12.654211 1.286471 1.880790849211783e-38 1768976227
-28.146351 -12.627741 1.138741 1.880790849211783e-38 1768976227
-28.312046 -12.702080 2.407739 1.880790849211783e-38 1768976227
-28.116432 -12.614318 2.195823 1.880790849211783e-38 1768976227
-28.056293 -12.587338 0.927663 1.880790849211783e-38 1768976227
-28.311083 -12.701648 0.783856 1.880790849211783e-38 1768976227
-28.008726 -12.565996 2.030530 1.880790849211783e-38 1768976227
-28.528301 -12.799102 1.870057 1.880790849211783e-38 1768976227
-27.775057 -12.461162 -0.544012 1.880790849211783e-38 1768976227
-28.389801 -12.736964 -0.727789 1.880790849211783e-38 1768976227
-28.110323 -12.611577 0.532676 1.880790849211783e-38 1768976227
-28.384754 -12.734699 0.378890 1.880790849211783e-38 1768976227
-27.853237 -12.496237 -0.901246 1.880790849211783e-38 1768976227
-28.392696 -12.738264 -1.071371 1.880790849211783e-38 1768976227
-28.143064 -12.626267 0.186504 1.880790849211783e-38 1768976227
-28.466476 -12.771364 0.022824 1.880790849211783e-38 1768976227
-27.731678 -12.441699 4.753650 1.880790849211783e-38 1768976227
-28.236347 -12.565969 3.857458 1.880790849211783e-38 1768976227
-28.459045 -12.665076 3.728693 1.880790849211783e-38 1768976227
-28.169054 -12.536021 -0.179129 1.880790849211783e-38 1768976227
-28.647396 -12.748899 -0.361642 1.880790849211783e-38 1768976227
-28.657816 -12.753535 3.568788 1.880790849211783e-38 1768976227
-28.034309 -12.476058 3.277877 1.880790849211783e-38 1768976227
-28.489180 -12.678487 4.676034 1.880790849211783e-38 1768976227
-28.353729 -12.618209 4.450795 1.880790849211783e-38 1768976227
-28.534712 -12.698750 3.195927 1.880790849211783e-38 1768976227
-28.316742 -12.601748 2.968772 1.880790849211783e-38 1768976227
-28.369785 -12.625353 4.281931 1.880790849211783e-38 1768976227
-28.368290 -12.624689 4.103983 1.880790849211783e-38 1768976227
-27.470362 -12.225083 1.601601 1.880790849211783e-38 1768976227
-28.247982 -12.571146 1.495251 1.880790849211783e-38 1768976227
-28.284056 -12.587201 2.737523 1.880790849211783e-38 1768976227
-28.217627 -12.557638 2.592196 1.880790849211783e-38 1768976227
-28.024548 -12.471713 1.276504 1.880790849211783e-38 1768976227
-28.099075 -12.504879 1.135297 1.880790849211783e-38 1768976227
-28.780558 -12.808158 2.444287 1.880790849211783e-38 1768976227
-28.342562 -12.613237 2.210502 1.880790849211783e-38 1768976227
-28.394426 -12.636320 0.937579 1.880790849211783e-38 1768976227
-28.079802 -12.496302 0.776406 1.880790849211783e-38 1768976227
-28.667372 -12.757787 2.075481 1.880790849211783e-38 1768976227
-28.528139 -12.695825 1.867528 1.880790849211783e-38 1768976227
-28.269867 -12.580886 -0.552958 1.880790849211783e-38 1768976227
-28.898924 -12.860835 -0.739843 1.880790849211783e-38 1768976227
-28.580673 -12.719205 0.540860 1.880790849211783e-38 1768976227
-28.319883 -12.603145 0.377515 1.880790849211783e-38 1768976227
-28.417625 -12.646644 -0.918269 1.880790849211783e-38 1768976227
-27.859560 -12.398288 -1.049838 1.880790849211783e-38 1768976227
-28.995886 -12.903986 0.191896 1.880790849211783e-38 1768976227
-27.760462 -12.354187 0.022228 1.880790849211783e-38 1768976227
-28.633253 -12.742605 4.901586 1.880790849211783e-38 1768976227
-28.470680 -12.567518 3.884275 1.880790849211783e-38 1768976227
-28.145977 -12.424187 3.682749 1.880790849211783e-38 1768976227
-28.546165 -12.600839 -0.181285 1.880790849211783e-38 1768976227
-28.684555 -12.661927 -0.361628 1.880790849211783e-38 1768976227
-28.054878 -12.383975 3.489036 1.880790849211783e-38 1768976227
-28.766930 -12.698290 3.359044 1.880790849211783e-38 1768976227
-28.467844 -12.566267 4.666291 1.880790849211783e-38 1768976227
-28.194780 -12.445730 4.419931 1.880790849211783e-38 1768976227
-28.550625 -12.602808 3.193438 1.880790849211783e-38 1768976227
-27.927082 -12.327563 2.924008 1.880790849211783e-38 1768976227
-28.109465 -12.408070 4.236973 1.880790849211783e-38 1768976227
-28.497440 -12.579330 4.117160 1.880790849211783e-38 1768976227
-28.256769 -12.473094 1.645250 1.880790849211783e-38 1768976227
-28.787933 -12.707561 1.521796 1.880790849211783e-38 1768976227
-28.406563 -12.539215 2.745708 1.880790849211783e-38 1768976227
-28.238369 -12.464972 2.590636 1.880790849211783e-38 1768976227
-28.279438 -12.483100 1.286393 1.880790849211783e-38 1768976227
-28.469208 -12.566869 1.148715 1.880790849211783e-38 1768976227
-28.539259 -12.597790 2.420556 1.880790849211783e-38 1768976227
-28.802700 -12.714078 2.243389 1.880790849211783e-38 1768976227
-28.619745 -12.633319 0.943756 1.880790849211783e-38 1768976227
-28.085548 -12.397513 0.775527 1.880790849211783e-38 1768976227
-28.485020 -12.573848 2.059524 1.880790849211783e-38 1768976227
-28.895912 -12.755224 1.889077 1.880790849211783e-38 1768976227
-28.053055 -12.383171 -0.547984 1.880790849211783e-38 1768976227
-28.490288 -12.576173 -0.728407 1.880790849211783e-38 1768976227
-28.611389 -12.629630 0.540718 1.880790849211783e-38 1768976227
-28.621994 -12.634311 0.381032 1.880790849211783e-38 1768976227
-28.426632 -12.548075 -0.917333 1.880790849211783e-38 1768976227
-28.381924 -12.528339 -1.068094 1.880790849211783e-38 1768976227
-28.627174 -12.636599 0.189203 1.880790849211783e-38 1768976227
-28.139263 -12.421224 0.022501 1.880790849211783e-38 1768976227
-28.275963 -12.481567 4.833957 1.880790849211783e-38 1768976227
-28.501181 -12.478410 3.883284 1.880790849211783e-38 1768976227
-28.699226 -12.565118 3.750163 1.880790849211783e-38 1768976227
-28.337685 -12.406828 -0.179722 1.880790849211783e-38 1768976227
-28.591572 -12.517985 -0.359978 1.880790849211783e-38 1768976227
-28.882851 -12.645512 3.587247 1.880790849211783e-38 1768976227
-28.427271 -12.446050 3.314984 1.880790849211783e-38 1768976227
-28.497622 -12.476851 4.664982 1.880790849211783e-38 1768976227
-28.792742 -12.606060 4.507689 1.880790849211783e-38 1768976227
-28.387625 -12.428693 3.170999 1.880790849211783e-38 1768976227
-27.940868 -12.233093 2.921576 1.880790849211783e-38 1768976227
-28.532928 -12.492309 4.295104 1.880790849211783e-38 1768976227
-28.222916 -12.356579 4.072095 1.880790849211783e-38 1768976227
-28.441801 -12.452412 1.653829 1.880790849211783e-38 1768976227
-28.641975 -12.540052 1.512075 1.880790849211783e-38 1768976227
-28.302340 -12.391354 2.732009 1.880790849211783e-38 1768976227
-28.591726 -12.518052 2.619579 1.880790849211783e-38 1768976227
-28.636383 -12.537603 1.300904 1.880790849211783e-38 1768976227
-28.326508 -12.401934 1.141443 1.880790849211783e-38 1768976227
-28.825586 -12.620441 2.441601 1.880790849211783e-38 1768976227
-28.044878 -12.278630 2.181469 1.880790849211783e-38 1768976227
-28.630474 -12.535016 0.942859 1.880790849211783e-38 1768976227
-28.272200 -12.378157 0.779647 1.880790849211783e-38 1768976227
-28.411625 -12.439200 2.051496 1.880790849211783e-38 1768976227
-28.191149 -12.342671 1.840561 1.880790849211783e-38 1768976227
-28.171133 -12.333908 -0.549561 1.880790849211783e-38 1768976227
-28.368376 -12.420265 -0.724329 1.880790849211783e-38 1768976227
-28.129885 -12.315847 0.530913 1.880790849211783e-38 1768976227
-28.844345 -12.628654 0.383484 1.880790849211783e-38 1768976227
-28.343189 -12.409236 -0.913429 1.880790849211783e-38 1768976227
-28.413853 -12.440177 -1.067879 1.880790849211783e-38 1768976227
-28.375488 -12.423379 0.187291 1.880790849211783e-38 1768976227
-28.134401 -12.317826 0.022468 1.880790849211783e-38 1768976227
-28.240046 -12.364078 4.821419 1.880790849211783e-38 1768976227
-29.174671 -12.668559 3.969823 1.880790849211783e-38 1768976227
-28.403004 -12.333475 3.706578 1.880790849211783e-38 1768976227
-28.302378 -12.289781 -0.179263 1.880790849211783e-38 1768976227
-28.362377 -12.315835 -0.356623 1.880790849211783e-38 1768976227
-28.327711 -12.300780 3.513675 1.880790849211783e-38 1768976227
-28.559361 -12.401370 3.326011 1.880790849211783e-38 1768976227
-28.337906 -12.305209 4.632741 1.880790849211783e-38 1768976227
-28.553089 -12.398647 4.464296 1.880790849211783e-38 1768976227
-28.737635 -12.478784 3.205878 1.880790849211783e-38 1768976227
-28.682789 -12.454966 2.995211 1.880790849211783e-38 1768976227
-28.121414 -12.211201 4.227594 1.880790849211783e-38 1768976227
-28.165756 -12.230455 4.058507 1.880790849211783e-38 1768976227
-28.165186 -12.230207 1.635592 1.880790849211783e-38 1768976227
-28.521551 -12.384953 1.503738 1.880790849211783e-38 1768976227
-28.833212 -12.520286 2.779596 1.880790849211783e-38 1768976227
-28.132132 -12.215855 2.574083 1.880790849211783e-38 1768976227
-28.761223 -12.489025 1.304858 1.880790849211783e-38 1768976227
-28.091572 -12.198242 1.130488 1.880790849211783e-38 1768976227
-28.631279 -12.432600 2.421955 1.880790849211783e-38 1768976227
-29.074436 -12.625033 2.258581 1.880790849211783e-38 1768976227
-29.127577 -12.648108 0.957969 1.880790849211783e-38 1768976227
-28.474566 -12.364550 0.784195 1.880790849211783e-38 1768976227
-28.400434 -12.332359 2.047993 1.880790849211783e-38 1768976227
-28.489269 -12.370935 1.857580 1.880790849211783e-38 1768976227
-28.976749 -12.582614 -0.564534 1.880790849211783e-38 1768976227
-27.991228 -12.154670 -0.713760 1.880790849211783e-38 1768976227
-28.724705 -12.473169 0.541427 1.880790849211783e-38 1768976227
-28.319607 -12.297262 0.376012 1.880790849211783e-38 1768976227
-28.900099 -12.549330 -0.930152 1.880790849211783e-38 1768976227
-28.664680 -12.447104 -1.075890 1.880790849211783e-38 1768976227
-28.390644 -12.328109 0.187145 1.880790849211783e-38 1768976227
-28.317650 -12.296413 0.022584 1.880790849211783e-38 1768976227
-28.475206 -12.364829 4.855179 1.880790849211783e-38 1768976227
-28.364868 -12.215369 3.854602 1.880790849211783e-38 1768976227
-28.637943 -12.332971 3.732366 1.880790849211783e-38 1768976227
-28.480047 -12.264972 -0.180153 1.880790849211783e-38 1768976227
-28.245672 -12.164038 -0.354693 1.880790849211783e-38 1768976227
-29.006804 -12.491820 3.593218 1.880790849211783e-38 1768976227
-28.770632 -12.390113 3.346248 1.880790849211783e-38 1768976227
-28.558048 -12.298564 4.662645 1.880790849211783e-38 1768976227
-28.766663 -12.388404 4.491827 1.880790849211783e-38 1768976227
-28.811802 -12.407843 3.209962 1.880790849211783e-38 1768976227
-28.386425 -12.224654 2.960400 1.880790849211783e-38 1768976227
-28.841240 -12.420521 4.330158 1.880790849211783e-38 1768976227
-28.417969 -12.238237 4.089512 1.880790849211783e-38 1768976227
-28.529890 -12.286437 1.654612 1.880790849211783e-38 1768976227
-28.632893 -12.330794 1.507641 1.880790849211783e-38 1768976227
-28.867266 -12.431728 2.779252 1.880790849211783e-38 1768976227
-28.255735 -12.168372 2.582023 1.880790849211783e-38 1768976227
-28.040699 -12.075766 1.270511 1.880790849211783e-38 1768976227
-28.768412 -12.389156 1.156218 1.880790849211783e-38 1768976227
-29.133852 -12.546535 2.461257 1.880790849211783e-38 1768976227
-29.123417 -12.542040 2.259437 1.880790849211783e-38 1768976227
-28.541607 -12.291483 0.937474 1.880790849211783e-38 1768976227
-28.494297 -12.271110 0.783716 1.880790849211783e-38 1768976227
-28.409103 -12.234421 2.045948 1.880790849211783e-38 1768976227
-28.691034 -12.355834 1.868297 1.880790849211783e-38 1768976227
-28.451920 -12.252857 -0.553587 1.880790849211783e-38 1768976227
-28.824551 -12.413333 -0.734052 1.880790849211783e-38 1768976227
-28.639381 -12.333591 0.539116 1.880790849211783e-38 1768976227
-28.943296 -12.464471 0.383792 1.880790849211783e-38 1768976227
-28.821836 -12.412164 -0.926424 1.880790849211783e-38 1768976227
-28.840820 -12.420338 -1.081090 1.880790849211783e-38 1768976227
-28.848328 -12.423572 0.189914 1.880790849211783e-38 1768976227
-28.670698 -12.347075 0.022836 1.880790849211783e-38 1768976227
-28.816866 -12.410023 4.907030 1.880790849211783e-38 1768976227
-28.594902 -12.212331 3.880839 1.880790849211783e-38 1768976227
-28.189007 -12.038980 3.669108 1.880790849211783e-38 1768976227
-28.942644 -12.360845 -0.182842 1.880790849211783e-38 1768976227
-28.510635 -12.176342 -0.357557 1.880790849211783e-38 1768976227
-28.574623 -12.203671 3.535106 1.880790849211783e-38 1768976227
-28.398067 -12.128266 3.298647 1.880790849211783e-38 1768976227
-28.764296 -12.284674 4.690248 1.880790849211783e-38 1768976227
-28.857817 -12.324616 4.500235 1.880790849211783e-38 1768976227
-28.449888 -12.150397 3.165544 1.880790849211783e-38 1768976227
-28.819519 -12.308261 3.001682 1.880790849211783e-38 1768976227
-28.633547 -12.228834 4.293418 1.880790849211783e-38 1768976227
-28.587950 -12.209361 4.108656 1.880790849211783e-38 1768976227
-28.954983 -12.366113 1.677095 1.880790849211783e-38 1768976227
-28.801744 -12.300668 1.514571 1.880790849211783e-38 1768976227
-28.250290 -12.065153 2.716335 1.880790849211783e-38 1768976227
-28.729797 -12.269941 2.621950 1.880790849211783e-38 1768976227
-28.825239 -12.310702 1.304370 1.880790849211783e-38 1768976227
-28.682659 -12.249809 1.151281 1.880790849211783e-38 1768976227
-28.580374 -12.206125 2.411377 1.880790849211783e-38 1768976227
-28.987963 -12.380198 2.246021 1.880790849211783e-38 1768976227
-28.866226 -12.328209 0.946911 1.880790849211783e-38 1768976227
-28.428053 -12.141072 0.780883 1.880790849211783e-38 1768976227
-29.215309 -12.477295 2.101289 1.880790849211783e-38 1768976227
-28.759253 -12.282520 1.870319 1.880790849211783e-38 1768976227
-28.709206 -12.261146 -0.557871 1.880790849211783e-38 1768976227
-29.009583 -12.389432 -0.737809 1.880790849211783e-38 1768976227
-28.878202 -12.333322 0.542908 1.880790849211783e-38 1768976227
-28.852680 -12.322423 0.382096 1.880790849211783e-38 1768976227
-28.736502 -12.272805 -0.922488 1.880790849211783e-38 1768976227
-28.958185 -12.367481 -1.084086 1.880790849211783e-38 1768976227
-28.409611 -12.133196 0.186784 1.880790849211783e-38 1768976227
-28.813602 -12.305733 0.022920 1.880790849211783e-38 1768976227
-29.037045 -12.401161 4.938132 1.880790849211783e-38 1768976227
-28.748552 -12.175563 3.896691 1.880790849211783e-38 1768976227
-28.760727 -12.180718 3.738724 1.880790849211783e-38 1768976227
-28.667528 -12.141248 -0.180872 1.880790849211783e-38 1768976227
-28.966528 -12.267880 -0.362809 1.880790849211783e-38 1768976227
-28.769901 -12.184604 3.554702 1.880790849211783e-38 1768976227
-28.404882 -12.030011 3.295209 1.880790849211783e-38 1768976227
-29.484636 -12.487309 4.801543 1.880790849211783e-38 1768976227
-28.317698 -11.993087 4.410346 1.880790849211783e-38 1768976227
-28.625673 -12.123521 3.181020 1.880790849211783e-38 1768976227
-28.969728 -12.269235 3.013459 1.880790849211783e-38 1768976227
-28.731791 -12.168464 4.302627 1.880790849211783e-38 1768976227
-28.591211 -12.108926 4.103858 1.880790849211783e-38 1768976227
-28.747402 -12.175075 1.662937 1.880790849211783e-38 1768976227
-28.655901 -12.136323 1.504970 1.880790849211783e-38 1768976227
-28.810776 -12.201916 2.766676 1.880790849211783e-38 1768976227
-29.083256 -12.317315 2.650805 1.880790849211783e-38 1768976227
-29.171173 -12.354550 1.318331 1.880790849211783e-38 1768976227
-28.889771 -12.235371 1.158108 1.880790849211783e-38 1768976227
-29.026344 -12.293213 2.445865 1.880790849211783e-38 1768976227
-28.899902 -12.239662 2.236328 1.880790849211783e-38 1768976227
-28.659729 -12.137943 0.938932 1.880790849211783e-38 1768976227
-28.750515 -12.176394 0.788729 1.880790849211783e-38 1768976227
-28.648605 -12.133234 2.057888 1.880790849211783e-38 1768976227
-28.771969 -12.185480 1.868747 1.880790849211783e-38 1768976227
-28.959244 -12.264794 -0.562008 1.880790849211783e-38 1768976227
-28.691574 -12.151431 -0.728785 1.880790849211783e-38 1768976227
-28.682505 -12.147591 0.538538 1.880790849211783e-38 1768976227
-29.028370 -12.294069 0.383930 1.880790849211783e-38 1768976227
-28.600054 -12.112670 -0.916930 1.880790849211783e-38 1768976227
-28.684610 -12.148482 -1.072468 1.880790849211783e-38 1768976227
-28.952229 -12.261823 0.190108 1.880790849211783e-38 1768976227
-28.725836 -12.165942 0.022821 1.880790849211783e-38 1768976227
-28.642784 -12.130767 4.864838 1.880790849211783e-38 1768976227
-28.898600 -12.136465 3.912050 1.880790849211783e-38 1768976227
-28.758451 -12.077608 3.733677 1.880790849211783e-38 1768976227
-28.861343 -12.120819 -0.181864 1.880790849211783e-38 1768976227
-28.197304 -11.841944 -0.352725 1.880790849211783e-38 1768976227
-28.644524 -12.029763 3.534713 1.880790849211783e-38 1768976227
-28.636673 -12.026464 3.317876 1.880790849211783e-38 1768976227
-28.971779 -12.167198 4.712028 1.880790849211783e-38 1768976227
-28.762777 -12.079424 4.473971 1.880790849211783e-38 1768976227
-28.893814 -12.134457 3.206736 1.880790849211783e-38 1768976227
-28.769064 -12.082065 2.988782 1.880790849211783e-38 1768976227
-28.872263 -12.125405 4.318168 1.880790849211783e-38 1768976227
-29.288845 -12.300356 4.198649 1.880790849211783e-38 1768976227
-29.240643 -12.280112 1.689320 1.880790849211783e-38 1768976227
-29.477949 -12.379774 1.546176 1.880790849211783e-38 1768976227
-29.014549 -12.185161 2.782703 1.880790849211783e-38 1768976227
-28.615658 -12.017639 2.604870 1.880790849211783e-38 1768976227
-29.118021 -12.228617 1.314257 1.880790849211783e-38 1768976227
-28.389763 -11.922772 1.136617 1.880790849211783e-38 1768976227
-28.286243 -11.879295 2.380472 1.880790849211783e-38 1768976227
-28.956673 -12.160854 2.237873 1.880790849211783e-38 1768976227
-28.617941 -12.018599 0.936371 1.880790849211783e-38 1768976227
-28.845444 -12.114141 0.790327 1.880790849211783e-38 1768976227
-28.420952 -11.935869 2.038940 1.880790849211783e-38 1768976227
-29.342264 -12.322791 1.903366 1.880790849211783e-38 1768976227
-28.404005 -11.928753 -0.550532 1.880790849211783e-38 1768976227
-29.497074 -12.387805 -0.748293 1.880790849211783e-38 1768976227
-28.592924 -12.008093 0.536174 1.880790849211783e-38 1768976227
-28.773476 -12.083919 0.380075 1.880790849211783e-38 1768976227
-29.180962 -12.255050 -0.934366 1.880790849211783e-38 1768976227
-29.035675 -12.194033 -1.084214 1.880790849211783e-38 1768976227
-28.753344 -12.075463 0.188562 1.880790849211783e-38 1768976227
-29.256063 -12.286589 0.023213 1.880790849211783e-38 1768976227
-29.006670 -12.181851 4.920381 1.880790849211783e-38 1768976227
-29.072798 -12.106605 3.930671 1.880790849211783e-38 1768976227
-28.947111 -12.054266 3.753433 1.880790849211783e-38 1768976227
-28.803253 -11.994360 -0.181269 1.880790849211783e-38 1768976227
-28.704382 -11.953188 -0.358616 1.880790849211783e-38 1768976227
-28.878536 -12.025710 3.559098 1.880790849211783e-38 1768976227
-28.682022 -11.943877 3.318942 1.880790849211783e-38 1768976227
-28.859177 -12.017648 4.687798 1.880790849211783e-38 1768976227
-29.070631 -12.105703 4.516157 1.880790849211783e-38 1768976227
-29.037727 -12.092000 3.218646 1.880790849211783e-38 1768976227
-28.821449 -12.001939 2.990451 1.880790849211783e-38 1768976227
-28.582108 -11.902271 4.269383 1.880790849211783e-38 1768976227
-28.904161 -12.036381 4.138281 1.880790849211783e-38 1768976227
-28.779989 -11.984672 1.660610 1.880790849211783e-38 1768976227
-28.763594 -11.977845 1.506805 1.880790849211783e-38 1768976227
-28.540089 -11.884771 2.733749 1.880790849211783e-38 1768976227
-29.472151 -12.272903 2.679455 1.880790849211783e-38 1768976227
-29.212135 -12.164629 1.316843 1.880790849211783e-38 1768976227
-29.059135 -12.100915 1.161950 1.880790849211783e-38 1768976227
-29.315905 -12.207841 2.464015 1.880790849211783e-38 1768976227
-29.018185 -12.083864 2.239800 1.880790849211783e-38 1768976227
-28.670017 -11.938878 0.936893 1.880790849211783e-38 1768976227
-28.979876 -12.067910 0.793009 1.880790849211783e-38 1768976227
-28.998541 -12.075684 2.077755 1.880790849211783e-38 1768976227
-28.676561 -11.941603 1.857838 1.880790849211783e-38 1768976227
-29.167471 -12.146029 -0.564617 1.880790849211783e-38 1768976227
-29.250288 -12.180517 -0.741098 1.880790849211783e-38 1768976227
-28.801426 -11.993599 0.539403 1.880790849211783e-38 1768976227
-28.858273 -12.017272 0.380715 1.880790849211783e-38 1768976227
-28.942049 -12.052158 -0.925548 1.880790849211783e-38 1768976227
-29.152386 -12.139748 -1.087200 1.880790849211783e-38 1768976227
-29.186331 -12.153883 0.191160 1.880790849211783e-38 1768976227
-29.078146 -12.108832 0.023042 1.880790849211783e-38 1768976227
-28.825047 -12.003435 4.883409 1.880790849211783e-38 1768976227
-28.846964 -11.910601 3.895263 1.880790849211783e-38 1768976227
-29.086721 -12.009594 3.766822 1.880790849211783e-38 1768976227
-29.203196 -12.057685 -0.183556 1.880790849211783e-38 1768976227
-28.877110 -11.923049 -0.360323 1.880790849211783e-38 1768976227
-28.868877 -11.919649 3.553461 1.880790849211783e-38 1768976227
-29.036848 -11.989001 3.355801 1.880790849211783e-38 1768976227
-28.756485 -11.873242 4.665279 1.880790849211783e-38 1768976227
-28.947798 -11.952233 4.491454 1.880790849211783e-38 1768976227
-28.728283 -11.861599 3.180366 1.880790849211783e-38 1768976227
-29.168489 -12.043356 3.022676 1.880790849211783e-38 1768976227
-28.767157 -11.877650 4.291654 1.880790849211783e-38 1768976227
