# .PCD v0.7 - Point Cloud Data file format
VERSION 0.7
FIELDS x y z rgb label
SIZE 4 4 4 4 4
TYPE F F F F U
COUNT 1 1 1 1 1
WIDTH 770
HEIGHT 1
VIEWPOINT 0 0 0 1 0 0 0
POINTS 770
DATA ascii
-1.234160 42.320274 7.720708 1.880790849211783e-38 1768976227
-1.212654 41.582794 7.211999 1.880790849211783e-38 1768976227
-1.493506 51.213421 12.045232 1.880790849211783e-38 1768976227
-1.481498 50.801685 11.636722 1.880790849211783e-38 1768976227
-1.198039 41.081661 6.789033 1.880790849211783e-38 1768976227
-1.265634 43.399548 6.790442 1.880790849211783e-38 1768976227
-1.473109 50.513992 11.085302 1.880790849211783e-38 1768976227
-1.505728 51.632515 10.950641 1.880790849211783e-38 1768976227
-1.110941 42.493004 5.305432 1.880790849211783e-38 1768976227
-1.098547 42.018959 5.031440 1.880790849211783e-38 1768976227
-1.092628 41.792542 4.756495 1.880790849211783e-38 1768976227
-1.084239 41.471664 4.431644 1.880790849211783e-38 1768976227
-1.121892 42.911903 6.437041 1.880790849211783e-38 1768976227
-1.084070 41.465206 5.948698 1.880790849211783e-38 1768976227
-1.071211 40.973377 4.194071 1.880790849211783e-38 1768976227
-1.062905 40.655670 3.895519 1.880790849211783e-38 1768976227
-1.072042 41.005142 5.656304 1.880790849211783e-38 1768976227
-1.080809 41.340481 5.465861 1.880790849211783e-38 1768976227
-1.049935 40.159573 2.139880 1.880790849211783e-38 1768976227
-1.053428 40.293167 3.564168 1.880790849211783e-38 1768976227
-1.048562 40.107056 3.367277 1.880790849211783e-38 1768976227
-1.043755 39.923176 3.098765 1.880790849211783e-38 1768976227
-1.038991 39.740971 2.832702 1.880790849211783e-38 1768976227
-1.035181 39.595242 2.619899 1.880790849211783e-38 1768976227
-1.030570 39.418873 2.358351 1.880790849211783e-38 1768976227
-1.150562 44.008514 17.981030 1.880790849211783e-38 1768976227
-1.228593 46.993164 9.437340 1.880790849211783e-38 1768976227
-1.493411 57.122322 10.875798 1.880790849211783e-38 1768976227
-1.179666 45.121712 18.002201 1.880790849211783e-38 1768976227
-1.188127 45.445335 17.629501 1.880790849211783e-38 1768976227
-1.208441 46.222328 17.439426 1.880790849211783e-38 1768976227
-1.223789 46.809406 17.057901 1.880790849211783e-38 1768976227
-1.184329 45.300064 13.349133 1.880790849211783e-38 1768976227
-1.169882 44.747478 12.847737 1.880790849211783e-38 1768976227
-1.225696 46.882347 16.538038 1.880790849211783e-38 1768976227
-1.224369 46.831581 16.223261 1.880790849211783e-38 1768976227
-1.200619 45.923157 12.734544 1.880790849211783e-38 1768976227
-1.182776 45.240658 12.138239 1.880790849211783e-38 1768976227
-1.238737 47.381145 15.997027 1.880790849211783e-38 1768976227
-1.241075 47.470585 15.570991 1.880790849211783e-38 1768976227
-1.166525 44.619080 11.515270 1.880790849211783e-38 1768976227
-1.212090 46.361912 11.415202 1.880790849211783e-38 1768976227
-1.204611 46.075851 14.614142 1.880790849211783e-38 1768976227
-1.136828 43.483185 13.293880 1.880790849211783e-38 1768976227
-1.114502 42.629219 7.776422 1.880790849211783e-38 1768976227
-1.091897 41.764595 7.242926 1.880790849211783e-38 1768976227
-1.364380 52.186954 12.273180 1.880790849211783e-38 1768976227
-1.331780 50.939999 11.667432 1.880790849211783e-38 1768976227
-1.076334 41.169319 6.802952 1.880790849211783e-38 1768976227
-1.148991 43.948410 6.875745 1.880790849211783e-38 1768976227
-1.323760 50.633251 11.110547 1.880790849211783e-38 1768976227
-1.318030 50.414078 10.691332 1.880790849211783e-38 1768976227
-0.958634 41.452168 5.175095 1.880790849211783e-38 1768976227
-0.976721 42.234276 5.056847 1.880790849211783e-38 1768976227
-0.968146 41.863510 4.764218 1.880790849211783e-38 1768976227
-0.960266 41.522766 4.436775 1.880790849211783e-38 1768976227
-0.993074 42.941399 6.440987 1.880790849211783e-38 1768976227
-0.961444 41.573708 5.963821 1.880790849211783e-38 1768976227
-0.948399 41.009617 4.197469 1.880790849211783e-38 1768976227
-0.944161 40.826366 3.911584 1.880790849211783e-38 1768976227
-0.972496 42.051613 5.800224 1.880790849211783e-38 1768976227
-0.962440 41.616764 5.501982 1.880790849211783e-38 1768976227
-0.930485 40.234993 2.143740 1.880790849211783e-38 1768976227
-0.934272 40.398777 3.573244 1.880790849211783e-38 1768976227
-0.929745 40.203011 3.375082 1.880790849211783e-38 1768976227
-0.925242 40.008270 3.105138 1.880790849211783e-38 1768976227
-0.921010 39.825298 2.838502 1.880790849211783e-38 1768976227
-0.917626 39.678959 2.625243 1.880790849211783e-38 1768976227
-0.913464 39.498981 2.362968 1.880790849211783e-38 1768976227
-1.020839 44.142006 18.034229 1.880790849211783e-38 1768976227
-1.090982 47.175018 9.473156 1.880790849211783e-38 1768976227
-1.320085 57.081650 10.867248 1.880790849211783e-38 1768976227
-1.046740 45.261967 18.056818 1.880790849211783e-38 1768976227
-1.054118 45.580997 17.680815 1.880790849211783e-38 1768976227
-1.071984 46.353523 17.487629 1.880790849211783e-38 1768976227
-1.082639 46.814285 17.058413 1.880790849211783e-38 1768976227
-1.024395 44.295753 13.052209 1.880790849211783e-38 1768976227
-1.035139 44.760334 12.850474 1.880790849211783e-38 1768976227
-1.081731 46.775013 16.498949 1.880790849211783e-38 1768976227
-1.080562 46.724483 16.184958 1.880790849211783e-38 1768976227
-1.063714 45.995926 12.753775 1.880790849211783e-38 1768976227
-1.041580 45.038841 12.083193 1.880790849211783e-38 1768976227
-1.096155 47.398708 16.001766 1.880790849211783e-38 1768976227
-1.048477 45.337090 14.870071 1.880790849211783e-38 1768976227
-1.021771 44.182308 11.401701 1.880790849211783e-38 1768976227
-1.070008 46.268085 11.391253 1.880790849211783e-38 1768976227
-1.073961 46.439026 14.728238 1.880790849211783e-38 1768976227
-1.007158 43.550407 13.313441 1.880790849211783e-38 1768976227
-0.993108 42.942875 7.833056 1.880790849211783e-38 1768976227
-0.970102 41.948078 7.274206 1.880790849211783e-38 1768976227
-1.208913 52.274490 12.292853 1.880790849211783e-38 1768976227
-1.206124 52.153870 11.944571 1.880790849211783e-38 1768976227
-0.956216 41.347637 6.831910 1.880790849211783e-38 1768976227
-1.173729 50.753109 11.136021 1.880790849211783e-38 1768976227
-1.168637 50.532913 10.715737 1.880790849211783e-38 1768976227
-0.836428 41.595009 5.192589 1.880790849211783e-38 1768976227
-0.849888 42.264397 5.060123 1.880790849211783e-38 1768976227
-0.843233 41.933426 4.771863 1.880790849211783e-38 1768976227
-0.835985 41.572990 4.441851 1.880790849211783e-38 1768976227
-0.864098 42.971046 6.445014 1.880790849211783e-38 1768976227
-0.843702 41.956768 6.018379 1.880790849211783e-38 1768976227
-0.831509 41.350384 4.232071 1.880790849211783e-38 1768976227
-0.821696 40.862385 3.914780 1.880790849211783e-38 1768976227
-0.851359 42.337547 5.839283 1.880790849211783e-38 1768976227
-0.842497 41.896832 5.538648 1.880790849211783e-38 1768976227
-0.898125 44.663170 2.379520 1.880790849211783e-38 1768976227
-0.814508 40.504967 3.582403 1.880790849211783e-38 1768976227
-0.810551 40.308186 3.383691 1.880790849211783e-38 1768976227
-0.806239 40.093723 3.111568 1.880790849211783e-38 1768976227
-0.802544 39.909996 2.844353 1.880790849211783e-38 1768976227
-0.799589 39.763035 2.630634 1.880790849211783e-38 1768976227
-0.813309 40.445328 2.419424 1.880790849211783e-38 1768976227
-0.890337 44.275867 18.087740 1.880790849211783e-38 1768976227
-0.953224 47.403202 9.518357 1.880790849211783e-38 1768976227
-1.146843 57.031765 10.857043 1.880790849211783e-38 1768976227
-0.903457 44.928326 17.922546 1.880790849211783e-38 1768976227
-0.919320 45.717175 17.732483 1.880790849211783e-38 1768976227
-0.933805 46.437511 17.518171 1.880790849211783e-38 1768976227
-0.941478 46.819103 17.059057 1.880790849211783e-38 1768976227
-0.875820 43.553959 12.832795 1.880790849211783e-38 1768976227
-0.900346 44.773643 12.853456 1.880790849211783e-38 1768976227
-0.938444 46.668198 16.460197 1.880790849211783e-38 1768976227
-0.937432 46.617905 16.146988 1.880790849211783e-38 1768976227
-0.928233 46.160435 12.798554 1.880790849211783e-38 1768976227
-0.905042 45.007160 12.073907 1.880790849211783e-38 1768976227
-0.953486 47.416241 16.006643 1.880790849211783e-38 1768976227
-0.911521 45.329319 14.866553 1.880790849211783e-38 1768976227
-0.944107 46.949825 12.115098 1.880790849211783e-38 1768976227
-0.928516 46.174503 11.367473 1.880790849211783e-38 1768976227
-0.954046 47.444065 15.046008 1.880790849211783e-38 1768976227
-0.893635 44.439911 13.584478 1.880790849211783e-38 1768976227
-0.875446 43.535355 7.940611 1.880790849211783e-38 1768976227
-0.847252 42.133282 7.305846 1.880790849211783e-38 1768976227
-1.053203 52.375118 12.315714 1.880790849211783e-38 1768976227
-1.050706 52.250908 11.966015 1.880790849211783e-38 1768976227
-0.835072 41.527599 6.861197 1.880790849211783e-38 1768976227
-1.024399 50.942677 11.176886 1.880790849211783e-38 1768976227
-1.018561 50.652355 10.740365 1.880790849211783e-38 1768976227
-0.711360 41.619961 5.195413 1.880790849211783e-38 1768976227
-0.705976 41.304932 4.944974 1.880790849211783e-38 1768976227
-0.717852 41.999779 4.779146 1.880790849211783e-38 1768976227
-0.711869 41.649719 4.449800 1.880790849211783e-38 1768976227
-0.743076 43.475590 6.520321 1.880790849211783e-38 1768976227
-0.717295 41.967171 6.019534 1.880790849211783e-38 1768976227
-0.707956 41.420765 4.239037 1.880790849211783e-38 1768976227
-0.699029 40.898495 3.918019 1.880790849211783e-38 1768976227
-0.728580 42.627460 5.878938 1.880790849211783e-38 1768976227
-0.720945 42.180740 5.575867 1.880790849211783e-38 1768976227
-0.758598 44.383728 2.364499 1.880790849211783e-38 1768976227
-0.695117 40.669613 3.596763 1.880790849211783e-38 1768976227
-0.690747 40.413933 3.392378 1.880790849211783e-38 1768976227
-0.686741 40.179562 3.118055 1.880790849211783e-38 1768976227
-0.683588 39.995049 2.850255 1.880790849211783e-38 1768976227
-0.681065 39.847473 2.636072 1.880790849211783e-38 1768976227
-0.755219 44.186001 2.643041 1.880790849211783e-38 1768976227
-0.759049 44.410099 18.141560 1.880790849211783e-38 1768976227
-0.814150 47.633915 9.564147 1.880790849211783e-38 1768976227
-0.973924 56.981918 10.846945 1.880790849211783e-38 1768976227
-0.770164 45.060413 17.974230 1.880790849211783e-38 1768976227
-0.782846 45.802425 17.764555 1.880790849211783e-38 1768976227
-0.794839 46.504101 17.542307 1.880790849211783e-38 1768976227
-0.799639 46.784924 17.045647 1.880790849211783e-38 1768976227
-0.787305 46.063286 13.571384 1.880790849211783e-38 1768976227
-0.765498 44.787437 12.856696 1.880790849211783e-38 1768976227
-0.795828 46.561920 16.421793 1.880790849211783e-38 1768976227
-0.809095 47.338142 16.395536 1.880790849211783e-38 1768976227
-0.804512 47.070045 13.050024 1.880790849211783e-38 1768976227
-0.768976 44.990932 12.068876 1.880790849211783e-38 1768976227
-0.810729 47.433754 16.011656 1.880790849211783e-38 1768976227
-0.774624 45.321335 14.863102 1.880790849211783e-38 1768976227
-0.801629 46.901371 12.101915 1.880790849211783e-38 1768976227
-0.786711 46.028549 11.330906 1.880790849211783e-38 1768976227
-0.811342 47.469662 15.053281 1.880790849211783e-38 1768976227
-0.768807 44.981010 13.749111 1.880790849211783e-38 1768976227
-0.976997 57.161690 10.425395 1.880790849211783e-38 1768976227
-0.725128 42.425491 7.356102 1.880790849211783e-38 1768976227
-0.866409 50.691467 11.919144 1.880790849211783e-38 1768976227
-0.894899 52.358356 11.989950 1.880790849211783e-38 1768976227
-0.981248 57.410412 9.484827 1.880790849211783e-38 1768976227
-0.981850 57.445641 8.985635 1.880790849211783e-38 1768976227
-0.891541 52.161854 11.443733 1.880790849211783e-38 1768976227
-0.867792 50.772408 10.765218 1.880790849211783e-38 1768976227
-0.589749 41.900219 5.230152 1.880790849211783e-38 1768976227
-0.584552 41.530998 4.971804 1.880790849211783e-38 1768976227
-0.590177 41.930653 4.771056 1.880790849211783e-38 1768976227
-0.586941 41.700703 4.455038 1.880790849211783e-38 1768976227
-0.620214 44.064655 6.608356 1.880790849211783e-38 1768976227
-0.613599 43.594681 6.252680 1.880790849211783e-38 1768976227
-0.583449 41.452606 4.242096 1.880790849211783e-38 1768976227
-0.578443 41.096970 3.936848 1.880790849211783e-38 1768976227
-0.604475 42.946449 5.922654 1.880790849211783e-38 1768976227
-0.597749 42.468594 5.613654 1.880790849211783e-38 1768976227
-0.620532 44.087307 2.348597 1.880790849211783e-38 1768976227
-0.622675 44.239525 2.139647 1.880790849211783e-38 1768976227
-0.573270 40.729420 3.601883 1.880790849211783e-38 1768976227
-0.570439 40.528275 3.401816 1.880790849211783e-38 1768976227
-0.566744 40.265774 3.124598 1.880790849211783e-38 1768976227
-0.564136 40.080486 2.856210 1.880790849211783e-38 1768976227
-0.572524 40.676460 2.690787 1.880790849211783e-38 1768976227
-0.607429 43.156357 2.581330 1.880790849211783e-38 1768976227
-0.626970 44.544708 18.195692 1.880790849211783e-38 1768976227
-0.771593 54.819771 11.006436 1.880790849211783e-38 1768976227
-0.801324 56.932137 10.836959 1.880790849211783e-38 1768976227
-0.635600 45.157845 18.012247 1.880790849211783e-38 1768976227
-0.645821 45.883991 17.795351 1.880790849211783e-38 1768976227
-0.654767 46.519600 17.547329 1.880790849211783e-38 1768976227
-0.656653 46.653568 16.996990 1.880790849211783e-38 1768976227
-0.648512 46.075211 13.574261 1.880790849211783e-38 1768976227
-0.630587 44.801693 12.860183 1.880790849211783e-38 1768976227
-0.653874 46.456150 16.383718 1.880790849211783e-38 1768976227
-0.666655 47.364182 16.403782 1.880790849211783e-38 1768976227
-0.640493 45.505497 12.615664 1.880790849211783e-38 1768976227
-0.633026 44.974976 12.064030 1.880790849211783e-38 1768976227
-0.667880 47.451256 16.016811 1.880790849211783e-38 1768976227
-0.637786 45.313164 14.859724 1.880790849211783e-38 1768976227
-0.659458 46.852886 12.088837 1.880790849211783e-38 1768976227
-0.644129 45.763821 11.265206 1.880790849211783e-38 1768976227
-0.668498 47.495163 15.060659 1.880790849211783e-38 1768976227
-0.640895 45.534039 13.917499 1.880790849211783e-38 1768976227
-0.803901 57.115208 10.416428 1.880790849211783e-38 1768976227
-0.806595 57.306602 9.935851 1.880790849211783e-38 1768976227
-0.716945 50.937172 11.976355 1.880790849211783e-38 1768976227
-0.739058 52.508236 12.023707 1.880790849211783e-38 1768976227
-0.808937 57.472980 9.494718 1.880790849211783e-38 1768976227
-0.809434 57.508286 8.995010 1.880790849211783e-38 1768976227
-0.735711 52.270466 11.467023 1.880790849211783e-38 1768976227
-0.723637 51.412601 10.900445 1.880790849211783e-38 1768976227
-0.466556 42.189369 5.266045 1.880790849211783e-38 1768976227
-0.461803 41.759617 4.998983 1.880790849211783e-38 1768976227
-0.463114 41.878139 4.764900 1.880790849211783e-38 1768976227
-0.460709 41.660683 4.450593 1.880790849211783e-38 1768976227
-0.458761 41.484543 4.245203 1.880790849211783e-38 1768976227
-0.454823 41.128372 3.939707 1.880790849211783e-38 1768976227
-0.479234 43.335857 5.976129 1.880790849211783e-38 1768976227
-0.473683 42.833843 5.661720 1.880790849211783e-38 1768976227
-0.477547 43.183266 2.300350 1.880790849211783e-38 1768976227
-0.485902 43.938766 2.125020 1.880790849211783e-38 1768976227
-0.451422 40.820908 3.609837 1.880790849211783e-38 1768976227
-0.449430 40.640705 3.411123 1.880790849211783e-38 1768976227
-0.446241 40.352371 3.131199 1.880790849211783e-38 1768976227
-0.444183 40.166294 2.862216 1.880790849211783e-38 1768976227
-0.450743 40.759491 2.696177 1.880790849211783e-38 1768976227
-0.449053 40.606659 2.428732 1.880790849211783e-38 1768976227
-0.493809 44.653793 18.239561 1.880790849211783e-38 1768976227
-0.604932 54.702381 10.982451 1.880790849211783e-38 1768976227
-0.629040 56.882385 10.827078 1.880790849211783e-38 1768976227
-0.500257 45.236912 18.043102 1.880790849211783e-38 1768976227
-0.508315 45.965588 17.826323 1.880790849211783e-38 1768976227
-0.514612 46.534996 17.552471 1.880790849211783e-38 1768976227
-0.514480 46.523064 16.948801 1.880790849211783e-38 1768976227
-0.509657 46.086933 13.577200 1.880790849211783e-38 1768976227
-0.495607 44.816414 12.863921 1.880790849211783e-38 1768976227
-0.512576 46.350903 16.345982 1.880790849211783e-38 1768976227
-0.524033 47.386940 16.411043 1.880790849211783e-38 1768976227
-0.488879 44.207985 12.255486 1.880790849211783e-38 1768976227
-0.497187 44.959328 12.059374 1.880790849211783e-38 1768976227
-0.524938 47.468742 16.022108 1.880790849211783e-38 1768976227
-0.506938 45.841011 15.032252 1.880790849211783e-38 1768976227
-0.517591 46.804367 12.075860 1.880790849211783e-38 1768976227
-0.584886 52.889641 13.018805 1.880790849211783e-38 1768976227
-0.483240 43.698051 13.856075 1.880790849211783e-38 1768976227
-0.493848 44.657356 13.649023 1.880790849211783e-38 1768976227
-0.631101 57.068752 10.407561 1.880790849211783e-38 1768976227
-0.633214 57.259838 9.927367 1.880790849211783e-38 1768976227
-0.531298 48.043812 11.295639 1.880790849211783e-38 1768976227
-0.557633 50.425232 11.546288 1.880790849211783e-38 1768976227
-0.635147 57.434662 9.488028 1.880790849211783e-38 1768976227
-0.636656 57.571053 9.004487 1.880790849211783e-38 1768976227
-0.579245 52.379562 11.490520 1.880790849211783e-38 1768976227
-0.577578 52.228798 11.073074 1.880790849211783e-38 1768976227
-0.341211 42.424313 5.295218 1.880790849211783e-38 1768976227
-0.337724 41.990810 5.026515 1.880790849211783e-38 1768976227
-0.333808 41.503895 4.722183 1.880790849211783e-38 1768976227
-0.334653 41.608898 4.444933 1.880790849211783e-38 1768976227
-0.333533 41.469742 4.243567 1.880790849211783e-38 1768976227
-0.331141 41.172268 3.943798 1.880790849211783e-38 1768976227
-0.348257 43.300381 5.971065 1.880790849211783e-38 1768976227
-0.346856 43.126167 5.700195 1.880790849211783e-38 1768976227
-0.348664 43.351036 2.096535 1.880790849211783e-38 1768976227
-0.328783 40.879166 3.614885 1.880790849211783e-38 1768976227
-0.327359 40.702087 3.416177 1.880790849211783e-38 1768976227
-0.325370 40.454819 3.139059 1.880790849211783e-38 1768976227
-0.327558 40.726746 2.902069 1.880790849211783e-38 1768976227
-0.328491 40.842869 2.701615 1.880790849211783e-38 1768976227
-0.327257 40.689415 2.433612 1.880790849211783e-38 1768976227
-0.359412 44.687420 18.252769 1.880790849211783e-38 1768976227
-0.438999 54.582829 10.958134 1.880790849211783e-38 1768976227
-0.442398 55.005386 10.469506 1.880790849211783e-38 1768976227
-0.364468 45.315998 18.074125 1.880790849211783e-38 1768976227
-0.370349 46.047234 17.857471 1.880790849211783e-38 1768976227
-0.374395 46.550278 17.557730 1.880790849211783e-38 1768976227
-0.373133 46.393398 16.901075 1.880790849211783e-38 1768976227
-0.370761 46.098450 13.580202 1.880790849211783e-38 1768976227
-0.361434 44.938755 12.898666 1.880790849211783e-38 1768976227
-0.380329 47.288116 16.676016 1.880790849211783e-38 1768976227
-0.381264 47.404343 16.416597 1.880790849211783e-38 1768976227
-0.353419 43.942245 12.181466 1.880790849211783e-38 1768976227
-0.361984 45.007103 12.071841 1.880790849211783e-38 1768976227
-0.381923 47.486210 16.027540 1.880790849211783e-38 1768976227
-0.370220 46.031231 15.094193 1.880790849211783e-38 1768976227
-0.376048 46.755829 12.062989 1.880790849211783e-38 1768976227
-0.423759 52.687901 12.968771 1.880790849211783e-38 1768976227
-0.351200 43.666332 13.845618 1.880790849211783e-38 1768976227
-0.357399 44.437035 13.581293 1.880790849211783e-38 1768976227
-0.458598 57.019638 10.398305 1.880790849211783e-38 1768976227
-0.460154 57.213120 9.918983 1.880790849211783e-38 1768976227
-0.389512 48.429783 11.386057 1.880790849211783e-38 1768976227
-0.409562 50.922794 11.659883 1.880790849211783e-38 1768976227
-0.461558 57.387653 9.479989 1.880790849211783e-38 1768976227
-0.463077 57.576485 9.005077 1.880790849211783e-38 1768976227
-0.422160 52.489120 11.514222 1.880790849211783e-38 1768976227
-0.420943 52.337742 11.095852 1.880790849211783e-38 1768976227
-0.214431 42.658531 5.324347 1.880790849211783e-38 1768976227
-0.212250 42.224705 5.054413 1.880790849211783e-38 1768976227
-0.209776 41.732380 4.748085 1.880790849211783e-38 1768976227
-0.208895 41.557266 4.439330 1.880790849211783e-38 1768976227
-0.208197 41.418446 4.238235 1.880790849211783e-38 1768976227
-0.207193 41.218674 3.948165 1.880790849211783e-38 1768976227
-0.217479 43.264988 5.966067 1.880790849211783e-38 1768976227
-0.216605 43.091061 5.695442 1.880790849211783e-38 1768976227
-0.204157 40.614693 2.163419 1.880790849211783e-38 1768976227
-0.205781 40.937634 3.619983 1.880790849211783e-38 1768976227
-0.204888 40.760052 3.420975 1.880790849211783e-38 1768976227
-0.218922 43.551987 1.812420 1.880790849211783e-38 1768976227
-0.205249 40.831837 3.168250 1.880790849211783e-38 1768976227
-0.204580 40.698807 2.900021 1.880790849211783e-38 1768976227
-0.204059 40.595245 2.685182 1.880790849211783e-38 1768976227
-0.204951 40.772533 2.438535 1.880790849211783e-38 1768976227
-0.224797 44.720726 18.266014 1.880790849211783e-38 1768976227
-0.273772 54.463726 10.934008 1.880790849211783e-38 1768976227
-0.275887 54.884418 10.446276 1.880790849211783e-38 1768976227
-0.228187 45.395145 18.105335 1.880790849211783e-38 1768976227
-0.231876 46.128937 17.888803 1.880790849211783e-38 1768976227
-0.234070 46.565449 17.563107 1.880790849211783e-38 1768976227
-0.232557 46.264561 16.853807 1.880790849211783e-38 1768976227
-0.231779 46.109779 13.583272 1.880790849211783e-38 1768976227
-0.227394 45.237293 12.984099 1.880790849211783e-38 1768976227
-0.237832 47.313911 16.684784 1.880790849211783e-38 1768976227
-0.238374 47.421730 16.422295 1.880790849211783e-38 1768976227
-0.219739 43.714546 12.118105 1.880790849211783e-38 1768976227
-0.226519 45.063297 12.086676 1.880790849211783e-38 1768976227
-0.232345 46.222343 15.156564 1.880790849211783e-38 1768976227
-0.234783 46.707256 12.050221 1.880790849211783e-38 1768976227
-0.263626 52.445366 12.908818 1.880790849211783e-38 1768976227
-0.229672 45.690651 14.487199 1.880790849211783e-38 1768976227
-0.222276 44.219292 13.514477 1.880790849211783e-38 1768976227
-0.286369 56.969666 10.388987 1.880790849211783e-38 1768976227
-0.287358 57.166447 9.910695 1.880790849211783e-38 1768976227
-0.259142 51.553257 11.804008 1.880790849211783e-38 1768976227
-0.288234 57.340691 9.472044 1.880790849211783e-38 1768976227
-0.265858 52.889294 11.601776 1.880790849211783e-38 1768976227
-0.263635 52.447182 11.118834 1.880790849211783e-38 1768976227
-0.086126 42.834839 5.346296 1.880790849211783e-38 1768976227
-0.085375 42.461288 5.082679 1.880790849211783e-38 1768976227
-0.084369 41.960964 4.774042 1.880790849211783e-38 1768976227
-0.083534 41.545696 4.438047 1.880790849211783e-38 1768976227
-0.083175 41.367325 4.232958 1.880790849211783e-38 1768976227
-0.082819 41.190052 3.945382 1.880790849211783e-38 1768976227
-0.086999 43.268909 5.966544 1.880790849211783e-38 1768976227
-0.086571 43.056053 5.690754 1.880790849211783e-38 1768976227
-0.081828 40.697510 2.167807 1.880790849211783e-38 1768976227
-0.082429 40.996296 3.625132 1.880790849211783e-38 1768976227
-0.082071 40.818207 3.425819 1.880790849211783e-38 1768976227
-0.082058 40.811443 3.166634 1.880790849211783e-38 1768976227
-0.081805 40.685665 2.899054 1.880790849211783e-38 1768976227
-0.081602 40.584801 2.684463 1.880790849211783e-38 1768976227
-0.082147 40.855988 2.443500 1.880790849211783e-38 1768976227
-0.089984 44.753696 18.279285 1.880790849211783e-38 1768976227
-0.109269 54.345062 10.910069 1.880790849211783e-38 1768976227
-0.110111 54.763908 10.423228 1.880790849211783e-38 1768976227
-0.091433 45.474316 18.136719 1.880790849211783e-38 1768976227
-0.092881 46.194641 17.914093 1.880790849211783e-38 1768976227
-0.093657 46.580505 17.568598 1.880790849211783e-38 1768976227
-0.092764 46.136520 16.806986 1.880790849211783e-38 1768976227
-0.092733 46.120899 13.586403 1.880790849211783e-38 1768976227
-0.093022 46.264744 13.278859 1.880790849211783e-38 1768976227
-0.095183 47.339653 16.693684 1.880790849211783e-38 1768976227
-0.095383 47.439110 16.428139 1.880790849211783e-38 1768976227
-0.088124 43.828777 12.149642 1.880790849211783e-38 1768976227
-0.096543 48.015987 12.878496 1.880790849211783e-38 1768976227
-0.093156 46.331451 15.192180 1.880790849211783e-38 1768976227
-0.093814 46.658653 12.037553 1.880790849211783e-38 1768976227
-0.104736 52.090652 12.821375 1.880790849211783e-38 1768976227
-0.091873 45.693085 14.487817 1.880790849211783e-38 1768976227
-0.088545 44.037807 13.458868 1.880790849211783e-38 1768976227
-0.114446 56.919743 10.379773 1.880790849211783e-38 1768976227
-0.114848 57.119812 9.902505 1.880790849211783e-38 1768976227
-0.106289 52.862911 12.103749 1.880790849211783e-38 1768976227
-0.105934 52.686569 11.557185 1.880790849211783e-38 1768976227
-0.105933 52.686108 11.169368 1.880790849211783e-38 1768976227
0.043028 42.800282 5.341975 1.880790849211783e-38 1768976227
0.042875 42.648243 5.105050 1.880790849211783e-38 1768976227
0.042253 42.029362 4.781816 1.880790849211783e-38 1768976227
0.041834 41.612747 4.445203 1.880790849211783e-38 1768976227
0.041568 41.347542 4.230927 1.880790849211783e-38 1768976227
0.041385 41.166138 3.943085 1.880790849211783e-38 1768976227
0.043934 43.701283 6.026156 1.880790849211783e-38 1768976227
0.043250 43.021137 5.686131 1.880790849211783e-38 1768976227
0.040998 40.780678 2.172234 1.880790849211783e-38 1768976227
0.040879 40.662136 1.966432 1.880790849211783e-38 1768976227
0.041236 41.017616 3.627012 1.880790849211783e-38 1768976227
0.041094 40.876556 3.430712 1.880790849211783e-38 1768976227
0.041018 40.800888 3.165811 1.880790849211783e-38 1768976227
0.040892 40.675190 2.898304 1.880790849211783e-38 1768976227
0.040791 40.574383 2.683769 1.880790849211783e-38 1768976227
0.041247 41.028393 2.453807 1.880790849211783e-38 1768976227
0.044199 43.964668 18.316469 1.880790849211783e-38 1768976227
0.045025 44.786339 18.292591 1.880790849211783e-38 1768976227
0.054506 54.217136 10.884371 1.880790849211783e-38 1768976227
0.054930 54.638519 10.399347 1.880790849211783e-38 1768976227
0.045796 45.553524 18.168283 1.880790849211783e-38 1768976227
0.046462 46.215408 17.922119 1.880790849211783e-38 1768976227
0.046844 46.595448 17.574207 1.880790849211783e-38 1768976227
0.046270 46.024788 16.766256 1.880790849211783e-38 1768976227
0.046356 46.110844 13.583421 1.880790849211783e-38 1768976227
0.046472 46.225479 13.267570 1.880790849211783e-38 1768976227
0.047618 47.365364 16.702724 1.880790849211783e-38 1768976227
0.047709 47.456467 16.434126 1.880790849211783e-38 1768976227
0.044178 43.944111 12.181595 1.880790849211783e-38 1768976227
0.048303 48.047047 12.886807 1.880790849211783e-38 1768976227
0.046404 46.158092 15.135312 1.880790849211783e-38 1768976227
0.046858 46.610020 12.024988 1.880790849211783e-38 1768976227
0.052016 51.740334 12.735129 1.880790849211783e-38 1768976227
0.045925 45.681557 14.484140 1.880790849211783e-38 1768976227
0.044129 43.894726 13.415120 1.880790849211783e-38 1768976227
0.057173 56.869869 10.370663 1.880790849211783e-38 1768976227
0.051683 51.409351 11.277000 1.880790849211783e-38 1768976227
0.053097 52.815273 11.196734 1.880790849211783e-38 1768976227
0.171973 42.765812 5.337713 1.880790849211783e-38 1768976227
0.171363 42.614010 5.100991 1.880790849211783e-38 1768976227
0.169288 42.098045 4.789667 1.880790849211783e-38 1768976227
0.167607 41.680065 4.452428 1.880790849211783e-38 1768976227
0.166537 41.414013 4.237761 1.880790849211783e-38 1768976227
0.165531 41.163738 3.942885 1.880790849211783e-38 1768976227
0.172860 42.986309 5.681571 1.880790849211783e-38 1768976227
0.164899 41.006615 2.184285 1.880790849211783e-38 1768976227
0.163911 40.760933 1.971225 1.880790849211783e-38 1768976227
0.164900 41.006989 3.626099 1.880790849211783e-38 1768976227
0.164538 40.916798 3.434114 1.880790849211783e-38 1768976227
0.164029 40.790375 3.165019 1.880790849211783e-38 1768976227
0.163524 40.664742 2.897581 1.880790849211783e-38 1768976227
0.163119 40.563980 2.683102 1.880790849211783e-38 1768976227
0.166235 41.338814 2.472392 1.880790849211783e-38 1768976227
0.176919 43.995800 18.329578 1.880790849211783e-38 1768976227
0.180228 44.818642 18.305923 1.880790849211783e-38 1768976227
0.211298 52.545055 10.548772 1.880790849211783e-38 1768976227
0.219164 54.501114 10.373275 1.880790849211783e-38 1768976227
0.183476 45.626209 18.197411 1.880790849211783e-38 1768976227
0.185926 46.235455 17.930031 1.880790849211783e-38 1768976227
0.187428 46.608967 17.579439 1.880790849211783e-38 1768976227
0.184664 45.921623 16.728802 1.880790849211783e-38 1768976227
0.185380 46.099792 13.580267 1.880790849211783e-38 1768976227
0.186109 46.281067 13.283625 1.880790849211783e-38 1768976227
0.190573 47.391037 16.711906 1.880790849211783e-38 1768976227
0.190905 47.473804 16.440252 1.880790849211783e-38 1768976227
0.177180 44.060585 12.213975 1.880790849211783e-38 1768976227
0.193335 48.078022 12.895213 1.880790849211783e-38 1768976227
0.184919 45.985054 15.078687 1.880790849211783e-38 1768976227
0.187236 46.561356 12.012524 1.880790849211783e-38 1768976227
0.215160 53.505451 13.169686 1.880790849211783e-38 1768976227
0.183075 45.526474 14.435078 1.880790849211783e-38 1768976227
0.175944 43.753189 13.371964 1.880790849211783e-38 1768976227
0.219559 54.599239 12.836210 1.880790849211783e-38 1768976227
0.211373 52.563526 11.143448 1.880790849211783e-38 1768976227
0.300811 42.745266 5.335238 1.880790849211783e-38 1768976227
0.299911 42.617332 5.101473 1.880790849211783e-38 1768976227
0.296742 42.167015 4.797595 1.880790849211783e-38 1768976227
0.293791 41.747665 4.459723 1.880790849211783e-38 1768976227
0.291913 41.480747 4.244661 1.880790849211783e-38 1768976227
0.290014 41.211029 3.947481 1.880790849211783e-38 1768976227
0.302263 42.951580 5.677075 1.880790849211783e-38 1768976227
0.290758 41.316738 2.200841 1.880790849211783e-38 1768976227
0.288510 40.997253 3.625299 1.880790849211783e-38 1768976227
0.287869 40.906231 3.433285 1.880790849211783e-38 1768976227
0.286980 40.779881 3.164258 1.880790849211783e-38 1768976227
0.286097 40.654305 2.896885 1.880790849211783e-38 1768976227
0.285388 40.553589 2.682459 1.880790849211783e-38 1768976227
0.293132 41.654011 2.491285 1.880790849211783e-38 1768976227
0.309828 44.026592 18.342712 1.880790849211783e-38 1768976227
0.315532 44.837132 18.313780 1.880790849211783e-38 1768976227
0.372223 52.892799 10.618761 1.880790849211783e-38 1768976227
0.382578 54.364326 10.347413 1.880790849211783e-38 1768976227
0.321067 45.623558 18.196657 1.880790849211783e-38 1768976227
0.325475 46.249939 17.935947 1.880790849211783e-38 1768976227
0.328031 46.613167 17.581318 1.880790849211783e-38 1768976227
0.322402 45.813293 16.689617 1.880790849211783e-38 1768976227
0.324340 46.088646 13.577210 1.880790849211783e-38 1768976227
0.326407 46.382439 13.312943 1.880790849211783e-38 1768976227
0.333685 47.416683 16.721228 1.880790849211783e-38 1768976227
0.334210 47.491234 16.446564 1.880790849211783e-38 1768976227
0.310895 44.178192 12.246781 1.880790849211783e-38 1768976227
0.324084 46.052380 12.352113 1.880790849211783e-38 1768976227
0.322395 45.812336 15.022303 1.880790849211783e-38 1768976227
0.309694 44.007553 11.353849 1.880790849211783e-38 1768976227
0.319300 45.372566 14.386518 1.880790849211783e-38 1768976227
0.306919 43.613155 13.329389 1.880790849211783e-38 1768976227
0.383425 54.484638 12.809484 1.880790849211783e-38 1768976227
0.363637 51.672813 10.954801 1.880790849211783e-38 1768976227
0.429790 42.750469 5.336024 1.880790849211783e-38 1768976227
0.428503 42.622494 5.102223 1.880790849211783e-38 1768976227
0.425291 42.303005 4.813190 1.880790849211783e-38 1768976227
0.420391 41.815548 4.467090 1.880790849211783e-38 1768976227
0.417698 41.547756 4.251627 1.880790849211783e-38 1768976227
0.414839 41.263298 3.952590 1.880790849211783e-38 1768976227
0.432001 42.970364 5.679704 1.880790849211783e-38 1768976227
0.412636 41.044186 3.629543 1.880790849211783e-38 1768976227
0.411330 40.914341 3.434054 1.880790849211783e-38 1768976227
0.409873 40.769405 3.163526 1.880790849211783e-38 1768976227
0.408611 40.643887 2.896217 1.880790849211783e-38 1768976227
0.407599 40.543224 2.681843 1.880790849211783e-38 1768976227
0.406352 40.419098 2.417488 1.880790849211783e-38 1768976227
0.442925 44.057049 18.355875 1.880790849211783e-38 1768976227
0.450739 44.834263 18.313080 1.880790849211783e-38 1768976227
0.529215 52.640125 10.568306 1.880790849211783e-38 1768976227
0.545180 54.228149 10.321759 1.880790849211783e-38 1768976227
0.458645 45.620613 18.195951 1.880790849211783e-38 1768976227
0.465116 46.264301 17.941978 1.880790849211783e-38 1768976227
0.467577 46.509048 17.542498 1.880790849211783e-38 1768976227
0.473874 47.135471 17.171724 1.880790849211783e-38 1768976227
0.463237 46.077396 13.574246 1.880790849211783e-38 1768976227
0.468558 46.606697 13.377655 1.880790849211783e-38 1768976227
0.476959 47.442280 16.730686 1.880790849211783e-38 1768976227
0.445337 44.296928 12.280012 1.880790849211783e-38 1768976227
0.434964 43.265160 11.604828 1.880790849211783e-38 1768976227
0.449089 44.670174 14.648154 1.880790849211783e-38 1768976227
0.442983 44.062740 11.368381 1.880790849211783e-38 1768976227
0.454616 45.219845 14.338465 1.880790849211783e-38 1768976227
0.437070 43.474602 13.287386 1.880790849211783e-38 1768976227
0.548415 54.549938 9.948103 1.880790849211783e-38 1768976227
0.546610 54.370380 12.782950 1.880790849211783e-38 1768976227
0.558946 42.766262 5.338182 1.880790849211783e-38 1768976227
0.557135 42.627678 5.103021 1.880790849211783e-38 1768976227
0.555182 42.478279 4.833302 1.880790849211783e-38 1768976227
0.547411 41.883728 4.474530 1.880790849211783e-38 1768976227
0.543900 41.615044 4.258661 1.880790849211783e-38 1768976227
0.540158 41.328747 3.958997 1.880790849211783e-38 1768976227
0.566023 43.307739 5.724497 1.880790849211783e-38 1768976227
0.537054 41.091263 3.633832 1.880790849211783e-38 1768976227
0.535353 40.961117 3.438100 1.880790849211783e-38 1768976227
0.532974 40.779102 3.164389 1.880790849211783e-38 1768976227
0.531071 40.633484 2.895577 1.880790849211783e-38 1768976227
0.529756 40.532871 2.681252 1.880790849211783e-38 1768976227
0.528134 40.408802 2.416957 1.880790849211783e-38 1768976227
0.576210 44.087181 18.369070 1.880790849211783e-38 1768976227
0.585933 44.831104 18.312429 1.880790849211783e-38 1768976227
0.684723 52.389729 10.518402 1.880790849211783e-38 1768976227
0.706978 54.092583 10.296313 1.880790849211783e-38 1768976227
0.596150 45.612862 18.193493 1.880790849211783e-38 1768976227
0.604603 46.259609 17.940784 1.880790849211783e-38 1768976227
0.606395 46.396664 17.500717 1.880790849211783e-38 1768976227
0.616232 47.149372 17.177387 1.880790849211783e-38 1768976227
0.602073 46.066051 13.571377 1.880790849211783e-38 1768976227
0.609325 46.620846 13.382183 1.880790849211783e-38 1768976227
0.620378 47.466591 16.739841 1.880790849211783e-38 1768976227
0.580519 44.416851 12.313687 1.880790849211783e-38 1768976227
0.567342 43.408630 11.643717 1.880790849211783e-38 1768976227
0.581068 44.458893 14.579379 1.880790849211783e-38 1768976227
0.576618 44.118355 11.383126 1.880790849211783e-38 1768976227
0.597327 45.702896 14.492136 1.880790849211783e-38 1768976227
0.566412 43.337505 13.245947 1.880790849211783e-38 1768976227
0.711163 54.412762 9.923432 1.880790849211783e-38 1768976227
0.707082 54.100460 12.719934 1.880790849211783e-38 1768976227
0.688358 42.791386 5.341553 1.880790849211783e-38 1768976227
0.686119 42.652210 5.106183 1.880790849211783e-38 1768976227
0.683540 42.491898 4.835064 1.880790849211783e-38 1768976227
0.674858 41.952168 4.482038 1.880790849211783e-38 1768976227
0.670521 41.682613 4.265764 1.880790849211783e-38 1768976227
0.665886 41.394436 3.965464 1.880790849211783e-38 1768976227
0.703669 43.743233 5.782316 1.880790849211783e-38 1768976227
0.661768 41.138477 3.638168 1.880790849211783e-38 1768976227
0.659670 41.008015 3.442188 1.880790849211783e-38 1768976227
0.656735 40.825588 3.168135 1.880790849211783e-38 1768976227
0.653826 40.644764 2.896508 1.880790849211783e-38 1768976227
0.651860 40.522537 2.680686 1.880790849211783e-38 1768976227
0.649865 40.398525 2.416448 1.880790849211783e-38 1768976227
0.709682 44.116982 18.382294 1.880790849211783e-38 1768976227
0.721114 44.827637 18.311819 1.880790849211783e-38 1768976227
0.863898 53.703766 10.222754 1.880790849211783e-38 1768976227
0.733594 45.603474 18.190548 1.880790849211783e-38 1768976227
0.743994 46.249969 17.937836 1.880790849211783e-38 1768976227
0.744568 46.285694 17.459629 1.880790849211783e-38 1768976227
0.758684 47.163170 17.183170 1.880790849211783e-38 1768976227
0.740851 46.054604 13.568601 1.880790849211783e-38 1768976227
0.750186 46.634899 13.386806 1.880790849211783e-38 1768976227
0.763842 47.483814 16.746655 1.880790849211783e-38 1768976227
0.711845 44.251457 12.268375 1.880790849211783e-38 1768976227
0.700614 43.553310 11.683037 1.880790849211783e-38 1768976227
0.711831 44.250580 14.511705 1.880790849211783e-38 1768976227
0.710605 44.174412 11.398090 1.880790849211783e-38 1768976227
0.735217 45.704376 14.493242 1.880790849211783e-38 1768976227
0.723292 44.963058 13.743395 1.880790849211783e-38 1768976227
0.873107 54.276203 9.898964 1.880790849211783e-38 1768976227
0.820100 42.929935 5.359132 1.880790849211783e-38 1768976227
0.815272 42.677216 5.109448 1.880790849211783e-38 1768976227
0.812206 42.516712 4.838144 1.880790849211783e-38 1768976227
0.802735 42.020916 4.489621 1.880790849211783e-38 1768976227
0.797568 41.750450 4.272933 1.880790849211783e-38 1768976227
0.792027 41.460384 3.971992 1.880790849211783e-38 1768976227
0.844135 44.188076 5.841428 1.880790849211783e-38 1768976227
0.786782 41.185822 3.642548 1.880790849211783e-38 1768976227
0.784284 41.055046 3.446319 1.880790849211783e-38 1768976227
0.780791 40.872196 3.171921 1.880790849211783e-38 1768976227
0.777328 40.690956 2.899954 1.880790849211783e-38 1768976227
0.774559 40.545967 2.682378 1.880790849211783e-38 1768976227
0.771546 40.388260 2.415962 1.880790849211783e-38 1768976227
0.843339 44.146446 18.395548 1.880790849211783e-38 1768976227
0.856280 44.823868 18.311251 1.880790849211783e-38 1768976227
0.870990 45.593864 18.187681 1.880790849211783e-38 1768976227
0.883336 46.240139 17.934973 1.880790849211783e-38 1768976227
0.882113 46.176121 17.419220 1.880790849211783e-38 1768976227
0.901230 47.176880 17.189077 1.880790849211783e-38 1768976227
0.879571 46.043053 13.565918 1.880790849211783e-38 1768976227
0.891143 46.648838 13.391518 1.880790849211783e-38 1768976227
0.843388 44.148983 12.240613 1.880790849211783e-38 1768976227
0.834796 43.699200 11.722795 1.880790849211783e-38 1768976227
0.841405 44.045208 14.445121 1.880790849211783e-38 1768976227
0.844953 44.230904 11.413273 1.880790849211783e-38 1768976227
0.873126 45.705704 14.494433 1.880790849211783e-38 1768976227
0.858000 44.913887 13.729094 1.880790849211783e-38 1768976227
1.034253 54.140247 9.874692 1.880790849211783e-38 1768976227
0.952893 43.077492 5.377886 1.880790849211783e-38 1768976227
0.945561 42.746056 5.118008 1.880790849211783e-38 1768976227
0.941038 42.541592 4.841276 1.880790849211783e-38 1768976227
0.931048 42.089954 4.497277 1.880790849211783e-38 1768976227
0.925045 41.818588 4.280172 1.880790849211783e-38 1768976227
0.918586 41.526573 3.978580 1.880790849211783e-38 1768976227
0.994172 44.943600 5.941674 1.880790849211783e-38 1768976227
0.890368 40.250904 2.144538 1.880790849211783e-38 1768976227
0.912280 41.241520 3.647701 1.880790849211783e-38 1768976227
0.909199 41.102222 3.450493 1.880790849211783e-38 1768976227
0.905145 40.918941 3.175745 1.880790849211783e-38 1768976227
0.901127 40.737282 2.903436 1.880790849211783e-38 1768976227
0.897912 40.591949 2.685587 1.880790849211783e-38 1768976227
0.893957 40.413174 2.417603 1.880790849211783e-38 1768976227
0.977102 44.171917 18.407305 1.880790849211783e-38 1768976227
0.991434 44.819809 18.310730 1.880790849211783e-38 1768976227
1.008339 45.584068 18.184902 1.880790849211783e-38 1768976227
1.022630 46.230091 17.932190 1.880790849211783e-38 1768976227
1.019043 46.067928 17.379486 1.880790849211783e-38 1768976227
1.018235 46.031410 13.563331 1.880790849211783e-38 1768976227
1.033565 46.724434 13.414052 1.880790849211783e-38 1768976227
0.974345 44.047268 12.213171 1.880790849211783e-38 1768976227
0.969901 43.846355 11.763000 1.880790849211783e-38 1768976227
0.969820 43.842701 14.379601 1.880790849211783e-38 1768976227
1.011056 45.706879 14.495708 1.880790849211783e-38 1768976227
0.992422 44.864475 13.714842 1.880790849211783e-38 1768976227
1.089401 43.336723 5.410635 1.880790849211783e-38 1768976227
1.078232 42.892429 5.135899 1.880790849211783e-38 1768976227
1.070040 42.566525 4.844459 1.880790849211783e-38 1768976227
1.059802 42.159286 4.505006 1.880790849211783e-38 1768976227
1.052958 41.887005 4.287481 1.880790849211783e-38 1768976227
1.045568 41.593025 3.985231 1.880790849211783e-38 1768976227
1.131848 45.025276 5.952896 1.880790849211783e-38 1768976227
1.038379 41.307049 3.653757 1.880790849211783e-38 1768976227
1.034419 41.149544 3.454712 1.880790849211783e-38 1768976227
1.029801 40.965816 3.179610 1.880790849211783e-38 1768976227
1.025223 40.783722 2.906954 1.880790849211783e-38 1768976227
1.021561 40.638050 2.688829 1.880790849211783e-38 1768976227
1.017057 40.458855 2.420508 1.880790849211783e-38 1768976227
1.110288 44.167633 18.406830 1.880790849211783e-38 1768976227
1.126573 44.815441 18.310251 1.880790849211783e-38 1768976227
1.145643 45.574051 18.182201 1.880790849211783e-38 1768976227
1.161877 46.219833 17.929491 1.880790849211783e-38 1768976227
1.155373 45.961105 17.340422 1.880790849211783e-38 1768976227
1.156717 46.014572 13.559337 1.880790849211783e-38 1768976227
1.177999 46.861202 13.454276 1.880790849211783e-38 1768976227
1.104724 43.946304 12.186045 1.880790849211783e-38 1768976227
1.105942 43.994762 11.803657 1.880790849211783e-38 1768976227
1.097100 43.643021 14.315130 1.880790849211783e-38 1768976227
1.154830 45.939533 11.855746 1.880790849211783e-38 1768976227
1.149007 45.707890 14.497061 1.880790849211783e-38 1768976227
1.126558 44.814838 13.700644 1.880790849211783e-38 1768976227
1.228100 43.617504 5.446128 1.880790849211783e-38 1768976227
1.211836 43.039883 5.153969 1.880790849211783e-38 1768976227
1.200994 42.654789 4.854894 1.880790849211783e-38 1768976227
1.189003 42.228912 4.512809 1.880790849211783e-38 1768976227
1.181311 41.955719 4.294859 1.880790849211783e-38 1768976227
1.172977 41.659737 3.991944 1.880790849211783e-38 1768976227
1.270048 45.107357 5.964228 1.880790849211783e-38 1768976227
1.164898 41.372810 3.659868 1.880790849211783e-38 1768976227
1.160016 41.199409 3.459176 1.880790849211783e-38 1768976227
1.154762 41.012821 3.183514 1.880790849211783e-38 1768976227
1.149623 40.830307 2.910508 1.880790849211783e-38 1768976227
1.145512 40.684288 2.692105 1.880790849211783e-38 1768976227
1.291115 45.855579 17.301998 1.880790849211783e-38 1768976227
1.294783 45.985828 13.551955 1.880790849211783e-38 1768976227
1.385693 49.214615 14.131097 1.880790849211783e-38 1768976227
1.234536 43.846077 12.159230 1.880790849211783e-38 1768976227
1.245887 44.249222 11.872881 1.880790849211783e-38 1768976227
1.223274 43.446091 14.251681 1.880790849211783e-38 1768976227
1.290918 45.848583 11.833225 1.880790849211783e-38 1768976227
1.286981 45.708733 14.498493 1.880790849211783e-38 1768976227
1.260408 44.764954 13.686494 1.880790849211783e-38 1768976227
1.368637 43.902172 5.482163 1.880790849211783e-38 1768976227
1.346388 43.188454 5.172223 1.880790849211783e-38 1768976227
1.330053 42.664501 4.856434 1.880790849211783e-38 1768976227
1.321590 42.393013 4.530751 1.880790849211783e-38 1768976227
1.310108 42.024719 4.302308 1.880790849211783e-38 1768976227
1.300818 41.726700 3.998718 1.880790849211783e-38 1768976227
1.291843 41.438831 3.666036 1.880790849211783e-38 1768976227
1.286420 41.264854 3.464981 1.880790849211783e-38 1768976227
1.280033 41.059975 3.187459 1.880790849211783e-38 1768976227
1.274329 40.877014 2.914098 1.880790849211783e-38 1768976227
1.302347 41.775738 2.764574 1.880790849211783e-38 1768976227
1.293542 41.493320 2.482818 1.880790849211783e-38 1768976227
1.432694 45.956932 13.544651 1.880790849211783e-38 1768976227
1.528188 49.020111 14.076510 1.880790849211783e-38 1768976227
1.367576 43.868130 12.166434 1.880790849211783e-38 1768976227
1.388697 44.545624 11.953481 1.880790849211783e-38 1768976227
1.390756 44.611683 14.635341 1.880790849211783e-38 1768976227
1.425671 45.731667 11.804106 1.880790849211783e-38 1768976227
1.424978 45.709423 14.500010 1.880790849211783e-38 1768976227
1.392430 44.665363 13.657267 1.880790849211783e-38 1768976227
1.511054 44.190792 5.518747 1.880790849211783e-38 1768976227
1.486209 43.464199 5.205759 1.880790849211783e-38 1768976227
1.459198 42.674263 4.858024 1.880790849211783e-38 1768976227
1.451508 42.449364 4.537220 1.880790849211783e-38 1768976227
1.439357 42.094025 4.309827 1.880790849211783e-38 1768976227
1.429096 41.793930 4.005556 1.880790849211783e-38 1768976227
1.419220 41.505112 3.672262 1.880790849211783e-38 1768976227
1.413252 41.330566 3.470841 1.880790849211783e-38 1768976227
1.405616 41.107258 3.191445 1.880790849211783e-38 1768976227
1.410129 41.239254 2.940211 1.880790849211783e-38 1768976227
1.434032 41.938286 2.775604 1.880790849211783e-38 1768976227
1.424299 41.653641 2.492656 1.880790849211783e-38 1768976227
1.570452 45.927887 13.537425 1.880790849211783e-38 1768976227
1.634759 47.808563 13.729957 1.880790849211783e-38 1768976227
1.501444 43.909748 12.179177 1.880790849211783e-38 1768976227
1.591699 46.549259 12.492373 1.880790849211783e-38 1768976227
1.491286 43.612682 14.309017 1.880790849211783e-38 1768976227
1.492361 43.644119 11.266386 1.880790849211783e-38 1768976227
1.561131 45.655304 14.484270 1.880790849211783e-38 1768976227
1.529847 44.740406 13.681561 1.880790849211783e-38 1768976227
1.655391 44.483452 5.555894 1.880790849211783e-38 1768976227
1.627993 43.747200 5.240219 1.880790849211783e-38 1768976227
1.603815 43.097515 4.906735 1.880790849211783e-38 1768976227
1.580055 42.459034 4.538743 1.880790849211783e-38 1768976227
1.569062 42.163628 4.317419 1.880790849211783e-38 1768976227
1.557816 41.861423 4.012456 1.880790849211783e-38 1768976227
1.547032 41.571644 3.678545 1.880790849211783e-38 1768976227
1.540515 41.396523 3.476754 1.880790849211783e-38 1768976227
1.559213 41.898956 3.253260 1.880790849211783e-38 1768976227
1.537907 41.326431 2.946744 1.880790849211783e-38 1768976227
1.530322 41.122612 2.721913 1.880790849211783e-38 1768976227
1.556098 41.815262 2.502598 1.880790849211783e-38 1768976227
1.708058 45.898697 13.530277 1.880790849211783e-38 1768976227
1.779884 47.828815 13.737252 1.880790849211783e-38 1768976227
1.635609 43.951859 12.192169 1.880790849211783e-38 1768976227
1.721964 46.272396 12.419409 1.880790849211783e-38 1768976227
1.632165 43.859318 14.391488 1.880790849211783e-38 1768976227
1.634907 43.933006 11.342181 1.880790849211783e-38 1768976227
1.696602 45.590862 14.465384 1.880790849211783e-38 1768976227
1.657703 44.545559 13.623445 1.880790849211783e-38 1768976227
1.801693 44.780247 5.593617 1.880790849211783e-38 1768976227
1.771674 44.034149 5.275207 1.880790849211783e-38 1768976227
1.739994 43.246758 4.924302 1.880790849211783e-38 1768976227
1.708691 42.468750 4.540312 1.880790849211783e-38 1768976227
1.699228 42.233528 4.325081 1.880790849211783e-38 1768976227
1.686983 41.929184 4.019421 1.880790849211783e-38 1768976227
1.675285 41.638435 3.684885 1.880790849211783e-38 1768976227
1.701637 42.293415 3.284272 1.880790849211783e-38 1768976227
1.672866 41.578331 2.965052 1.880790849211783e-38 1768976227
1.658019 41.209312 2.727970 1.880790849211783e-38 1768976227
1.688955 41.978210 2.512644 1.880790849211783e-38 1768976227
1.841694 45.774460 13.495231 1.880790849211783e-38 1768976227
1.918571 47.685211 13.697606 1.880790849211783e-38 1768976227
1.770079 43.994495 12.205423 1.880790849211783e-38 1768976227
1.859654 46.220852 12.407023 1.880790849211783e-38 1768976227
1.774927 44.115013 14.477079 1.880790849211783e-38 1768976227
1.779396 44.226070 11.419176 1.880790849211783e-38 1768976227
