# .PCD v0.7 - Point Cloud Data file format
VERSION 0.7
FIELDS x y z rgb label
SIZE 4 4 4 4 4
TYPE F F F F U
COUNT 1 1 1 1 1
WIDTH 771
HEIGHT 1
VIEWPOINT 0 0 0 1 0 0 0
POINTS 771
DATA ascii
-0.600817 42.686565 5.886813 1.880790849211783e-38 1768976227
-0.595193 42.287003 5.589650 1.880790849211783e-38 1768976227
-0.615485 43.728687 2.329493 1.880790849211783e-38 1768976227
-0.623262 44.281216 2.141663 1.880790849211783e-38 1768976227
-0.567259 40.302338 3.564114 1.880790849211783e-38 1768976227
-0.573160 40.721634 3.418046 1.880790849211783e-38 1768976227
-0.560734 39.838799 3.091465 1.880790849211783e-38 1768976227
-0.562815 39.986652 2.849523 1.880790849211783e-38 1768976227
-0.567549 40.322941 2.667401 1.880790849211783e-38 1768976227
-0.607553 43.165188 2.581858 1.880790849211783e-38 1768976227
-0.618959 43.975525 17.963192 1.880790849211783e-38 1768976227
-0.771510 54.813873 11.005253 1.880790849211783e-38 1768976227
-0.800819 56.896202 10.830119 1.880790849211783e-38 1768976227
-0.635670 45.162807 18.014227 1.880790849211783e-38 1768976227
-0.639195 45.413269 17.612789 1.880790849211783e-38 1768976227
-0.657479 46.712284 17.620010 1.880790849211783e-38 1768976227
-0.660917 46.956501 17.107355 1.880790849211783e-38 1768976227
-0.650562 46.220825 13.617161 1.880790849211783e-38 1768976227
-0.628968 44.686646 12.827160 1.880790849211783e-38 1768976227
-0.650265 46.199753 16.293295 1.880790849211783e-38 1768976227
-0.667581 47.429996 16.426577 1.880790849211783e-38 1768976227
-0.638621 45.372475 12.578786 1.880790849211783e-38 1768976227
-0.636784 45.241951 12.135643 1.880790849211783e-38 1768976227
-0.666484 47.352039 15.983323 1.880790849211783e-38 1768976227
-0.635317 45.137741 14.802197 1.880790849211783e-38 1768976227
-0.652461 46.355728 11.960562 1.880790849211783e-38 1768976227
-0.646983 45.966553 11.315111 1.880790849211783e-38 1768976227
-0.664257 47.193848 14.965113 1.880790849211783e-38 1768976227
-0.647588 46.009533 14.062834 1.880790849211783e-38 1768976227
-0.797287 56.645317 10.330731 1.880790849211783e-38 1768976227
-0.805297 57.214363 9.919859 1.880790849211783e-38 1768976227
-0.715552 50.838188 11.953081 1.880790849211783e-38 1768976227
-0.736613 52.334572 11.983940 1.880790849211783e-38 1768976227
-0.812371 57.716957 9.535023 1.880790849211783e-38 1768976227
-0.809770 57.532162 8.998745 1.880790849211783e-38 1768976227
-0.746412 53.030743 11.633811 1.880790849211783e-38 1768976227
-0.722770 51.351070 10.887399 1.880790849211783e-38 1768976227
-0.465795 42.120594 5.257461 1.880790849211783e-38 1768976227
-0.459249 41.528614 4.971330 1.880790849211783e-38 1768976227
-0.461425 41.725410 4.747523 1.880790849211783e-38 1768976227
-0.458309 41.443638 4.427406 1.880790849211783e-38 1768976227
-0.453754 41.031723 4.198865 1.880790849211783e-38 1768976227
-0.454685 41.115940 3.938516 1.880790849211783e-38 1768976227
-0.481440 43.535328 6.003637 1.880790849211783e-38 1768976227
-0.477682 43.195461 5.709518 1.880790849211783e-38 1768976227
-0.476879 43.122856 2.297132 1.880790849211783e-38 1768976227
-0.479603 43.369194 2.097474 1.880790849211783e-38 1768976227
-0.452232 40.894081 3.616308 1.880790849211783e-38 1768976227
-0.451550 40.832447 3.427217 1.880790849211783e-38 1768976227
-0.448503 40.556938 3.147073 1.880790849211783e-38 1768976227
-0.442942 40.054020 2.854215 1.880790849211783e-38 1768976227
-0.452015 40.874512 2.703785 1.880790849211783e-38 1768976227
-0.448324 40.540749 2.424790 1.880790849211783e-38 1768976227
-0.489972 44.306881 18.097857 1.880790849211783e-38 1768976227
-0.601391 54.382179 10.918166 1.880790849211783e-38 1768976227
-0.631080 57.066841 10.862187 1.880790849211783e-38 1768976227
-0.504547 45.624817 18.197819 1.880790849211783e-38 1768976227
-0.510733 46.184219 17.911112 1.880790849211783e-38 1768976227
-0.512831 46.373890 17.491705 1.880790849211783e-38 1768976227
-0.513923 46.472691 16.930449 1.880790849211783e-38 1768976227
-0.511005 46.208763 13.613091 1.880790849211783e-38 1768976227
-0.493736 44.647205 12.815352 1.880790849211783e-38 1768976227
-0.516380 46.694809 16.467262 1.880790849211783e-38 1768976227
-0.526797 47.636799 16.497574 1.880790849211783e-38 1768976227
-0.492063 44.495964 12.335321 1.880790849211783e-38 1768976227
-0.493845 44.657059 11.978297 1.880790849211783e-38 1768976227
-0.518716 46.906116 15.832204 1.880790849211783e-38 1768976227
-0.507555 45.896870 15.050570 1.880790849211783e-38 1768976227
-0.519851 47.008747 12.128592 1.880790849211783e-38 1768976227
-0.587865 53.159073 13.085125 1.880790849211783e-38 1768976227
-0.485933 43.941631 13.933311 1.880790849211783e-38 1768976227
-0.489600 44.273167 13.531599 1.880790849211783e-38 1768976227
-0.627914 56.780621 10.355015 1.880790849211783e-38 1768976227
-0.636403 57.548168 9.977356 1.880790849211783e-38 1768976227
-0.532243 48.129303 11.315739 1.880790849211783e-38 1768976227
-0.562442 50.860138 11.645871 1.880790849211783e-38 1768976227
-0.632622 57.206329 9.450308 1.880790849211783e-38 1768976227
-0.638490 57.736889 9.030425 1.880790849211783e-38 1768976227
-0.578448 52.307472 11.474705 1.880790849211783e-38 1768976227
-0.577713 52.241070 11.075676 1.880790849211783e-38 1768976227
-0.340111 42.287571 5.278151 1.880790849211783e-38 1768976227
-0.337112 41.914719 5.017406 1.880790849211783e-38 1768976227
-0.332070 41.287861 4.697603 1.880790849211783e-38 1768976227
-0.330260 41.062717 4.386587 1.880790849211783e-38 1768976227
-0.334423 41.580421 4.254893 1.880790849211783e-38 1768976227
-0.329091 40.917408 3.919386 1.880790849211783e-38 1768976227
-0.349773 43.488869 5.997057 1.880790849211783e-38 1768976227
-0.348055 43.275318 5.719908 1.880790849211783e-38 1768976227
-0.349365 43.438221 2.100751 1.880790849211783e-38 1768976227
-0.323202 40.185226 3.553520 1.880790849211783e-38 1768976227
-0.326042 40.538357 3.402435 1.880790849211783e-38 1768976227
-0.326261 40.565556 3.147651 1.880790849211783e-38 1768976227
-0.329309 40.944557 2.917590 1.880790849211783e-38 1768976227
-0.330540 41.097576 2.718462 1.880790849211783e-38 1768976227
-0.327796 40.756344 2.437615 1.880790849211783e-38 1768976227
-0.360373 44.806870 18.301559 1.880790849211783e-38 1768976227
-0.439960 54.702305 10.982120 1.880790849211783e-38 1768976227
-0.441353 54.875412 10.444768 1.880790849211783e-38 1768976227
-0.367451 45.686863 18.222044 1.880790849211783e-38 1768976227
-0.371337 46.170067 17.905106 1.880790849211783e-38 1768976227
-0.378845 47.103558 17.766415 1.880790849211783e-38 1768976227
-0.373307 46.414932 16.908920 1.880790849211783e-38 1768976227
-0.366975 45.627716 13.441528 1.880790849211783e-38 1768976227
-0.359476 44.695316 12.828793 1.880790849211783e-38 1768976227
-0.382318 47.535393 16.763218 1.880790849211783e-38 1768976227
-0.385132 47.885307 16.583160 1.880790849211783e-38 1768976227
-0.356593 44.336807 12.290844 1.880790849211783e-38 1768976227
-0.363793 45.232132 12.132199 1.880790849211783e-38 1768976227
-0.377134 46.890797 15.826578 1.880790849211783e-38 1768976227
-0.371243 46.158333 15.135873 1.880790849211783e-38 1768976227
-0.375399 46.675140 12.042172 1.880790849211783e-38 1768976227
-0.425919 52.956532 13.034894 1.880790849211783e-38 1768976227
-0.347806 43.244366 13.711823 1.880790849211783e-38 1768976227
-0.359133 44.652641 13.647189 1.880790849211783e-38 1768976227
-0.459746 57.162407 10.424341 1.880790849211783e-38 1768976227
-0.459309 57.108070 9.900769 1.880790849211783e-38 1768976227
-0.388473 48.300705 11.355710 1.880790849211783e-38 1768976227
-0.405110 50.369240 11.533134 1.880790849211783e-38 1768976227
-0.458782 57.042549 9.422980 1.880790849211783e-38 1768976227
-0.463793 57.665554 9.019008 1.880790849211783e-38 1768976227
-0.420778 52.317341 11.476540 1.880790849211783e-38 1768976227
-0.422983 52.591492 11.149648 1.880790849211783e-38 1768976227
-0.215386 42.848591 5.348069 1.880790849211783e-38 1768976227
-0.211555 42.086395 5.037857 1.880790849211783e-38 1768976227
-0.209909 41.759014 4.751116 1.880790849211783e-38 1768976227
-0.208894 41.557068 4.439309 1.880790849211783e-38 1768976227
-0.210439 41.864452 4.283873 1.880790849211783e-38 1768976227
-0.205356 40.853184 3.913157 1.880790849211783e-38 1768976227
-0.217040 43.177608 5.954018 1.880790849211783e-38 1768976227
-0.215962 42.963135 5.678534 1.880790849211783e-38 1768976227
-0.203652 40.514244 2.158068 1.880790849211783e-38 1768976227
-0.206469 41.074497 3.632086 1.880790849211783e-38 1768976227
-0.204959 40.774132 3.422156 1.880790849211783e-38 1768976227
-0.219461 43.659222 1.816882 1.880790849211783e-38 1768976227
-0.207048 41.189739 3.196021 1.880790849211783e-38 1768976227
-0.202440 40.273144 2.869690 1.880790849211783e-38 1768976227
-0.201487 40.083508 2.651333 1.880790849211783e-38 1768976227
-0.205779 40.937275 2.448387 1.880790849211783e-38 1768976227
-0.226241 45.008068 18.383377 1.880790849211783e-38 1768976227
-0.274266 54.562092 10.953755 1.880790849211783e-38 1768976227
-0.277217 55.149120 10.496657 1.880790849211783e-38 1768976227
-0.229355 45.627426 18.197977 1.880790849211783e-38 1768976227
-0.232246 46.202621 17.917379 1.880790849211783e-38 1768976227
-0.231884 46.130596 17.399092 1.880790849211783e-38 1768976227
-0.232048 46.163269 16.816908 1.880790849211783e-38 1768976227
-0.232206 46.194584 13.608253 1.880790849211783e-38 1768976227
-0.227819 45.321907 13.008386 1.880790849211783e-38 1768976227
-0.240801 47.904625 16.893093 1.880790849211783e-38 1768976227
-0.237950 47.337269 16.393045 1.880790849211783e-38 1768976227
-0.223962 44.554710 12.351007 1.880790849211783e-38 1768976227
-0.225822 44.924553 12.049462 1.880790849211783e-38 1768976227
-0.232041 46.161774 15.136703 1.880790849211783e-38 1768976227
-0.233667 46.485264 11.992948 1.880790849211783e-38 1768976227
-0.264813 52.681465 12.966931 1.880790849211783e-38 1768976227
-0.229203 45.597343 14.457614 1.880790849211783e-38 1768976227
-0.223733 44.508961 13.603007 1.880790849211783e-38 1768976227
-0.288619 57.417370 10.470630 1.880790849211783e-38 1768976227
-0.286142 56.924561 9.868760 1.880790849211783e-38 1768976227
-0.260942 51.911297 11.885988 1.880790849211783e-38 1768976227
-0.289064 57.505970 9.499347 1.880790849211783e-38 1768976227
-0.264500 52.619247 11.542540 1.880790849211783e-38 1768976227
-0.265638 52.845516 11.203282 1.880790849211783e-38 1768976227
-0.086547 43.044102 5.372415 1.880790849211783e-38 1768976227
-0.083698 41.627419 4.982863 1.880790849211783e-38 1768976227
-0.083086 41.322956 4.701454 1.880790849211783e-38 1768976227
-0.084390 41.971252 4.483506 1.880790849211783e-38 1768976227
-0.083017 41.288486 4.224891 1.880790849211783e-38 1768976227
-0.083577 41.567078 3.981495 1.880790849211783e-38 1768976227
-0.088051 43.792244 6.038709 1.880790849211783e-38 1768976227
-0.087172 43.355251 5.730299 1.880790849211783e-38 1768976227
-0.081673 40.620029 2.163680 1.880790849211783e-38 1768976227
-0.081816 40.691345 3.598167 1.880790849211783e-38 1768976227
-0.082174 40.869305 3.430108 1.880790849211783e-38 1768976227
-0.081868 40.717354 3.159334 1.880790849211783e-38 1768976227
-0.083075 41.317471 2.944073 1.880790849211783e-38 1768976227
-0.081881 40.723408 2.693631 1.880790849211783e-38 1768976227
-0.082116 40.840328 2.442564 1.880790849211783e-38 1768976227
-0.090493 45.006855 18.382687 1.880790849211783e-38 1768976227
-0.108732 54.077831 10.856421 1.880790849211783e-38 1768976227
-0.110495 54.954971 10.459594 1.880790849211783e-38 1768976227
-0.090443 44.982063 17.940393 1.880790849211783e-38 1768976227
-0.093654 46.578819 18.063076 1.880790849211783e-38 1768976227
-0.094117 46.809181 17.654848 1.880790849211783e-38 1768976227
-0.092300 45.905556 16.722849 1.880790849211783e-38 1768976227
-0.093184 46.345173 13.652471 1.880790849211783e-38 1768976227
-0.093378 46.441814 13.329682 1.880790849211783e-38 1768976227
-0.094906 47.201855 16.645092 1.880790849211783e-38 1768976227
-0.095702 47.597645 16.483040 1.880790849211783e-38 1768976227
-0.088054 43.793644 12.139903 1.880790849211783e-38 1768976227
-0.095674 47.583527 12.762506 1.880790849211783e-38 1768976227
-0.091774 45.644066 14.966784 1.880790849211783e-38 1768976227
-0.093466 46.485332 11.992838 1.880790849211783e-38 1768976227
-0.105417 52.429066 12.904670 1.880790849211783e-38 1768976227
-0.091398 45.457081 14.412988 1.880790849211783e-38 1768976227
-0.089291 44.409107 13.572346 1.880790849211783e-38 1768976227
-0.114847 57.119400 10.416183 1.880790849211783e-38 1768976227
-0.114861 57.126484 9.903662 1.880790849211783e-38 1768976227
-0.106473 52.954514 12.124722 1.880790849211783e-38 1768976227
-0.105697 52.568474 11.531281 1.880790849211783e-38 1768976227
-0.105499 52.470222 11.123600 1.880790849211783e-38 1768976227
0.043161 42.932156 5.358434 1.880790849211783e-38 1768976227
0.043296 43.066185 5.155078 1.880790849211783e-38 1768976227
0.041980 41.757645 4.750903 1.880790849211783e-38 1768976227
0.041717 41.496132 4.432745 1.880790849211783e-38 1768976227
0.041776 41.554543 4.252109 1.880790849211783e-38 1768976227
0.041711 41.489750 3.974082 1.880790849211783e-38 1768976227
0.043589 43.357567 5.978760 1.880790849211783e-38 1768976227
0.043376 43.146347 5.702680 1.880790849211783e-38 1768976227
0.041371 41.151367 2.191979 1.880790849211783e-38 1768976227
0.040623 40.408112 1.954148 1.880790849211783e-38 1768976227
0.041178 40.959885 3.621907 1.880790849211783e-38 1768976227
0.041181 40.962589 3.437932 1.880790849211783e-38 1768976227
0.041033 40.815845 3.166971 1.880790849211783e-38 1768976227
0.040946 40.729488 2.902172 1.880790849211783e-38 1768976227
0.040325 40.110886 2.653112 1.880790849211783e-38 1768976227
0.040852 40.635033 2.430282 1.880790849211783e-38 1768976227
0.044262 44.027794 18.342768 1.880790849211783e-38 1768976227
0.045353 45.112225 18.425695 1.880790849211783e-38 1768976227
0.054573 54.283993 10.897793 1.880790849211783e-38 1768976227
0.054263 53.975357 10.273129 1.880790849211783e-38 1768976227
0.045695 45.452461 18.127975 1.880790849211783e-38 1768976227
0.046737 46.489151 18.028276 1.880790849211783e-38 1768976227
0.046669 46.421490 17.508596 1.880790849211783e-38 1768976227
0.046345 46.099243 16.793381 1.880790849211783e-38 1768976227
0.046152 45.907661 13.523566 1.880790849211783e-38 1768976227
0.046518 46.271111 13.280666 1.880790849211783e-38 1768976227
0.047483 47.231426 16.655493 1.880790849211783e-38 1768976227
0.047684 47.431641 16.425528 1.880790849211783e-38 1768976227
0.044113 43.879089 12.163570 1.880790849211783e-38 1768976227
0.048073 47.818672 12.825556 1.880790849211783e-38 1768976227
0.046373 46.126953 15.125102 1.880790849211783e-38 1768976227
0.046596 46.348713 11.957573 1.880790849211783e-38 1768976227
0.052199 51.922455 12.779956 1.880790849211783e-38 1768976227
0.045941 45.697392 14.489161 1.880790849211783e-38 1768976227
0.043877 43.644890 13.338765 1.880790849211783e-38 1768976227
0.057497 57.192131 10.429430 1.880790849211783e-38 1768976227
0.051453 51.180393 11.226777 1.880790849211783e-38 1768976227
0.052798 52.517868 11.133685 1.880790849211783e-38 1768976227
0.173376 43.114689 5.381258 1.880790849211783e-38 1768976227
0.172566 42.913261 5.136812 1.880790849211783e-38 1768976227
0.169742 42.210949 4.802513 1.880790849211783e-38 1768976227
0.167202 41.579384 4.441672 1.880790849211783e-38 1768976227
0.166168 41.322250 4.228372 1.880790849211783e-38 1768976227
0.163871 40.750965 3.903348 1.880790849211783e-38 1768976227
0.172092 42.795246 5.656317 1.880790849211783e-38 1768976227
0.166602 41.430031 2.206839 1.880790849211783e-38 1768976227
0.161917 40.265087 1.947246 1.880790849211783e-38 1768976227
0.164524 40.913349 3.617819 1.880790849211783e-38 1768976227
0.165297 41.105713 3.449970 1.880790849211783e-38 1768976227
0.162119 40.315247 3.128153 1.880790849211783e-38 1768976227
0.164394 40.881134 2.913000 1.880790849211783e-38 1768976227
0.160929 40.019257 2.647071 1.880790849211783e-38 1768976227
0.166106 41.306648 2.470468 1.880790849211783e-38 1768976227
0.176790 43.963593 18.316158 1.880790849211783e-38 1768976227
0.181736 45.193554 18.459053 1.880790849211783e-38 1768976227
0.210983 52.466648 10.533031 1.880790849211783e-38 1768976227
0.219302 54.535412 10.379803 1.880790849211783e-38 1768976227
0.181897 45.233528 18.040794 1.880790849211783e-38 1768976227
0.187968 46.743237 18.126947 1.880790849211783e-38 1768976227
0.187607 46.653690 17.596308 1.880790849211783e-38 1768976227
0.183893 45.729897 16.658958 1.880790849211783e-38 1768976227
0.186437 46.362545 13.657670 1.880790849211783e-38 1768976227
0.187436 46.611168 13.378370 1.880790849211783e-38 1768976227
0.190292 47.321381 16.687342 1.880790849211783e-38 1768976227
0.189812 47.201939 16.346106 1.880790849211783e-38 1768976227
0.174833 43.476864 12.052162 1.880790849211783e-38 1768976227
0.192585 47.891502 12.845186 1.880790849211783e-38 1768976227
0.185769 46.196400 15.147988 1.880790849211783e-38 1768976227
0.187987 46.748074 12.060697 1.880790849211783e-38 1768976227
0.214167 53.258541 13.108913 1.880790849211783e-38 1768976227
0.180794 44.959358 14.255262 1.880790849211783e-38 1768976227
0.177004 44.016975 13.452583 1.880790849211783e-38 1768976227
0.219505 54.585873 12.833068 1.880790849211783e-38 1768976227
0.211267 52.537235 11.137875 1.880790849211783e-38 1768976227
0.296395 42.117676 5.256905 1.880790849211783e-38 1768976227
0.302317 42.959274 5.142406 1.880790849211783e-38 1768976227
0.295821 42.036102 4.782699 1.880790849211783e-38 1768976227
0.292827 41.610668 4.445088 1.880790849211783e-38 1768976227
0.291031 41.355473 4.231842 1.880790849211783e-38 1768976227
0.289558 41.146225 3.941273 1.880790849211783e-38 1768976227
0.298749 42.452251 5.611077 1.880790849211783e-38 1768976227
0.288506 40.996693 2.183793 1.880790849211783e-38 1768976227
0.290540 41.285782 3.650813 1.880790849211783e-38 1768976227
0.289221 41.098301 3.449405 1.880790849211783e-38 1768976227
0.289558 41.146118 3.192675 1.880790849211783e-38 1768976227
0.287271 40.821140 2.908773 1.880790849211783e-38 1768976227
0.281820 40.046577 2.648923 1.880790849211783e-38 1768976227
0.289945 41.201138 2.464199 1.880790849211783e-38 1768976227
0.302202 42.942898 17.891216 1.880790849211783e-38 1768976227
0.316248 44.938793 18.355305 1.880790849211783e-38 1768976227
0.371784 52.830536 10.606260 1.880790849211783e-38 1768976227
0.384078 54.577454 10.387977 1.880790849211783e-38 1768976227
0.319761 45.438053 18.122669 1.880790849211783e-38 1768976227
0.327130 46.485191 18.027178 1.880790849211783e-38 1768976227
0.329731 46.854755 17.672438 1.880790849211783e-38 1768976227
0.320832 45.590218 16.608351 1.880790849211783e-38 1768976227
0.321684 45.711304 13.466050 1.880790849211783e-38 1768976227
0.325036 46.187641 13.257030 1.880790849211783e-38 1768976227
0.333103 47.333927 16.692045 1.880790849211783e-38 1768976227
0.337468 47.954136 16.606871 1.880790849211783e-38 1768976227
0.313216 44.508011 12.338212 1.880790849211783e-38 1768976227
0.324205 46.069530 12.356713 1.880790849211783e-38 1768976227
0.322739 45.861176 15.038318 1.880790849211783e-38 1768976227
0.309571 43.990055 11.349335 1.880790849211783e-38 1768976227
0.319368 45.382214 14.389578 1.880790849211783e-38 1768976227
0.303677 43.152500 13.188600 1.880790849211783e-38 1768976227
0.383251 54.459961 12.803681 1.880790849211783e-38 1768976227
0.366593 52.092846 11.043849 1.880790849211783e-38 1768976227
0.421568 41.932644 5.233945 1.880790849211783e-38 1768976227
0.433046 43.074326 5.156311 1.880790849211783e-38 1768976227
0.425373 42.311138 4.814116 1.880790849211783e-38 1768976227
0.414305 41.210201 4.402422 1.880790849211783e-38 1768976227
0.418891 41.666424 4.263771 1.880790849211783e-38 1768976227
0.413696 41.149662 3.941704 1.880790849211783e-38 1768976227
0.432413 43.011417 5.685131 1.880790849211783e-38 1768976227
0.408586 40.641373 3.593922 1.880790849211783e-38 1768976227
0.408442 40.627048 3.409941 1.880790849211783e-38 1768976227
0.412058 40.986694 3.180387 1.880790849211783e-38 1768976227
0.405004 40.285053 2.870648 1.880790849211783e-38 1768976227
0.412399 41.020676 2.713425 1.880790849211783e-38 1768976227
0.406619 40.445679 2.419078 1.880790849211783e-38 1768976227
0.440121 43.778114 18.239660 1.880790849211783e-38 1768976227
0.452716 45.030880 18.393391 1.880790849211783e-38 1768976227
0.526179 52.338169 10.507684 1.880790849211783e-38 1768976227
0.544768 54.187180 10.313961 1.880790849211783e-38 1768976227
0.457330 45.489895 18.143814 1.880790849211783e-38 1768976227
0.466538 46.405777 17.996845 1.880790849211783e-38 1768976227
0.469462 46.696632 17.613251 1.880790849211783e-38 1768976227
0.472378 46.986668 17.117514 1.880790849211783e-38 1768976227
0.467681 46.519428 13.704468 1.880790849211783e-38 1768976227
0.471230 46.872444 13.453933 1.880790849211783e-38 1768976227
0.478039 47.549744 16.768583 1.880790849211783e-38 1768976227
0.449620 44.722988 12.398125 1.880790849211783e-38 1768976227
0.435727 43.341019 11.625175 1.880790849211783e-38 1768976227
0.444786 44.242100 14.507781 1.880790849211783e-38 1768976227
0.439909 43.757046 11.289510 1.880790849211783e-38 1768976227
0.455380 45.295876 14.362573 1.880790849211783e-38 1768976227
0.439751 43.741295 13.368897 1.880790849211783e-38 1768976227
0.546862 54.395397 9.919920 1.880790849211783e-38 1768976227
0.545379 54.247902 12.754154 1.880790849211783e-38 1768976227
0.555522 42.504280 5.305481 1.880790849211783e-38 1768976227
0.558501 42.732201 5.115534 1.880790849211783e-38 1768976227
0.552720 42.289917 4.811869 1.880790849211783e-38 1768976227
0.551339 42.184238 4.506634 1.880790849211783e-38 1768976227
0.548286 41.950626 4.293003 1.880790849211783e-38 1768976227
0.544397 41.653049 3.990063 1.880790849211783e-38 1768976227
0.565731 43.285439 5.721550 1.880790849211783e-38 1768976227
0.536251 41.029827 3.628400 1.880790849211783e-38 1768976227
0.531944 40.700294 3.416208 1.880790849211783e-38 1768976227
0.536960 41.084080 3.188054 1.880790849211783e-38 1768976227
0.532094 40.711769 2.901156 1.880790849211783e-38 1768976227
0.523109 40.024273 2.647608 1.880790849211783e-38 1768976227
0.520112 39.794952 2.380241 1.880790849211783e-38 1768976227
0.575314 44.018608 18.340498 1.880790849211783e-38 1768976227
0.582938 44.601936 18.218819 1.880790849211783e-38 1768976227
0.681275 52.125935 10.465440 1.880790849211783e-38 1768976227
0.708592 54.216053 10.319816 1.880790849211783e-38 1768976227
0.601150 45.995369 18.346062 1.880790849211783e-38 1768976227
0.602478 46.097015 17.877726 1.880790849211783e-38 1768976227
0.602817 46.122902 17.397455 1.880790849211783e-38 1768976227
0.619459 47.396225 17.267321 1.880790849211783e-38 1768976227
0.599708 45.885059 13.518056 1.880790849211783e-38 1768976227
0.606233 46.384296 13.314282 1.880790849211783e-38 1768976227
0.622402 47.621452 16.794456 1.880790849211783e-38 1768976227
0.578871 44.290798 12.278742 1.880790849211783e-38 1768976227
0.569656 43.585690 11.691210 1.880790849211783e-38 1768976227
0.582782 44.590015 14.622378 1.880790849211783e-38 1768976227
0.574338 43.943913 11.338119 1.880790849211783e-38 1768976227
0.602870 46.126987 14.626614 1.880790849211783e-38 1768976227
0.573961 43.915112 13.422490 1.880790849211783e-38 1768976227
0.707686 54.146740 9.874917 1.880790849211783e-38 1768976227
0.706218 54.034367 12.704394 1.880790849211783e-38 1768976227
0.690108 42.900173 5.355133 1.880790849211783e-38 1768976227
0.687558 42.741703 5.116897 1.880790849211783e-38 1768976227
0.682574 42.431824 4.828228 1.880790849211783e-38 1768976227
0.673959 41.896282 4.476068 1.880790849211783e-38 1768976227
0.673953 41.895950 4.287597 1.880790849211783e-38 1768976227
0.663640 41.254848 3.952092 1.880790849211783e-38 1768976227
0.708553 44.046822 5.822446 1.880790849211783e-38 1768976227
0.665168 41.349819 3.656858 1.880790849211783e-38 1768976227
0.658569 40.939606 3.436445 1.880790849211783e-38 1768976227
0.660385 41.052464 3.185741 1.880790849211783e-38 1768976227
0.656014 40.780762 2.906200 1.880790849211783e-38 1768976227
0.646081 40.163254 2.656918 1.880790849211783e-38 1768976227
0.643609 40.009594 2.393184 1.880790849211783e-38 1768976227
0.708875 44.066811 18.361389 1.880790849211783e-38 1768976227
0.725491 45.099754 18.422977 1.880790849211783e-38 1768976227
0.869114 54.028004 10.284474 1.880790849211783e-38 1768976227
0.738141 45.886135 18.303299 1.880790849211783e-38 1768976227
0.740155 46.011345 17.845285 1.880790849211783e-38 1768976227
0.737918 45.872269 17.303679 1.880790849211783e-38 1768976227
0.762259 47.385399 17.264135 1.880790849211783e-38 1768976227
0.744881 46.305107 13.642404 1.880790849211783e-38 1768976227
0.749949 46.620193 13.382584 1.880790849211783e-38 1768976227
0.760358 47.267277 16.670284 1.880790849211783e-38 1768976227
0.709026 44.076233 12.219795 1.880790849211783e-38 1768976227
0.701986 43.638603 11.705917 1.880790849211783e-38 1768976227
0.703891 43.757015 14.349843 1.880790849211783e-38 1768976227
0.712339 44.282169 11.425895 1.880790849211783e-38 1768976227
0.742216 46.139465 14.631213 1.880790849211783e-38 1768976227
0.725305 45.088200 13.781645 1.880790849211783e-38 1768976227
0.869478 54.050640 9.857825 1.880790849211783e-38 1768976227
0.823147 43.089413 5.379040 1.880790849211783e-38 1768976227
0.819589 42.903156 5.136498 1.880790849211783e-38 1768976227
0.809220 42.360386 4.820355 1.880790849211783e-38 1768976227
0.801942 41.979427 4.485188 1.880790849211783e-38 1768976227
0.792779 41.499752 4.247275 1.880790849211783e-38 1768976227
0.788735 41.288063 3.955483 1.880790849211783e-38 1768976227
0.843993 44.180668 5.840449 1.880790849211783e-38 1768976227
0.794154 41.571701 3.676676 1.880790849211783e-38 1768976227
0.782616 40.967728 3.438989 1.880790849211783e-38 1768976227
0.773025 40.465668 3.140372 1.880790849211783e-38 1768976227
0.786933 41.193714 2.935784 1.880790849211783e-38 1768976227
0.769259 40.268532 2.664024 1.880790849211783e-38 1768976227
0.771679 40.395218 2.416378 1.880790849211783e-38 1768976227
0.835041 43.712036 18.214531 1.880790849211783e-38 1768976227
0.860494 45.044426 18.401352 1.880790849211783e-38 1768976227
0.871892 45.641064 18.206509 1.880790849211783e-38 1768976227
0.892436 46.716484 18.119732 1.880790849211783e-38 1768976227
0.887164 46.440556 17.518972 1.880790849211783e-38 1768976227
0.897343 46.973396 17.114937 1.880790849211783e-38 1768976227
0.874182 45.760967 13.482806 1.880790849211783e-38 1768976227
0.893345 46.764103 13.424606 1.880790849211783e-38 1768976227
0.853964 44.702633 12.394116 1.880790849211783e-38 1768976227
0.834520 43.684799 11.718931 1.880790849211783e-38 1768976227
0.839022 43.920433 14.404200 1.880790849211783e-38 1768976227
0.839061 43.922482 11.333687 1.880790849211783e-38 1768976227
0.874118 45.757595 14.510890 1.880790849211783e-38 1768976227
0.868005 45.437634 13.889191 1.880790849211783e-38 1768976227
1.037480 54.309158 9.905499 1.880790849211783e-38 1768976227
0.965572 43.650654 5.449441 1.880790849211783e-38 1768976227
0.937244 42.370056 5.072989 1.880790849211783e-38 1768976227
0.940640 42.523571 4.839225 1.880790849211783e-38 1768976227
0.930731 42.075603 4.495744 1.880790849211783e-38 1768976227
0.925237 41.827232 4.281057 1.880790849211783e-38 1768976227
0.923825 41.763412 4.001272 1.880790849211783e-38 1768976227
0.986118 44.579517 5.893541 1.880790849211783e-38 1768976227
0.889520 40.212574 2.142496 1.880790849211783e-38 1768976227
0.910130 41.144321 3.639104 1.880790849211783e-38 1768976227
0.915421 41.383484 3.474105 1.880790849211783e-38 1768976227
0.906154 40.964565 3.179286 1.880790849211783e-38 1768976227
0.889694 40.220467 2.866602 1.880790849211783e-38 1768976227
0.899956 40.684376 2.691702 1.880790849211783e-38 1768976227
0.897520 40.574245 2.427239 1.880790849211783e-38 1768976227
0.980419 44.321846 18.469784 1.880790849211783e-38 1768976227
0.998853 45.155224 18.447762 1.880790849211783e-38 1768976227
1.000837 45.244919 18.049604 1.880790849211783e-38 1768976227
1.031121 46.613956 18.081089 1.880790849211783e-38 1768976227
1.019811 46.102657 17.392588 1.880790849211783e-38 1768976227
1.011919 45.745884 13.479199 1.880790849211783e-38 1768976227
1.030937 46.605652 13.379951 1.880790849211783e-38 1768976227
0.972903 43.982079 12.195096 1.880790849211783e-38 1768976227
0.971696 43.927544 11.784782 1.880790849211783e-38 1768976227
0.972379 43.958397 14.417547 1.880790849211783e-38 1768976227
1.015242 45.896095 14.555717 1.880790849211783e-38 1768976227
0.999099 45.166340 13.807120 1.880790849211783e-38 1768976227
1.088622 43.305737 5.406766 1.880790849211783e-38 1768976227
1.081838 43.035854 5.153072 1.880790849211783e-38 1768976227
1.062558 42.268909 4.810587 1.880790849211783e-38 1768976227
1.068174 42.492336 4.540595 1.880790849211783e-38 1768976227
1.058239 42.097076 4.308983 1.880790849211783e-38 1768976227
1.042668 41.477661 3.974177 1.880790849211783e-38 1768976227
1.132768 45.061901 5.957738 1.880790849211783e-38 1768976227
1.027288 40.865860 3.614733 1.880790849211783e-38 1768976227
1.034679 41.159882 3.455580 1.880790849211783e-38 1768976227
1.029866 40.968407 3.179811 1.880790849211783e-38 1768976227
1.028290 40.905704 2.915648 1.880790849211783e-38 1768976227
1.021417 40.632320 2.688450 1.880790849211783e-38 1768976227
1.018961 40.534618 2.425041 1.880790849211783e-38 1768976227
1.106477 44.016026 18.343649 1.880790849211783e-38 1768976227
1.131206 44.999733 18.385548 1.880790849211783e-38 1768976227
1.144660 45.534946 18.166601 1.880790849211783e-38 1768976227
1.168942 46.500912 18.038525 1.880790849211783e-38 1768976227
1.162992 46.264194 17.454773 1.880790849211783e-38 1768976227
1.151102 45.791225 13.493522 1.880790849211783e-38 1768976227
1.200578 47.759407 13.712159 1.880790849211783e-38 1768976227
1.102840 43.871338 12.165257 1.880790849211783e-38 1768976227
1.094598 43.543472 11.682577 1.880790849211783e-38 1768976227
1.099084 43.721947 14.341018 1.880790849211783e-38 1768976227
1.157127 46.030903 11.879327 1.880790849211783e-38 1768976227
1.147899 45.663803 14.483078 1.880790849211783e-38 1768976227
1.143921 45.505577 13.911815 1.880790849211783e-38 1768976227
1.220290 43.340141 5.411497 1.880790849211783e-38 1768976227
1.215385 43.165909 5.169060 1.880790849211783e-38 1768976227
1.190966 42.298653 4.814359 1.880790849211783e-38 1768976227
1.181695 41.969383 4.485075 1.880790849211783e-38 1768976227
1.168877 41.514122 4.249655 1.880790849211783e-38 1768976227
1.161790 41.262440 3.953874 1.880790849211783e-38 1768976227
1.279249 45.434135 6.007435 1.880790849211783e-38 1768976227
1.172645 41.647961 3.684208 1.880790849211783e-38 1768976227
1.166307 41.422840 3.477936 1.880790849211783e-38 1768976227
1.155318 41.032547 3.185045 1.880790849211783e-38 1768976227
1.152413 40.929379 2.917570 1.880790849211783e-38 1768976227
1.145161 40.671833 2.691280 1.880790849211783e-38 1768976227
1.276672 45.342598 17.108442 1.880790849211783e-38 1768976227
1.296348 46.041420 13.568338 1.880790849211783e-38 1768976227
1.380878 49.043621 14.082000 1.880790849211783e-38 1768976227
1.234052 43.828907 12.154469 1.880790849211783e-38 1768976227
1.247301 44.299454 11.886360 1.880790849211783e-38 1768976227
1.228602 43.635338 14.313761 1.880790849211783e-38 1768976227
1.286687 45.698303 11.794439 1.880790849211783e-38 1768976227
1.282720 45.557423 14.450499 1.880790849211783e-38 1768976227
1.277832 45.383785 13.875696 1.880790849211783e-38 1768976227
1.384587 44.413799 5.546051 1.880790849211783e-38 1768976227
1.351635 43.356789 5.192383 1.880790849211783e-38 1768976227
1.310373 42.033203 4.784575 1.880790849211783e-38 1768976227
1.337152 42.892216 4.584104 1.880790849211783e-38 1768976227
1.314666 42.170914 4.317274 1.880790849211783e-38 1768976227
1.298066 41.638412 3.990258 1.880790849211783e-38 1768976227
1.279398 41.039623 3.630719 1.880790849211783e-38 1768976227
1.279049 41.028408 3.445127 1.880790849211783e-38 1768976227
1.279527 41.043762 3.186201 1.880790849211783e-38 1768976227
1.278366 41.006519 2.923330 1.880790849211783e-38 1768976227
1.299484 41.683926 2.758498 1.880790849211783e-38 1768976227
1.305293 41.870251 2.505372 1.880790849211783e-38 1768976227
1.450502 46.528164 13.713008 1.880790849211783e-38 1768976227
1.517997 48.693222 13.982641 1.880790849211783e-38 1768976227
1.368978 43.913101 12.178907 1.880790849211783e-38 1768976227
1.389824 44.581779 11.963182 1.880790849211783e-38 1768976227
1.396324 44.790287 14.693933 1.880790849211783e-38 1768976227
1.426992 45.774017 11.815037 1.880790849211783e-38 1768976227
1.416963 45.452324 14.418451 1.880790849211783e-38 1768976227
1.392481 44.667015 13.657772 1.880790849211783e-38 1768976227
1.532747 44.825191 5.597974 1.880790849211783e-38 1768976227
1.485784 43.451782 5.204271 1.880790849211783e-38 1768976227
1.460280 42.705914 4.861627 1.880790849211783e-38 1768976227
1.467117 42.905861 4.586014 1.880790849211783e-38 1768976227
1.440240 42.119831 4.312469 1.880790849211783e-38 1768976227
1.419049 41.500103 3.977395 1.880790849211783e-38 1768976227
1.424134 41.648808 3.684976 1.880790849211783e-38 1768976227
1.407795 41.170994 3.457440 1.880790849211783e-38 1768976227
1.410238 41.242428 3.201939 1.880790849211783e-38 1768976227
1.408349 41.187187 2.936499 1.880790849211783e-38 1768976227
1.433303 41.916958 2.774192 1.880790849211783e-38 1768976227
1.413618 41.341293 2.473965 1.880790849211783e-38 1768976227
1.578758 46.170803 13.609025 1.880790849211783e-38 1768976227
1.635581 47.832611 13.736862 1.880790849211783e-38 1768976227
1.503533 43.970840 12.196122 1.880790849211783e-38 1768976227
1.586739 46.404217 12.453448 1.880790849211783e-38 1768976227
1.492007 43.633778 14.315939 1.880790849211783e-38 1768976227
1.492362 43.644138 11.266391 1.880790849211783e-38 1768976227
1.566947 45.825378 14.538227 1.880790849211783e-38 1768976227
1.536203 44.926281 13.738401 1.880790849211783e-38 1768976227
1.668675 44.840401 5.600477 1.880790849211783e-38 1768976227
1.636969 43.988422 5.269113 1.880790849211783e-38 1768976227
1.598947 42.966690 4.891841 1.880790849211783e-38 1768976227
1.584085 42.567307 4.550317 1.880790849211783e-38 1768976227
1.574424 42.307693 4.332171 1.880790849211783e-38 1768976227
1.569086 42.164280 4.041486 1.880790849211783e-38 1768976227
1.533393 41.205132 3.646113 1.880790849211783e-38 1768976227
1.525207 40.985168 3.442206 1.880790849211783e-38 1768976227
1.566520 42.095329 3.268508 1.880790849211783e-38 1768976227
1.558426 41.877823 2.986060 1.880790849211783e-38 1768976227
1.528003 41.060299 2.717789 1.880790849211783e-38 1768976227
1.586517 42.632664 2.551519 1.880790849211783e-38 1768976227
1.710097 45.953503 13.546433 1.880790849211783e-38 1768976227
1.765072 47.430767 13.622926 1.880790849211783e-38 1768976227
1.629413 43.785362 12.145985 1.880790849211783e-38 1768976227
1.726598 46.396923 12.452832 1.880790849211783e-38 1768976227
1.636146 43.966290 14.426589 1.880790849211783e-38 1768976227
1.622123 43.589466 11.253489 1.880790849211783e-38 1768976227
1.686292 45.313805 14.377477 1.880790849211783e-38 1768976227
1.652734 44.412052 13.582614 1.880790849211783e-38 1768976227
1.810237 44.992619 5.620145 1.880790849211783e-38 1768976227
1.780385 44.250648 5.301143 1.880790849211783e-38 1768976227
1.748578 43.460110 4.948595 1.880790849211783e-38 1768976227
1.695051 42.129723 4.504066 1.880790849211783e-38 1768976227
1.718103 42.702671 4.373126 1.880790849211783e-38 1768976227
1.704620 42.367558 4.061444 1.880790849211783e-38 1768976227
1.688766 41.973518 3.714539 1.880790849211783e-38 1768976227
1.687400 41.939548 3.256793 1.880790849211783e-38 1768976227
1.682240 41.811317 2.981667 1.880790849211783e-38 1768976227
1.639791 40.756260 2.697979 1.880790849211783e-38 1768976227
1.726965 42.922928 2.569191 1.880790849211783e-38 1768976227
1.847674 45.923084 13.539047 1.880790849211783e-38 1768976227
1.911342 47.505524 13.645991 1.880790849211783e-38 1768976227
1.787184 44.419655 12.323375 1.880790849211783e-38 1768976227
1.884690 46.843102 12.574053 1.880790849211783e-38 1768976227
1.775575 44.131100 14.482358 1.880790849211783e-38 1768976227
1.774221 44.097454 11.385967 1.880790849211783e-38 1768976227
1.838354 45.691448 14.498990 1.880790849211783e-38 1768976227
1.803816 44.833031 13.712964 1.880790849211783e-38 1768976227
1.860655 43.015675 4.898606 1.880790849211783e-38 1768976227
1.854507 42.873539 4.584165 1.880790849211783e-38 1768976227
1.824982 42.190964 4.321267 1.880790849211783e-38 1768976227
1.809609 41.835567 4.010952 1.880790849211783e-38 1768976227
1.793820 41.470558 2.211046 1.880790849211783e-38 1768976227
1.786728 41.306595 2.734755 1.880790849211783e-38 1768976227
1.840959 42.560326 2.547808 1.880790849211783e-38 1768976227
1.966040 45.452026 13.401858 1.880790849211783e-38 1768976227
2.075530 47.983280 13.784962 1.880790849211783e-38 1768976227
1.933393 44.697266 12.401954 1.880790849211783e-38 1768976227
1.983401 45.853382 12.309934 1.880790849211783e-38 1768976227
1.909653 44.148441 14.489873 1.880790849211783e-38 1768976227
1.980323 45.782227 14.529627 1.880790849211783e-38 1768976227
1.909441 44.143536 13.503770 1.880790849211783e-38 1768976227
1.984192 42.876194 4.111276 1.880790849211783e-38 1768976227
1.938331 41.885178 2.233453 1.880790849211783e-38 1768976227
1.955672 42.259899 2.530164 1.880790849211783e-38 1768976227
2.153315 46.530743 13.721777 1.880790849211783e-38 1768976227
2.197522 47.486012 13.643945 1.880790849211783e-38 1768976227
2.053670 44.377522 12.314898 1.880790849211783e-38 1768976227
1.997327 43.160015 11.588428 1.880790849211783e-38 1768976227
2.068865 44.705872 14.674808 1.880790849211783e-38 1768976227
2.105575 45.499138 14.441734 1.880790849211783e-38 1768976227
2.040635 44.095852 13.491004 1.880790849211783e-38 1768976227
2.048207 41.545715 2.215671 1.880790849211783e-38 1768976227
2.299815 46.649315 13.758726 1.880790849211783e-38 1768976227
2.332232 47.306873 13.594434 1.880790849211783e-38 1768976227
2.188528 44.391975 12.320685 1.880790849211783e-38 1768976227
2.121251 43.027332 11.554469 1.880790849211783e-38 1768976227
2.183418 44.288322 14.539843 1.880790849211783e-38 1768976227
2.310045 46.856827 14.874817 1.880790849211783e-38 1768976227
2.142302 43.454342 13.296653 1.880790849211783e-38 1768976227
2.212830 42.291080 2.048005 1.880790849211783e-38 1768976227
2.403759 45.940067 13.551618 1.880790849211783e-38 1768976227
2.428268 46.408485 13.338310 1.880790849211783e-38 1768976227
2.326210 44.457973 12.340894 1.880790849211783e-38 1768976227
2.272035 43.422596 11.662398 1.880790849211783e-38 1768976227
2.296125 43.882996 14.408980 1.880790849211783e-38 1768976227
2.440199 46.636513 14.807147 1.880790849211783e-38 1768976227
2.291231 43.789478 13.401254 1.880790849211783e-38 1768976227
2.503581 45.233074 13.345233 1.880790849211783e-38 1768976227
2.604654 47.059196 13.527528 1.880790849211783e-38 1768976227
2.389914 43.179409 11.598968 1.880790849211783e-38 1768976227
2.430792 43.917965 14.422806 1.880790849211783e-38 1768976227
2.597236 46.925175 14.901216 1.880790849211783e-38 1768976227
2.583588 46.678577 14.287749 1.880790849211783e-38 1768976227
2.647624 45.356098 13.383824 1.880790849211783e-38 1768976227
2.540284 43.517277 11.691731 1.880790849211783e-38 1768976227
2.570632 44.037174 14.464434 1.880790849211783e-38 1768976227
2.739951 46.937752 14.907767 1.880790849211783e-38 1768976227
2.755403 47.202454 14.450580 1.880790849211783e-38 1768976227
2.727756 44.425339 11.937855 1.880790849211783e-38 1768976227
2.712714 44.180370 14.514089 1.880790849211783e-38 1768976227
2.844485 46.326435 11.974328 1.880790849211783e-38 1768976227
2.888149 47.037579 14.942170 1.880790849211783e-38 1768976227
2.879961 46.904217 14.361870 1.880790849211783e-38 1768976227
2.829012 43.909149 11.801385 1.880790849211783e-38 1768976227
2.827724 43.889160 14.421157 1.880790849211783e-38 1768976227
3.008824 46.700008 12.073179 1.880790849211783e-38 1768976227
3.009476 46.710133 14.840969 1.880790849211783e-38 1768976227
3.022598 46.913792 14.367529 1.880790849211783e-38 1768976227
2.975316 44.106323 11.856737 1.880790849211783e-38 1768976227
2.964755 43.949764 14.443943 1.880790849211783e-38 1768976227
3.163803 46.900459 12.127412 1.880790849211783e-38 1768976227
3.198320 47.412151 15.067013 1.880790849211783e-38 1768976227
3.194339 47.353127 14.504961 1.880790849211783e-38 1768976227
3.083371 43.743156 14.379032 1.880790849211783e-38 1768976227
3.272054 46.419964 12.005664 1.880790849211783e-38 1768976227
3.326178 47.187801 14.457327 1.880790849211783e-38 1768976227
3.372007 45.865387 13.199739 1.880790849211783e-38 1768976227
3.252296 44.237103 14.544557 1.880790849211783e-38 1768976227
3.346459 45.517876 11.774912 1.880790849211783e-38 1768976227
3.472284 47.229328 14.473192 1.880790849211783e-38 1768976227
3.463430 45.242516 13.023428 1.880790849211783e-38 1768976227
3.353540 43.807022 14.406414 1.880790849211783e-38 1768976227
3.350041 43.761314 11.323073 1.880790849211783e-38 1768976227
3.500146 43.978935 14.466355 1.880790849211783e-38 1768976227
3.496981 43.939159 11.371768 1.880790849211783e-38 1768976227
3.641283 44.071239 14.500264 1.880790849211783e-38 1768976227
3.670162 44.420769 11.499224 1.880790849211783e-38 1768976227
3.775151 44.071377 14.503988 1.880790849211783e-38 1768976227
56.604927 75.965668 -2.796793 1.880790849211783e-38 1768976227
55.889053 75.004944 -3.220317 1.880790849211783e-38 1768976227
56.189308 74.935150 -2.765079 1.880790849211783e-38 1768976227
56.168636 74.907578 -3.223395 1.880790849211783e-38 1768976227
56.979664 75.513611 -1.690515 1.880790849211783e-38 1768976227
56.998631 75.538742 -2.213365 1.880790849211783e-38 1768976227
56.164139 74.432823 -2.752781 1.880790849211783e-38 1768976227
55.843533 74.007927 -3.191915 1.880790849211783e-38 1768976227
57.816086 76.143387 -1.102666 1.880790849211783e-38 1768976227
56.695858 74.668053 -1.675405 1.880790849211783e-38 1768976227
56.223755 74.046295 -2.174593 1.880790849211783e-38 1768976227
56.243355 74.072105 -2.745702 1.880790849211783e-38 1768976227
55.754879 73.428795 -3.174175 1.880790849211783e-38 1768976227
57.710220 75.529907 -0.552243 1.880790849211783e-38 1768976227
57.007786 74.610580 -1.082954 1.880790849211783e-38 1768976227
56.846096 74.398956 -1.673207 1.880790849211783e-38 1768976227
56.403400 73.819572 -2.172920 1.880790849211783e-38 1768976227
56.178631 73.525406 -2.731705 1.880790849211783e-38 1768976227
56.291523 73.673149 -3.192062 1.880790849211783e-38 1768976227
57.526199 74.820244 -0.548321 1.880790849211783e-38 1768976227
56.821407 73.903557 -1.075174 1.880790849211783e-38 1768976227
56.825020 73.908272 -1.666018 1.880790849211783e-38 1768976227
56.637920 73.664909 -2.173386 1.880790849211783e-38 1768976227
55.856621 72.648735 -2.705380 1.880790849211783e-38 1768976227
56.121498 72.993240 -3.169922 1.880790849211783e-38 1768976227
56.852207 73.483910 -0.539781 1.880790849211783e-38 1768976227
56.979149 73.647987 -1.073951 1.880790849211783e-38 1768976227
56.461529 72.978943 -1.648900 1.880790849211783e-38 1768976227
56.526474 73.062881 -2.160644 1.880790849211783e-38 1768976227
56.360340 72.848160 -2.719124 1.880790849211783e-38 1768976227
56.433243 72.942375 -3.175091 1.880790849211783e-38 1768976227
57.853256 74.777809 0.571646 1.880790849211783e-38 1768976227
57.941959 74.892464 0.069264 1.880790849211783e-38 1768976227
57.030724 73.257072 -0.539376 1.880790849211783e-38 1768976227
57.196201 73.469635 -1.073861 1.880790849211783e-38 1768976227
56.693623 72.824066 -1.649257 1.880790849211783e-38 1768976227
56.825603 72.993591 -2.163653 1.880790849211783e-38 1768976227
58.267490 74.845726 1.155185 1.880790849211783e-38 1768976227
56.323025 72.348030 -2.706784 1.880790849211783e-38 1768976227
56.702644 72.835655 -3.177875 1.880790849211783e-38 1768976227
57.723743 74.147270 0.568154 1.880790849211783e-38 1768976227
57.353443 73.671616 0.068295 1.880790849211783e-38 1768976227
57.578320 73.502068 -0.542456 1.880790849211783e-38 1768976227
57.270630 73.109291 -1.071114 1.880790849211783e-38 1768976227
56.873146 72.601875 -1.648102 1.880790849211783e-38 1768976227
57.225601 73.051804 -2.170485 1.880790849211783e-38 1768976227
58.648239 74.867882 1.644271 1.880790849211783e-38 1768976227
58.388264 74.536018 1.153117 1.880790849211783e-38 1768976227
56.855423 72.579247 -2.721838 1.880790849211783e-38 1768976227
56.195744 71.737137 -3.137326 1.880790849211783e-38 1768976227
57.497795 73.399277 0.563749 1.880790849211783e-38 1768976227
57.630257 73.568375 0.068360 1.880790849211783e-38 1768976227
57.313030 72.710625 -0.537888 1.880790849211783e-38 1768976227
57.362793 72.773758 -1.068728 1.880790849211783e-38 1768976227
57.022324 72.341812 -1.646095 1.880790849211783e-38 1768976227
56.810936 72.073639 -2.146503 1.880790849211783e-38 1768976227
58.281158 73.938843 1.627720 1.880790849211783e-38 1768976227
58.489799 74.203545 1.150698 1.880790849211783e-38 1768976227
56.531990 71.719749 -2.695987 1.880790849211783e-38 1768976227
56.615017 71.825081 -3.148625 1.880790849211783e-38 1768976227
57.940762 73.507004 0.565916 1.880790849211783e-38 1768976227
57.509106 72.959366 0.067955 1.880790849211783e-38 1768976227
57.396294 72.366272 -0.536619 1.880790849211783e-38 1768976227
57.736980 72.795822 -1.071604 1.880790849211783e-38 1768976227
59.078110 74.486740 2.868036 1.880790849211783e-38 1768976227
58.634476 73.927391 2.383586 1.880790849211783e-38 1768976227
57.316795 72.266037 -1.648296 1.880790849211783e-38 1768976227
57.234917 72.162811 -2.154289 1.880790849211783e-38 1768976227
58.505894 73.765274 1.627776 1.880790849211783e-38 1768976227
58.410450 73.644936 1.144762 1.880790849211783e-38 1768976227
56.724255 71.518944 -2.694858 1.880790849211783e-38 1768976227
56.733379 71.530449 -3.143196 1.880790849211783e-38 1768976227
58.036621 73.173607 0.564694 1.880790849211783e-38 1768976227
57.513859 72.514503 0.067702 1.880790849211783e-38 1768976227
57.757011 72.371689 -0.537948 1.880790849211783e-38 1768976227
57.651485 72.239456 -1.065969 1.880790849211783e-38 1768976227
59.522854 74.584351 3.522398 1.880790849211783e-38 1768976227
59.137917 74.102005 2.860077 1.880790849211783e-38 1768976227
58.736740 73.599319 2.378709 1.880790849211783e-38 1768976227
57.600677 72.175789 -1.650193 1.880790849211783e-38 1768976227
57.379066 71.898109 -2.151544 1.880790849211783e-38 1768976227
58.277550 73.023941 1.615288 1.880790849211783e-38 1768976227
58.308109 73.062233 1.138432 1.880790849211783e-38 1768976227
56.871689 71.262344 -2.691639 1.880790849211783e-38 1768976227
57.090122 71.536041 -3.150993 1.880790849211783e-38 1768976227
58.211609 72.941299 0.564253 1.880790849211783e-38 1768976227
57.834110 72.468292 0.067821 1.880790849211783e-38 1768976227
57.907730 72.113373 -0.537324 1.880790849211783e-38 1768976227
57.698200 71.852440 -1.062821 1.880790849211783e-38 1768976227
59.485878 74.078659 3.953650 1.880790849211783e-38 1768976227
59.102253 73.600929 3.484357 1.880790849211783e-38 1768976227
58.881584 73.326126 2.836972 1.880790849211783e-38 1768976227
59.081612 73.575218 2.383678 1.880790849211783e-38 1768976227
57.595482 71.724518 -1.643839 1.880790849211783e-38 1768976227
57.602821 71.733658 -2.151811 1.880790849211783e-38 1768976227
58.470005 72.813583 1.614528 1.880790849211783e-38 1768976227
58.447021 72.784958 1.136853 1.880790849211783e-38 1768976227
56.989937 70.970428 -2.687093 1.880790849211783e-38 1768976227
57.011127 70.996826 -3.134801 1.880790849211783e-38 1768976227
58.554131 72.918335 0.565439 1.880790849211783e-38 1768976227
57.980301 72.203743 0.067737 1.880790849211783e-38 1768976227
57.927402 71.693893 -0.535498 1.880790849211783e-38 1768976227
58.105877 71.914780 -1.066330 1.880790849211783e-38 1768976227
60.089542 74.369858 4.623815 1.880790849211783e-38 1768976227
59.490814 73.628845 3.939202 1.880790849211783e-38 1768976227
59.385525 73.498535 3.487972 1.880790849211783e-38 1768976227
59.073883 73.112846 2.835600 1.880790849211783e-38 1768976227
58.837925 72.820801 2.364975 1.880790849211783e-38 1768976227
