# .PCD v0.7 - Point Cloud Data file format
VERSION 0.7
FIELDS x y z rgb label
SIZE 4 4 4 4 4
TYPE F F F F U
COUNT 1 1 1 1 1
WIDTH 752
HEIGHT 1
VIEWPOINT 0 0 0 1 0 0 0
POINTS 752
DATA ascii
75.157265 -31.474733 15.508413 1.880790849211783e-38 1768976227
75.425255 -31.586960 14.911807 1.880790849211783e-38 1768976227
72.805489 -30.489843 13.683934 1.880790849211783e-38 1768976227
73.901001 -30.948626 13.234730 1.880790849211783e-38 1768976227
74.512413 -31.204676 12.634159 1.880790849211783e-38 1768976227
75.150414 -31.471861 17.871956 1.880790849211783e-38 1768976227
74.864861 -31.352274 17.206758 1.880790849211783e-38 1768976227
72.276161 -30.524700 9.792429 1.880790849211783e-38 1768976227
71.701073 -30.281816 9.316754 1.880790849211783e-38 1768976227
78.779518 -33.271290 9.729569 1.880790849211783e-38 1768976227
77.573105 -32.761780 8.995319 1.880790849211783e-38 1768976227
78.400673 -33.111290 12.762044 1.880790849211783e-38 1768976227
74.640076 -31.523058 11.619892 1.880790849211783e-38 1768976227
79.578377 -33.608673 8.839367 1.880790849211783e-38 1768976227
74.297913 -31.378550 7.725255 1.880790849211783e-38 1768976227
75.501282 -31.886776 11.301619 1.880790849211783e-38 1768976227
75.759506 -31.995836 10.869567 1.880790849211783e-38 1768976227
74.981232 -31.667143 4.335559 1.880790849211783e-38 1768976227
93.700363 -39.572872 4.918929 1.880790849211783e-38 1768976227
73.355270 -30.980442 7.041255 1.880790849211783e-38 1768976227
78.876465 -33.312229 7.186171 1.880790849211783e-38 1768976227
95.033020 -40.135696 4.292997 1.880790849211783e-38 1768976227
94.482826 -39.903332 7.958083 1.880790849211783e-38 1768976227
76.369095 -32.253281 5.907071 1.880790849211783e-38 1768976227
75.935516 -32.070168 5.452285 1.880790849211783e-38 1768976227
75.442307 -31.861866 4.897915 1.880790849211783e-38 1768976227
76.435402 -32.281288 16.657175 1.880790849211783e-38 1768976227
75.489197 -31.881678 15.596677 1.880790849211783e-38 1768976227
75.050499 -31.696394 14.856548 1.880790849211783e-38 1768976227
72.470871 -30.606928 13.638330 1.880790849211783e-38 1768976227
73.636261 -31.099113 13.204056 1.880790849211783e-38 1768976227
74.203041 -31.338484 12.597671 1.880790849211783e-38 1768976227
75.064888 -31.702475 17.874273 1.880790849211783e-38 1768976227
74.721680 -31.557524 17.195646 1.880790849211783e-38 1768976227
72.255547 -30.773113 9.802165 1.880790849211783e-38 1768976227
73.162766 -31.159487 9.518852 1.880790849211783e-38 1768976227
75.854591 -32.305920 9.380321 1.880790849211783e-38 1768976227
77.646988 -33.069290 9.015411 1.880790849211783e-38 1768976227
78.399513 -33.389786 12.778190 1.880790849211783e-38 1768976227
74.651161 -31.793386 11.636493 1.880790849211783e-38 1768976227
79.449036 -33.836765 8.836295 1.880790849211783e-38 1768976227
74.334457 -31.658504 7.738948 1.880790849211783e-38 1768976227
74.498222 -31.728252 11.165747 1.880790849211783e-38 1768976227
75.501801 -32.155666 10.846457 1.880790849211783e-38 1768976227
74.997574 -31.940922 4.342055 1.880790849211783e-38 1768976227
90.108711 -38.376640 4.736434 1.880790849211783e-38 1768976227
73.376923 -31.250698 7.052349 1.880790849211783e-38 1768976227
78.825729 -33.571308 7.190741 1.880790849211783e-38 1768976227
94.141891 -40.094345 4.258184 1.880790849211783e-38 1768976227
94.410583 -40.208778 7.962176 1.880790849211783e-38 1768976227
77.079964 -32.827797 5.969687 1.880790849211783e-38 1768976227
75.996048 -32.366165 5.463615 1.880790849211783e-38 1768976227
75.501434 -32.155514 4.908029 1.880790849211783e-38 1768976227
75.559715 -32.180332 16.487417 1.880790849211783e-38 1768976227
74.401169 -31.686916 15.391556 1.880790849211783e-38 1768976227
74.678261 -31.804930 14.801783 1.880790849211783e-38 1768976227
72.138153 -30.723116 13.593092 1.880790849211783e-38 1768976227
73.372612 -31.248863 13.173619 1.880790849211783e-38 1768976227
73.895355 -31.471491 12.561491 1.880790849211783e-38 1768976227
75.087128 -31.979063 17.902454 1.880790849211783e-38 1768976227
74.578438 -31.762417 17.184650 1.880790849211783e-38 1768976227
72.235008 -31.022060 9.812026 1.880790849211783e-38 1768976227
73.365509 -31.507568 9.557549 1.880790849211783e-38 1768976227
76.056976 -32.663445 9.417486 1.880790849211783e-38 1768976227
77.858681 -33.437206 9.051658 1.880790849211783e-38 1768976227
78.357491 -33.651428 12.787825 1.880790849211783e-38 1768976227
74.559937 -32.020527 11.637273 1.880790849211783e-38 1768976227
76.676620 -32.929558 8.538955 1.880790849211783e-38 1768976227
74.371231 -31.939486 7.752769 1.880790849211783e-38 1768976227
74.531982 -32.008522 11.185225 1.880790849211783e-38 1768976227
75.245148 -32.314800 10.823538 1.880790849211783e-38 1768976227
75.055557 -32.233379 4.351021 1.880790849211783e-38 1768976227
87.753731 -37.686737 4.618602 1.880790849211783e-38 1768976227
78.426094 -33.680885 7.547359 1.880790849211783e-38 1768976227
79.108879 -33.974121 7.225885 1.880790849211783e-38 1768976227
94.854836 -40.736378 4.295970 1.880790849211783e-38 1768976227
94.338219 -40.514511 7.966341 1.880790849211783e-38 1768976227
80.512451 -34.576897 6.243574 1.880790849211783e-38 1768976227
76.130890 -32.695187 5.480374 1.880790849211783e-38 1768976227
75.560837 -32.450375 4.918230 1.880790849211783e-38 1768976227
75.541069 -32.441883 16.504623 1.880790849211783e-38 1768976227
75.376022 -32.371002 15.613350 1.880790849211783e-38 1768976227
74.399040 -31.951431 14.765473 1.880790849211783e-38 1768976227
76.456284 -32.834934 14.425358 1.880790849211783e-38 1768976227
73.110046 -31.397858 13.143418 1.880790849211783e-38 1768976227
73.723824 -31.661451 12.548508 1.880790849211783e-38 1768976227
75.042259 -32.227669 17.914846 1.880790849211783e-38 1768976227
74.435127 -31.966928 17.173765 1.880790849211783e-38 1768976227
72.230927 -31.278673 9.824242 1.880790849211783e-38 1768976227
73.620644 -31.880470 9.603269 1.880790849211783e-38 1768976227
75.838432 -32.840858 9.402648 1.880790849211783e-38 1768976227
77.710899 -33.651707 9.046235 1.880790849211783e-38 1768976227
75.048370 -32.498730 12.263719 1.880790849211783e-38 1768976227
74.296570 -32.173176 11.611260 1.880790849211783e-38 1768976227
76.748291 -33.234859 8.558060 1.880790849211783e-38 1768976227
74.541672 -32.279312 7.780651 1.880790849211783e-38 1768976227
74.005386 -32.047081 11.120651 1.880790849211783e-38 1768976227
74.989517 -32.473244 10.800806 1.880790849211783e-38 1768976227
87.006393 -37.677002 5.050383 1.880790849211783e-38 1768976227
87.415527 -37.854172 4.606790 1.880790849211783e-38 1768976227
78.045479 -33.796589 7.520506 1.880790849211783e-38 1768976227
79.631516 -34.483406 7.283089 1.880790849211783e-38 1768976227
83.489334 -36.153980 7.059389 1.880790849211783e-38 1768976227
80.616211 -34.909813 6.259757 1.880790849211783e-38 1768976227
76.471664 -33.115074 5.512070 1.880790849211783e-38 1768976227
75.632271 -32.751579 4.929286 1.880790849211783e-38 1768976227
75.522110 -32.703880 16.521957 1.880790849211783e-38 1768976227
74.715469 -32.354576 15.496668 1.880790849211783e-38 1768976227
74.339554 -32.191788 14.772868 1.880790849211783e-38 1768976227
76.216766 -33.004692 14.398883 1.880790849211783e-38 1768976227
72.848549 -31.546124 13.113452 1.880790849211783e-38 1768976227
86.318581 -37.379150 14.711379 1.880790849211783e-38 1768976227
74.961212 -32.460991 17.918791 1.880790849211783e-38 1768976227
74.167007 -32.117065 17.134172 1.880790849211783e-38 1768976227
72.435341 -31.626955 9.864973 1.880790849211783e-38 1768976227
75.859848 -33.122173 9.908343 1.880790849211783e-38 1768976227
75.749306 -33.073910 9.403922 1.880790849211783e-38 1768976227
77.563499 -33.866028 9.040924 1.880790849211783e-38 1768976227
74.191483 -32.393726 12.139605 1.880790849211783e-38 1768976227
73.650887 -32.157688 11.525455 1.880790849211783e-38 1768976227
76.820457 -33.541599 8.577349 1.880790849211783e-38 1768976227
74.744522 -32.635197 7.812062 1.880790849211783e-38 1768976227
73.200836 -31.961191 11.014188 1.880790849211783e-38 1768976227
74.734917 -32.631001 10.778260 1.880790849211783e-38 1768976227
86.652771 -37.834614 5.036457 1.880790849211783e-38 1768976227
87.024994 -37.997135 4.592227 1.880790849211783e-38 1768976227
82.426918 -35.989510 7.953127 1.880790849211783e-38 1768976227
82.477104 -36.011421 7.553245 1.880790849211783e-38 1768976227
83.190338 -36.322834 3.777540 1.880790849211783e-38 1768976227
83.110367 -36.287918 3.347538 1.880790849211783e-38 1768976227
83.489059 -36.453262 7.068629 1.880790849211783e-38 1768976227
80.720627 -35.244499 6.276089 1.880790849211783e-38 1768976227
82.984428 -36.232929 2.731644 1.880790849211783e-38 1768976227
77.116638 -33.670918 5.565854 1.880790849211783e-38 1768976227
75.769829 -33.082870 4.944732 1.880790849211783e-38 1768976227
75.502876 -32.966312 16.539425 1.880790849211783e-38 1768976227
74.405571 -32.487198 15.452641 1.880790849211783e-38 1768976227
74.117500 -32.361423 14.748070 1.880790849211783e-38 1768976227
75.974922 -33.172417 14.372028 1.880790849211783e-38 1768976227
72.588112 -31.693655 13.083718 1.880790849211783e-38 1768976227
81.573257 -35.616779 13.920871 1.880790849211783e-38 1768976227
74.803017 -32.660736 17.904438 1.880790849211783e-38 1768976227
75.550034 -32.986900 17.476587 1.880790849211783e-38 1768976227
78.505226 -34.559490 10.705778 1.880790849211783e-38 1768976227
73.921486 -32.541637 9.667940 1.880790849211783e-38 1768976227
75.755020 -33.348797 9.417075 1.880790849211783e-38 1768976227
78.320107 -34.477993 9.141195 1.880790849211783e-38 1768976227
73.466431 -32.341316 12.036873 1.880790849211783e-38 1768976227
73.035606 -32.151657 11.444294 1.880790849211783e-38 1768976227
76.893188 -33.849842 8.596829 1.880790849211783e-38 1768976227
77.751945 -34.227882 8.137141 1.880790849211783e-38 1768976227
74.219963 -32.673035 11.182307 1.880790849211783e-38 1768976227
74.481331 -32.788097 10.755903 1.880790849211783e-38 1768976227
83.173981 -36.614761 4.840658 1.880790849211783e-38 1768976227
83.081558 -36.574078 4.389936 1.880790849211783e-38 1768976227
82.823158 -36.460323 8.001933 1.880790849211783e-38 1768976227
82.749611 -36.427948 7.588229 1.880790849211783e-38 1768976227
82.937782 -36.510780 3.771054 1.880790849211783e-38 1768976227
82.844345 -36.469654 3.341238 1.880790849211783e-38 1768976227
83.488876 -36.753387 7.077967 1.880790849211783e-38 1768976227
80.825722 -35.581017 6.292575 1.880790849211783e-38 1768976227
82.740616 -36.423988 2.727222 1.880790849211783e-38 1768976227
83.442459 -36.732952 2.303078 1.880790849211783e-38 1768976227
80.040276 -35.235245 5.784509 1.880790849211783e-38 1768976227
75.908340 -33.416294 4.960326 1.880790849211783e-38 1768976227
75.483337 -33.229198 16.557022 1.880790849211783e-38 1768976227
74.097900 -32.619301 15.409107 1.880790849211783e-38 1768976227
75.126762 -33.072224 14.968675 1.880790849211783e-38 1768976227
75.988037 -33.451374 14.393529 1.880790849211783e-38 1768976227
76.324913 -33.599670 13.775465 1.880790849211783e-38 1768976227
81.624718 -35.932747 13.948085 1.880790849211783e-38 1768976227
74.644821 -32.860065 17.890215 1.880790849211783e-38 1768976227
75.504562 -33.238541 17.489178 1.880790849211783e-38 1768976227
78.345207 -34.771488 10.698209 1.880790849211783e-38 1768976227
74.102768 -32.888588 9.704579 1.880790849211783e-38 1768976227
75.774712 -33.630642 9.432089 1.880790849211783e-38 1768976227
78.157898 -34.688358 9.134432 1.880790849211783e-38 1768976227
72.966125 -32.384121 11.970849 1.880790849211783e-38 1768976227
72.524307 -32.188034 11.379335 1.880790849211783e-38 1768976227
78.137833 -34.679451 8.747637 1.880790849211783e-38 1768976227
77.352715 -34.330997 8.106158 1.880790849211783e-38 1768976227
73.957222 -32.823997 11.157586 1.880790849211783e-38 1768976227
73.965836 -32.827816 10.695707 1.880790849211783e-38 1768976227
82.901070 -36.793488 4.831211 1.880790849211783e-38 1768976227
82.796753 -36.747196 4.380723 1.880790849211783e-38 1768976227
83.235512 -36.941925 8.052499 1.880790849211783e-38 1768976227
82.823372 -36.759010 7.605124 1.880790849211783e-38 1768976227
82.669502 -36.690720 3.763871 1.880790849211783e-38 1768976227
82.588509 -36.654766 3.335363 1.880790849211783e-38 1768976227
93.609924 -41.546337 7.946589 1.880790849211783e-38 1768976227
82.951439 -36.815849 6.466685 1.880790849211783e-38 1768976227
82.497612 -36.614429 2.722840 1.880790849211783e-38 1768976227
83.119110 -36.890263 2.297214 1.880790849211783e-38 1768976227
80.004402 -35.507881 5.789629 1.880790849211783e-38 1768976227
76.114662 -33.781521 4.980443 1.880790849211783e-38 1768976227
75.463493 -33.492516 16.574751 1.880790849211783e-38 1768976227
73.970917 -32.830074 15.403220 1.880790849211783e-38 1768976227
76.077560 -33.765053 15.178337 1.880790849211783e-38 1768976227
75.752213 -33.620655 14.368001 1.880790849211783e-38 1768976227
76.100258 -33.775127 13.753240 1.880790849211783e-38 1768976227
74.490959 -33.060883 12.746045 1.880790849211783e-38 1768976227
74.486626 -33.058956 17.876114 1.880790849211783e-38 1768976227
75.332855 -33.434536 17.472683 1.880790849211783e-38 1768976227
79.549866 -35.593700 10.877316 1.880790849211783e-38 1768976227
74.675102 -33.412548 9.792686 1.880790849211783e-38 1768976227
74.031685 -33.124653 9.227518 1.880790849211783e-38 1768976227
75.191940 -33.643795 8.799615 1.880790849211783e-38 1768976227
72.563667 -32.467808 11.920833 1.880790849211783e-38 1768976227
72.072914 -32.248222 11.323718 1.880790849211783e-38 1768976227
77.835548 -34.826649 8.725513 1.880790849211783e-38 1768976227
76.956589 -34.433369 8.075493 1.880790849211783e-38 1768976227
73.695526 -32.974243 11.133058 1.880790849211783e-38 1768976227
74.135719 -33.171204 10.734692 1.880790849211783e-38 1768976227
82.616890 -36.966003 4.821125 1.880790849211783e-38 1768976227
82.530075 -36.927166 4.372486 1.880790849211783e-38 1768976227
93.621414 -41.889858 9.069449 1.880790849211783e-38 1768976227
82.969368 -37.123718 7.628775 1.880790849211783e-38 1768976227
82.414162 -36.875298 3.757291 1.880790849211783e-38 1768976227
82.338638 -36.841507 3.329744 1.880790849211783e-38 1768976227
81.994843 -36.687679 6.969940 1.880790849211783e-38 1768976227
83.107407 -37.185486 6.487557 1.880790849211783e-38 1768976227
82.255386 -36.804256 2.718496 1.880790849211783e-38 1768976227
82.194946 -36.777214 2.274728 1.880790849211783e-38 1768976227
80.062637 -35.823135 5.801636 1.880790849211783e-38 1768976227
82.017403 -36.697777 5.373897 1.880790849211783e-38 1768976227
75.290649 -33.687965 16.559029 1.880790849211783e-38 1768976227
73.931282 -33.079735 15.415672 1.880790849211783e-38 1768976227
75.646332 -33.847111 15.112599 1.880790849211783e-38 1768976227
75.507126 -33.784824 14.340775 1.880790849211783e-38 1768976227
75.863487 -33.944271 13.728889 1.880790849211783e-38 1768976227
71.527328 -32.004108 12.255401 1.880790849211783e-38 1768976227
74.310852 -33.249561 17.857912 1.880790849211783e-38 1768976227
75.100693 -33.602970 17.442261 1.880790849211783e-38 1768976227
79.440544 -35.832737 10.877096 1.880790849211783e-38 1768976227
74.693405 -33.691471 9.808366 1.880790849211783e-38 1768976227
73.978508 -33.369011 9.233392 1.880790849211783e-38 1768976227
75.210823 -33.924866 8.813758 1.880790849211783e-38 1768976227
71.779762 -32.377235 11.808040 1.880790849211783e-38 1768976227
71.625977 -32.307869 11.268757 1.880790849211783e-38 1768976227
77.534889 -34.973164 8.703595 1.880790849211783e-38 1768976227
76.618736 -34.559921 8.050941 1.880790849211783e-38 1768976227
73.286674 -33.056946 11.086304 1.880790849211783e-38 1768976227
73.806602 -33.291470 10.701526 1.880790849211783e-38 1768976227
81.564110 -36.790604 4.766143 1.880790849211783e-38 1768976227
82.275055 -37.111282 4.364885 1.880790849211783e-38 1768976227
92.890236 -41.899399 8.552548 1.880790849211783e-38 1768976227
82.159698 -37.059250 3.750769 1.880790849211783e-38 1768976227
82.096794 -37.030872 3.324466 1.880790849211783e-38 1768976227
82.089966 -37.027794 6.987487 1.880790849211783e-38 1768976227
93.682587 -42.256802 7.322996 1.880790849211783e-38 1768976227
82.016106 -36.994476 2.714263 1.880790849211783e-38 1768976227
81.959793 -36.969078 2.271295 1.880790849211783e-38 1768976227
82.733566 -37.318100 6.003310 1.880790849211783e-38 1768976227
82.191139 -37.073429 5.392582 1.880790849211783e-38 1768976227
82.489738 -37.208115 1.564553 1.880790849211783e-38 1768976227
75.086937 -33.868980 16.536613 1.880790849211783e-38 1768976227
73.958786 -33.360119 15.442317 1.880790849211783e-38 1768976227
75.445282 -34.030617 15.092871 1.880790849211783e-38 1768976227
74.916664 -33.792175 14.247923 1.880790849211783e-38 1768976227
75.627502 -34.112812 13.704739 1.880790849211783e-38 1768976227
71.536705 -32.267605 12.273626 1.880790849211783e-38 1768976227
74.068497 -33.409603 17.823807 1.880790849211783e-38 1768976227
74.861580 -33.767330 17.410299 1.880790849211783e-38 1768976227
79.324768 -36.068813 10.876088 1.880790849211783e-38 1768976227
74.640251 -33.938774 9.814782 1.880790849211783e-38 1768976227
73.925415 -33.613739 9.239376 1.880790849211783e-38 1768976227
75.314705 -34.245449 8.837995 1.880790849211783e-38 1768976227
70.824760 -32.203880 11.666863 1.880790849211783e-38 1768976227
74.700066 -33.965973 11.768459 1.880790849211783e-38 1768976227
77.235893 -35.119007 8.681882 1.880790849211783e-38 1768976227
81.972290 -37.272640 8.625255 1.880790849211783e-38 1768976227
75.073891 -34.135952 11.372185 1.880790849211783e-38 1768976227
73.841965 -33.575794 10.721287 1.880790849211783e-38 1768976227
81.768791 -37.180103 4.784634 1.880790849211783e-38 1768976227
82.099297 -37.330387 4.361514 1.880790849211783e-38 1768976227
93.133011 -42.347389 8.586620 1.880790849211783e-38 1768976227
81.913773 -37.246029 3.744653 1.880790849211783e-38 1768976227
81.859886 -37.221531 3.319403 1.880790849211783e-38 1768976227
82.265602 -37.406002 7.012008 1.880790849211783e-38 1768976227
81.782677 -37.186424 2.710237 1.880790849211783e-38 1768976227
81.726624 -37.160931 2.267929 1.880790849211783e-38 1768976227
82.910187 -37.699097 6.024348 1.880790849211783e-38 1768976227
81.897858 -37.238789 5.380683 1.880790849211783e-38 1768976227
82.175034 -37.364826 1.560714 1.880790849211783e-38 1768976227
82.182343 -37.368149 1.099492 1.880790849211783e-38 1768976227
74.883774 -34.049503 16.514412 1.880790849211783e-38 1768976227
74.826096 -34.023277 15.644760 1.880790849211783e-38 1768976227
72.904510 -33.149540 14.604523 1.880790849211783e-38 1768976227
73.936920 -33.618973 14.080812 1.880790849211783e-38 1768976227
75.340973 -34.257393 13.671477 1.880790849211783e-38 1768976227
71.546288 -32.531956 12.292048 1.880790849211783e-38 1768976227
73.826889 -33.568939 17.789948 1.880790849211783e-38 1768976227
74.615837 -33.927677 17.376867 1.880790849211783e-38 1768976227
73.655762 -33.759575 10.112735 1.880790849211783e-38 1768976227
74.730911 -34.252357 9.840242 1.880790849211783e-38 1768976227
73.872368 -33.858852 9.245467 1.880790849211783e-38 1768976227
75.421082 -34.568691 8.862673 1.880790849211783e-38 1768976227
70.880188 -32.487408 11.692080 1.880790849211783e-38 1768976227
74.074562 -33.951527 11.685995 1.880790849211783e-38 1768976227
76.938492 -35.264187 8.660367 1.880790849211783e-38 1768976227
82.133171 -37.645130 8.654090 1.880790849211783e-38 1768976227
74.588531 -34.187099 11.314229 1.880790849211783e-38 1768976227
73.937721 -33.888805 10.749981 1.880790849211783e-38 1768976227
81.975098 -37.572674 4.803315 1.880790849211783e-38 1768976227
81.604958 -37.403027 4.341226 1.880790849211783e-38 1768976227
81.828064 -37.505283 3.745889 1.880790849211783e-38 1768976227
81.725784 -37.458408 3.318531 1.880790849211783e-38 1768976227
82.442627 -37.786968 7.036779 1.880790849211783e-38 1768976227
81.583031 -37.392975 2.707346 1.880790849211783e-38 1768976227
81.494133 -37.352230 2.264593 1.880790849211783e-38 1768976227
81.481537 -37.346458 5.360707 1.880790849211783e-38 1768976227
81.933701 -37.553703 1.558274 1.880790849211783e-38 1768976227
81.893021 -37.535057 1.097131 1.880790849211783e-38 1768976227
74.681129 -34.229538 16.492413 1.880790849211783e-38 1768976227
74.203636 -34.010685 15.535992 1.880790849211783e-38 1768976227
72.972435 -33.446373 14.638269 1.880790849211783e-38 1768976227
72.871750 -33.400223 13.897078 1.880790849211783e-38 1768976227
75.038506 -34.393337 13.635350 1.880790849211783e-38 1768976227
71.556038 -32.797180 12.310661 1.880790849211783e-38 1768976227
74.370850 -34.087326 17.343676 1.880790849211783e-38 1768976227
79.193291 -36.587078 10.888123 1.880790849211783e-38 1768976227
81.715027 -37.752117 10.774825 1.880790849211783e-38 1768976227
73.937935 -34.159122 9.266524 1.880790849211783e-38 1768976227
75.616539 -34.934631 8.897981 1.880790849211783e-38 1768976227
70.935944 -32.772213 11.717529 1.880790849211783e-38 1768976227
70.419861 -32.533779 11.124858 1.880790849211783e-38 1768976227
75.110390 -34.700794 8.466334 1.880790849211783e-38 1768976227
82.202415 -37.977291 8.673415 1.880790849211783e-38 1768976227
73.963783 -34.171062 11.235044 1.880790849211783e-38 1768976227
74.878670 -34.593739 10.901907 1.880790849211783e-38 1768976227
82.196320 -37.974472 4.822967 1.880790849211783e-38 1768976227
81.810532 -37.796242 4.358206 1.880790849211783e-38 1768976227
81.801842 -37.792225 3.749889 1.880790849211783e-38 1768976227
81.683464 -37.737537 3.321419 1.880790849211783e-38 1768976227
81.540672 -37.671566 2.709698 1.880790849211783e-38 1768976227
81.437149 -37.623737 2.266153 1.880790849211783e-38 1768976227
82.579819 -38.151646 5.440509 1.880790849211783e-38 1768976227
81.815598 -37.798580 1.558189 1.880790849211783e-38 1768976227
74.822289 -34.567688 16.546535 1.880790849211783e-38 1768976227
73.589088 -33.997955 15.428721 1.880790849211783e-38 1768976227
73.040886 -33.744690 14.672350 1.880790849211783e-38 1768976227
72.539391 -33.512997 13.852906 1.880790849211783e-38 1768976227
74.707710 -34.514755 13.594096 1.880790849211783e-38 1768976227
71.566002 -33.063297 12.329475 1.880790849211783e-38 1768976227
74.126556 -34.246262 17.310715 1.880790849211783e-38 1768976227
73.540367 -34.244938 10.125067 1.880790849211783e-38 1768976227
81.316498 -37.865986 10.737285 1.880790849211783e-38 1768976227
74.044182 -34.479546 9.292830 1.880790849211783e-38 1768976227
76.344124 -35.550541 8.996173 1.880790849211783e-38 1768976227
70.992050 -33.058289 11.743213 1.880790849211783e-38 1768976227
70.474442 -32.817253 11.149065 1.880790849211783e-38 1768976227
75.216370 -35.025391 8.490148 1.880790849211783e-38 1768976227
73.347618 -34.155186 11.157044 1.880790849211783e-38 1768976227
74.527344 -34.704536 10.865946 1.880790849211783e-38 1768976227
82.221695 -38.287502 4.831209 1.880790849211783e-38 1768976227
82.002815 -38.185577 4.374564 1.880790849211783e-38 1768976227
81.775566 -38.079754 3.753932 1.880790849211783e-38 1768976227
81.647713 -38.020218 3.324613 1.880790849211783e-38 1768976227
81.498238 -37.950615 2.712079 1.880790849211783e-38 1768976227
81.394669 -37.902386 2.268141 1.880790849211783e-38 1768976227
81.697517 -38.043415 1.558119 1.880790849211783e-38 1768976227
74.536873 -34.708977 16.506493 1.880790849211783e-38 1768976227
75.157379 -34.997917 15.779587 1.880790849211783e-38 1768976227
74.176498 -34.541161 14.921328 1.880790849211783e-38 1768976227
72.236183 -33.637630 13.814313 1.880790849211783e-38 1768976227
74.378845 -34.635384 13.553199 1.880790849211783e-38 1768976227
71.576141 -33.330269 12.348482 1.880790849211783e-38 1768976227
73.883018 -34.404499 17.277992 1.880790849211783e-38 1768976227
73.535019 -34.512699 10.138616 1.880790849211783e-38 1768976227
80.621674 -37.838730 10.660557 1.880790849211783e-38 1768976227
74.190872 -34.820518 9.324378 1.880790849211783e-38 1768976227
77.347252 -36.301922 9.127237 1.880790849211783e-38 1768976227
70.999725 -33.322796 11.761054 1.880790849211783e-38 1768976227
70.529373 -33.102039 11.173499 1.880790849211783e-38 1768976227
79.998268 -37.546146 9.042652 1.880790849211783e-38 1768976227
70.097191 -32.899200 10.677660 1.880790849211783e-38 1768976227
74.362587 -34.901108 10.857221 1.880790849211783e-38 1768976227
82.219009 -38.588417 4.837867 1.880790849211783e-38 1768976227
81.942772 -38.458767 4.377529 1.880790849211783e-38 1768976227
81.749229 -38.367935 3.758018 1.880790849211783e-38 1768976227
81.621300 -38.307892 3.328226 1.880790849211783e-38 1768976227
81.455727 -38.230179 2.714489 1.880790849211783e-38 1768976227
81.646164 -38.319561 2.278359 1.880790849211783e-38 1768976227
83.994377 -39.421661 1.604184 1.880790849211783e-38 1768976227
74.252457 -34.849426 16.466707 1.880790849211783e-38 1768976227
75.344841 -35.362114 15.841266 1.880790849211783e-38 1768976227
74.233650 -34.840599 14.953895 1.880790849211783e-38 1768976227
72.098488 -33.838486 13.807435 1.880790849211783e-38 1768976227
75.648827 -35.504787 13.804063 1.880790849211783e-38 1768976227
72.874550 -34.202717 12.590227 1.880790849211783e-38 1768976227
73.640160 -34.562050 17.245497 1.880790849211783e-38 1768976227
73.529755 -34.781231 10.152307 1.880790849211783e-38 1768976227
78.810646 -37.279213 10.435906 1.880790849211783e-38 1768976227
74.606918 -35.290756 9.390002 1.880790849211783e-38 1768976227
77.092163 -36.466331 9.110074 1.880790849211783e-38 1768976227
70.878990 -33.527363 11.757751 1.880790849211783e-38 1768976227
70.716583 -33.450535 11.219090 1.880790849211783e-38 1768976227
79.987381 -37.835835 9.054278 1.880790849211783e-38 1768976227
70.264534 -33.236706 10.718372 1.880790849211783e-38 1768976227
74.278954 -35.135620 10.860434 1.880790849211783e-38 1768976227
82.163742 -38.865299 4.841490 1.880790849211783e-38 1768976227
81.806755 -38.696434 4.376478 1.880790849211783e-38 1768976227
81.722855 -38.656754 3.762148 1.880790849211783e-38 1768976227
81.594833 -38.596195 3.331878 1.880790849211783e-38 1768976227
81.580841 -38.589569 2.722524 1.880790849211783e-38 1768976227
83.038902 -39.279270 1.118750 1.880790849211783e-38 1768976227
73.969025 -34.989014 16.427179 1.880790849211783e-38 1768976227
75.134415 -35.540268 15.819488 1.880790849211783e-38 1768976227
73.743271 -34.882229 14.876235 1.880790849211783e-38 1768976227
71.961090 -34.039215 13.800718 1.880790849211783e-38 1768976227
75.128601 -35.537521 13.728631 1.880790849211783e-38 1768976227
71.804924 -33.965343 12.423074 1.880790849211783e-38 1768976227
73.524536 -35.050518 10.166136 1.880790849211783e-38 1768976227
73.167450 -34.880287 9.702535 1.880790849211783e-38 1768976227
75.280327 -35.887535 9.488336 1.880790849211783e-38 1768976227
76.838089 -36.630146 9.093063 1.880790849211783e-38 1768976227
70.833900 -33.767838 11.767111 1.880790849211783e-38 1768976227
71.057129 -33.874260 11.289274 1.880790849211783e-38 1768976227
79.976425 -38.126251 9.066013 1.880790849211783e-38 1768976227
72.360657 -34.495674 11.053941 1.880790849211783e-38 1768976227
74.195427 -35.370342 10.863768 1.880790849211783e-38 1768976227
82.088455 -39.133099 4.843987 1.880790849211783e-38 1768976227
81.905899 -39.046070 4.388062 1.880790849211783e-38 1768976227
81.608810 -38.904442 3.762282 1.880790849211783e-38 1768976227
81.535477 -38.869480 3.334227 1.880790849211783e-38 1768976227
81.467552 -38.837097 2.722641 1.880790849211783e-38 1768976227
82.372002 -39.268269 2.305182 1.880790849211783e-38 1768976227
73.686569 -35.127762 16.387903 1.880790849211783e-38 1768976227
74.913406 -35.712620 15.795562 1.880790849211783e-38 1768976227
73.495461 -35.036655 14.847494 1.880790849211783e-38 1768976227
71.823952 -34.239815 13.794162 1.880790849211783e-38 1768976227
72.697769 -34.656384 13.303473 1.880790849211783e-38 1768976227
71.647865 -34.155872 12.413667 1.880790849211783e-38 1768976227
72.212524 -34.692707 9.999146 1.880790849211783e-38 1768976227
71.935730 -34.559731 9.552977 1.880790849211783e-38 1768976227
71.616913 -34.406559 9.039636 1.880790849211783e-38 1768976227
76.585007 -36.793362 9.076203 1.880790849211783e-38 1768976227
70.788910 -34.008770 11.776622 1.880790849211783e-38 1768976227
71.964851 -34.573719 11.450002 1.880790849211783e-38 1768976227
79.960106 -38.414841 9.077254 1.880790849211783e-38 1768976227
72.575432 -34.867058 11.102763 1.880790849211783e-38 1768976227
74.112000 -35.605267 10.867227 1.880790849211783e-38 1768976227
81.871033 -39.332897 4.392529 1.880790849211783e-38 1768976227
81.420822 -39.116604 3.334347 1.880790849211783e-38 1768976227
82.588501 -39.677589 2.314579 1.880790849211783e-38 1768976227
73.405090 -35.265648 16.348883 1.880790849211783e-38 1768976227
74.665894 -35.871372 15.766112 1.880790849211783e-38 1768976227
71.687119 -34.440289 13.787766 1.880790849211783e-38 1768976227
71.041283 -34.130013 13.019116 1.880790849211783e-38 1768976227
71.633560 -34.414562 12.429114 1.880790849211783e-38 1768976227
72.268242 -34.988132 10.021427 1.880790849211783e-38 1768976227
71.947975 -34.833080 9.568511 1.880790849211783e-38 1768976227
71.624458 -34.676453 9.053748 1.880790849211783e-38 1768976227
76.332870 -36.955997 9.059491 1.880790849211783e-38 1768976227
70.744011 -34.250191 11.786283 1.880790849211783e-38 1768976227
72.164635 -34.937973 11.498502 1.880790849211783e-38 1768976227
79.915733 -38.690609 9.085423 1.880790849211783e-38 1768976227
71.076004 -34.410923 10.889204 1.880790849211783e-38 1768976227
71.662842 -34.695034 10.523396 1.880790849211783e-38 1768976227
76.618034 -37.094055 17.089312 1.880790849211783e-38 1768976227
74.419258 -36.029530 15.736906 1.880790849211783e-38 1768976227
71.616020 -34.672367 13.794142 1.880790849211783e-38 1768976227
70.970741 -34.359959 13.025120 1.880790849211783e-38 1768976227
79.522926 -38.500439 13.818080 1.880790849211783e-38 1768976227
74.630859 -36.131981 17.578310 1.880790849211783e-38 1768976227
72.231621 -35.239712 10.031043 1.880790849211783e-38 1768976227
71.936882 -35.095917 9.581069 1.880790849211783e-38 1768976227
71.645950 -34.953983 9.069750 1.880790849211783e-38 1768976227
76.098724 -37.126358 9.044949 1.880790849211783e-38 1768976227
70.802277 -34.542377 11.813294 1.880790849211783e-38 1768976227
69.897049 -34.100739 11.153528 1.880790849211783e-38 1768976227
79.871216 -38.966850 9.093681 1.880790849211783e-38 1768976227
71.463882 -34.865154 10.964689 1.880790849211783e-38 1768976227
70.312653 -34.303505 10.340272 1.880790849211783e-38 1768976227
76.490257 -37.317375 17.085838 1.880790849211783e-38 1768976227
74.173439 -36.187065 15.707932 1.880790849211783e-38 1768976227
71.118919 -34.696857 13.718488 1.880790849211783e-38 1768976227
70.900253 -34.590176 13.031271 1.880790849211783e-38 1768976227
79.360428 -38.717648 13.810071 1.880790849211783e-38 1768976227
74.237595 -36.218365 17.511330 1.880790849211783e-38 1768976227
72.212334 -35.500313 10.043186 1.880790849211783e-38 1768976227
71.959045 -35.375793 9.598187 1.880790849211783e-38 1768976227
71.678185 -35.237717 9.087242 1.880790849211783e-38 1768976227
71.449577 -35.125332 8.504912 1.880790849211783e-38 1768976227
70.882118 -34.846363 11.844095 1.880790849211783e-38 1768976227
69.894508 -34.360844 11.169607 1.880790849211783e-38 1768976227
79.759598 -39.210621 9.094396 1.880790849211783e-38 1768976227
71.341095 -35.072002 10.962029 1.880790849211783e-38 1768976227
70.394241 -34.606514 10.367571 1.880790849211783e-38 1768976227
76.299698 -37.509701 17.068462 1.880790849211783e-38 1768976227
77.505257 -38.102364 16.437780 1.880790849211783e-38 1768976227
73.454155 -36.110802 14.926071 1.880790849211783e-38 1768976227
70.614502 -34.714802 13.641321 1.880790849211783e-38 1768976227
70.887794 -34.849155 13.048239 1.880790849211783e-38 1768976227
79.225891 -38.948246 13.807038 1.880790849211783e-38 1768976227
73.847549 -36.304199 17.445072 1.880790849211783e-38 1768976227
72.235153 -35.782444 10.061323 1.880790849211783e-38 1768976227
71.981331 -35.656708 9.615459 1.880790849211783e-38 1768976227
71.710571 -35.522591 9.104889 1.880790849211783e-38 1768976227
71.481415 -35.409073 8.521376 1.880790849211783e-38 1768976227
71.065063 -35.202827 11.892352 1.880790849211783e-38 1768976227
69.971321 -34.661030 11.198538 1.880790849211783e-38 1768976227
79.633820 -39.447453 9.093578 1.880790849211783e-38 1768976227
71.329201 -35.333672 10.976526 1.880790849211783e-38 1768976227
70.502571 -34.924191 10.398992 1.880790849211783e-38 1768976227
72.774040 -36.049389 14.809896 1.880790849211783e-38 1768976227
72.009537 -35.670685 13.931534 1.880790849211783e-38 1768976227
70.964645 -35.153084 13.081841 1.880790849211783e-38 1768976227
79.091553 -39.178833 13.804155 1.880790849211783e-38 1768976227
73.460625 -36.389496 17.379517 1.880790849211783e-38 1768976227
70.044235 -34.960636 9.770803 1.880790849211783e-38 1768976227
72.003769 -35.938679 9.632893 1.880790849211783e-38 1768976227
71.743126 -35.808590 9.122693 1.880790849211783e-38 1768976227
71.513420 -35.693935 8.537985 1.880790849211783e-38 1768976227
71.450722 -35.662647 11.974835 1.880790849211783e-38 1768976227
71.146782 -35.510941 11.403753 1.880790849211783e-38 1768976227
71.365562 -35.620136 8.161636 1.880790849211783e-38 1768976227
71.442192 -35.658386 11.010412 1.880790849211783e-38 1768976227
70.611725 -35.243881 10.430722 1.880790849211783e-38 1768976227
72.319313 -36.096172 14.739444 1.880790849211783e-38 1768976227
72.101608 -35.987514 13.970281 1.880790849211783e-38 1768976227
71.042030 -35.458660 13.115762 1.880790849211783e-38 1768976227
78.957405 -39.409393 13.801423 1.880790849211783e-38 1768976227
73.076797 -36.474255 17.314655 1.880790849211783e-38 1768976227
70.161728 -35.284000 9.801992 1.880790849211783e-38 1768976227
72.026321 -36.221695 9.650480 1.880790849211783e-38 1768976227
71.775826 -36.095726 9.140653 1.880790849211783e-38 1768976227
71.545570 -35.979927 8.554741 1.880790849211783e-38 1768976227
78.230034 -39.341511 13.130844 1.880790849211783e-38 1768976227
71.090004 -35.750824 11.411882 1.880790849211783e-38 1768976227
71.409813 -35.911655 8.179047 1.880790849211783e-38 1768976227
71.556076 -35.985214 11.044641 1.880790849211783e-38 1768976227
70.721718 -35.565620 10.462769 1.880790849211783e-38 1768976227
71.584892 -35.999702 14.611824 1.880790849211783e-38 1768976227
72.195778 -36.306915 14.009680 1.880790849211783e-38 1768976227
71.185730 -35.798969 13.162164 1.880790849211783e-38 1768976227
78.823448 -39.639935 13.798843 1.880790849211783e-38 1768976227
70.280022 -35.609444 9.833476 1.880790849211783e-38 1768976227
69.900269 -35.417034 9.379889 1.880790849211783e-38 1768976227
71.817856 -36.388634 9.159938 1.880790849211783e-38 1768976227
71.608788 -36.282700 8.575344 1.880790849211783e-38 1768976227
78.097382 -39.570339 13.128549 1.880790849211783e-38 1768976227
71.033516 -35.991222 11.420186 1.880790849211783e-38 1768976227
71.474159 -36.214493 8.198890 1.880790849211783e-38 1768976227
71.847633 -36.403717 11.106537 1.880790849211783e-38 1768976227
70.834213 -35.890244 10.495377 1.880790849211783e-38 1768976227
71.047897 -35.998516 14.524308 1.880790849211783e-38 1768976227
72.590714 -36.780228 14.107779 1.880790849211783e-38 1768976227
71.391968 -36.172840 13.220407 1.880790849211783e-38 1768976227
78.767624 -39.909943 13.810080 1.880790849211783e-38 1768976227
70.399208 -35.937069 9.865273 1.880790849211783e-38 1768976227
70.029785 -35.748497 9.411695 1.880790849211783e-38 1768976227
73.479485 -37.509480 9.386255 1.880790849211783e-38 1768976227
71.673927 -36.587784 8.596319 1.880790849211783e-38 1768976227
77.990440 -39.812210 13.130696 1.880790849211783e-38 1768976227
71.096367 -36.292957 11.447838 1.880790849211783e-38 1768976227
71.538834 -36.518829 8.218905 1.880790849211783e-38 1768976227
71.343254 -36.418983 7.672469 1.880790849211783e-38 1768976227
72.092117 -36.801262 11.161437 1.880790849211783e-38 1768976227
70.956123 -36.221371 10.529579 1.880790849211783e-38 1768976227
70.678314 -36.079552 14.470932 1.880790849211783e-38 1768976227
72.932480 -37.230247 14.195958 1.880790849211783e-38 1768976227
71.600243 -36.550171 13.279328 1.880790849211783e-38 1768976227
79.794319 -40.733051 14.011560 1.880790849211783e-38 1768976227
70.589119 -36.302807 9.907184 1.880790849211783e-38 1768976227
70.218559 -36.112236 9.451658 1.880790849211783e-38 1768976227
69.793556 -35.893661 8.929204 1.880790849211783e-38 1768976227
72.807961 -37.443920 8.745836 1.880790849211783e-38 1768976227
78.034660 -40.131924 13.158460 1.880790849211783e-38 1768976227
71.186523 -36.610043 11.480081 1.880790849211783e-38 1768976227
71.938751 -36.996902 8.277632 1.880790849211783e-38 1768976227
71.407631 -36.723755 7.691269 1.880790849211783e-38 1768976227
70.234512 -36.120445 10.890656 1.880790849211783e-38 1768976227
71.484283 -36.763176 10.624360 1.880790849211783e-38 1768976227
70.041672 -36.021263 14.362761 1.880790849211783e-38 1768976227
72.910934 -37.496880 14.213713 1.880790849211783e-38 1768976227
78.719917 -40.484344 14.622357 1.880790849211783e-38 1768976227
79.768143 -41.023426 14.028626 1.880790849211783e-38 1768976227
71.297241 -36.939293 10.022159 1.880790849211783e-38 1768976227
70.409012 -36.479095 9.492059 1.880790849211783e-38 1768976227
69.981049 -36.257366 8.967139 1.880790849211783e-38 1768976227
81.126701 -42.031960 9.760283 1.880790849211783e-38 1768976227
78.136719 -40.482841 13.196198 1.880790849211783e-38 1768976227
71.345833 -36.964466 11.523698 1.880790849211783e-38 1768976227
81.798309 -42.379925 9.426785 1.880790849211783e-38 1768976227
72.083633 -37.346722 7.776176 1.880790849211783e-38 1768976227
70.321526 -36.433773 10.921137 1.880790849211783e-38 1768976227
71.480156 -37.034058 10.640297 1.880790849211783e-38 1768976227
71.252113 -36.915909 7.095936 1.880790849211783e-38 1768976227
69.948624 -36.240570 14.366029 1.880790849211783e-38 1768976227
72.889221 -37.764099 14.231615 1.880790849211783e-38 1768976227
78.756897 -40.804157 14.652017 1.880790849211783e-38 1768976227
79.707359 -41.296597 14.039776 1.880790849211783e-38 1768976227
71.529991 -37.333954 10.070658 1.880790849211783e-38 1768976227
71.051414 -37.084167 9.593699 1.880790849211783e-38 1768976227
70.170197 -36.624233 9.005489 1.880790849211783e-38 1768976227
80.536423 -42.034718 9.704475 1.880790849211783e-38 1768976227
79.036659 -41.251938 13.369135 1.880790849211783e-38 1768976227
81.105286 -42.331627 9.361588 1.880790849211783e-38 1768976227
70.460754 -36.775883 10.959935 1.880790849211783e-38 1768976227
71.535461 -37.336807 10.665244 1.880790849211783e-38 1768976227
71.548950 -37.343845 14.717768 1.880790849211783e-38 1768976227
72.943375 -38.071644 14.264544 1.880790849211783e-38 1768976227
78.566162 -41.006371 14.639474 1.880790849211783e-38 1768976227
79.620926 -41.556889 14.046564 1.880790849211783e-38 1768976227
71.068954 -37.366489 10.021570 1.880790849211783e-38 1768976227
71.226982 -37.449574 9.632610 1.880790849211783e-38 1768976227
70.545273 -37.091145 9.067941 1.880790849211783e-38 1768976227
69.858971 -36.730301 8.431173 1.880790849211783e-38 1768976227
79.947655 -42.034714 13.544615 1.880790849211783e-38 1768976227
80.396698 -42.270809 9.294474 1.880790849211783e-38 1768976227
70.727272 -37.186840 11.018787 1.880790849211783e-38 1768976227
71.691391 -37.693752 10.705393 1.880790849211783e-38 1768976227
71.426285 -37.554359 14.715766 1.880790849211783e-38 1768976227
78.375374 -41.208042 14.627016 1.880790849211783e-38 1768976227
79.533173 -41.816784 14.053269 1.880790849211783e-38 1768976227
71.222473 -37.721825 10.059215 1.880790849211783e-38 1768976227
71.351570 -37.790203 9.664830 1.880790849211783e-38 1768976227
70.742699 -37.467724 9.107802 1.880790849211783e-38 1768976227
80.636169 -42.707642 9.747359 1.880790849211783e-38 1768976227
81.140305 -42.974648 9.395382 1.880790849211783e-38 1768976227
71.880981 -38.070599 10.750800 1.880790849211783e-38 1768976227
71.303352 -37.764668 14.713840 1.880790849211783e-38 1768976227
78.184517 -41.409161 14.614637 1.880790849211783e-38 1768976227
79.414536 -42.060623 14.054657 1.880790849211783e-38 1768976227
71.432571 -38.109398 10.105075 1.880790849211783e-38 1768976227
71.514229 -38.152958 9.702404 1.880790849211783e-38 1768976227
70.901627 -37.826138 9.142908 1.880790849211783e-38 1768976227
70.074509 -37.384869 10.497432 1.880790849211783e-38 1768976227
71.180214 -37.974766 14.711994 1.880790849211783e-38 1768976227
77.993614 -41.609726 14.602345 1.880790849211783e-38 1768976227
79.295815 -42.304451 14.056161 1.880790849211783e-38 1768976227
71.693672 -38.526917 10.158402 1.880790849211783e-38 1768976227
71.202446 -38.262939 9.675717 1.880790849211783e-38 1768976227
71.108688 -38.212555 9.184429 1.880790849211783e-38 1768976227
70.501396 -37.886204 8.549728 1.880790849211783e-38 1768976227
79.176933 -42.548286 14.057771 1.880790849211783e-38 1768976227
71.462029 -38.680656 9.726800 1.880790849211783e-38 1768976227
71.406418 -38.650551 9.237898 1.880790849211783e-38 1768976227
70.769058 -38.305569 8.596160 1.880790849211783e-38 1768976227
79.045128 -42.785202 14.057216 1.880790849211783e-38 1768976227
71.098343 -38.761509 8.650317 1.880790849211783e-38 1768976227
70.647690 -38.515827 8.233628 1.880790849211783e-38 1768976227
78.840347 -42.982315 14.043790 1.880790849211783e-38 1768976227
71.038559 -39.007290 8.292854 1.880790849211783e-38 1768976227
57.004673 -50.845013 5.052481 1.880790849211783e-38 1768976227
56.880020 -51.042686 5.055053 1.880790849211783e-38 1768976227
56.687031 -51.178989 5.051597 1.880790849211783e-38 1768976227
56.497166 -51.317699 5.048447 1.880790849211783e-38 1768976227
56.289742 -51.439960 5.043751 1.880790849211783e-38 1768976227
56.471706 -51.606247 4.575284 1.880790849211783e-38 1768976227
56.477352 -51.924854 4.086565 1.880790849211783e-38 1768976227
56.019611 -51.504009 5.033442 1.880790849211783e-38 1768976227
56.478619 -52.241219 4.098038 1.880790849211783e-38 1768976227
54.823818 -50.710575 4.939719 1.880790849211783e-38 1768976227
54.692951 -50.896469 4.941736 1.880790849211783e-38 1768976227
55.499493 -51.960220 5.028746 1.880790849211783e-38 1768976227
55.503723 -52.279198 4.061456 1.880790849211783e-38 1768976227
55.459061 -52.237125 5.039334 1.880790849211783e-38 1768976227
55.344170 -52.444813 5.043244 1.880790849211783e-38 1768976227
55.202408 -52.627354 5.044766 1.880790849211783e-38 1768976227
55.047028 -52.797050 5.045095 1.880790849211783e-38 1768976227
54.879082 -52.954670 5.044318 1.880790849211783e-38 1768976227
52.199280 -80.188515 -0.555883 1.880790849211783e-38 1768976227
52.199284 -80.188515 -1.103531 1.880790849211783e-38 1768976227
52.199276 -80.188507 4.627192 1.880790849211783e-38 1768976227
52.199284 -80.188522 3.981754 1.880790849211783e-38 1768976227
52.199265 -80.188499 3.531901 1.880790849211783e-38 1768976227
52.199265 -80.188499 2.886461 1.880790849211783e-38 1768976227
52.199280 -80.188507 2.417051 1.880790849211783e-38 1768976227
52.199253 -80.188477 -1.709851 1.880790849211783e-38 1768976227
52.199287 -80.188522 -2.237940 1.880790849211783e-38 1768976227
52.199299 -80.188530 1.654259 1.880790849211783e-38 1768976227
52.199280 -80.188507 1.165289 1.880790849211783e-38 1768976227
52.199272 -80.188507 -2.824703 1.880790849211783e-38 1768976227
52.199280 -80.188507 -3.294114 1.880790849211783e-38 1768976227
52.199284 -80.188515 0.578526 1.880790849211783e-38 1768976227
52.199276 -80.188507 0.069996 1.880790849211783e-38 1768976227
51.554893 -79.723473 -0.551579 1.880790849211783e-38 1768976227
51.554905 -79.723488 -1.094986 1.880790849211783e-38 1768976227
51.554901 -79.723480 4.591365 1.880790849211783e-38 1768976227
51.554905 -79.723480 3.950924 1.880790849211783e-38 1768976227
51.554905 -79.723480 3.504555 1.880790849211783e-38 1768976227
51.554897 -79.723480 2.864112 1.880790849211783e-38 1768976227
51.554897 -79.723465 2.398336 1.880790849211783e-38 1768976227
51.554901 -79.723480 -1.696613 1.880790849211783e-38 1768976227
51.554897 -79.723473 -2.220612 1.880790849211783e-38 1768976227
51.554897 -79.723480 1.641450 1.880790849211783e-38 1768976227
51.554901 -79.723488 1.156267 1.880790849211783e-38 1768976227
51.554909 -79.723488 -2.802832 1.880790849211783e-38 1768976227
51.554897 -79.723480 -3.268608 1.880790849211783e-38 1768976227
51.554909 -79.723480 0.574046 1.880790849211783e-38 1768976227
51.554886 -79.723465 0.069455 1.880790849211783e-38 1768976227
51.036594 -79.446434 -0.548595 1.880790849211783e-38 1768976227
51.036598 -79.446442 -1.089062 1.880790849211783e-38 1768976227
51.036598 -79.446449 4.566525 1.880790849211783e-38 1768976227
51.036583 -79.446434 3.929548 1.880790849211783e-38 1768976227
51.036594 -79.446442 3.485595 1.880790849211783e-38 1768976227
51.036602 -79.446442 2.848617 1.880790849211783e-38 1768976227
51.036602 -79.446449 2.385361 1.880790849211783e-38 1768976227
51.036583 -79.446426 -1.687433 1.880790849211783e-38 1768976227
51.036591 -79.446434 -2.208597 1.880790849211783e-38 1768976227
51.036602 -79.446449 1.632570 1.880790849211783e-38 1768976227
51.036598 -79.446442 1.150011 1.880790849211783e-38 1768976227
51.036591 -79.446434 -2.787668 1.880790849211783e-38 1768976227
51.036602 -79.446442 -3.250925 1.880790849211783e-38 1768976227
51.036598 -79.446442 0.570941 1.880790849211783e-38 1768976227
51.036602 -79.446449 0.069079 1.880790849211783e-38 1768976227
50.595158 -79.284058 -0.546418 1.880790849211783e-38 1768976227
50.595165 -79.284065 -1.084739 1.880790849211783e-38 1768976227
50.595161 -79.284065 4.548400 1.880790849211783e-38 1768976227
50.595161 -79.284058 3.913952 1.880790849211783e-38 1768976227
50.595150 -79.284050 3.471760 1.880790849211783e-38 1768976227
50.595169 -79.284073 2.837311 1.880790849211783e-38 1768976227
50.595154 -79.284058 2.375893 1.880790849211783e-38 1768976227
50.595158 -79.284058 -1.680736 1.880790849211783e-38 1768976227
50.595158 -79.284058 -2.199832 1.880790849211783e-38 1768976227
50.595158 -79.284058 1.626090 1.880790849211783e-38 1768976227
50.595150 -79.284050 1.145447 1.880790849211783e-38 1768976227
50.595161 -79.284065 -2.776603 1.880790849211783e-38 1768976227
50.595169 -79.284065 -3.238022 1.880790849211783e-38 1768976227
50.595161 -79.284058 0.568675 1.880790849211783e-38 1768976227
50.595161 -79.284065 0.068805 1.880790849211783e-38 1768976227
50.179352 -79.157936 -0.544503 1.880790849211783e-38 1768976227
50.179348 -79.157928 -1.080938 1.880790849211783e-38 1768976227
50.179344 -79.157913 4.992261 1.880790849211783e-38 1768976227
50.179348 -79.157928 4.532461 1.880790849211783e-38 1768976227
50.179344 -79.157921 3.900236 1.880790849211783e-38 1768976227
50.179352 -79.157921 3.459594 1.880790849211783e-38 1768976227
50.179348 -79.157936 2.827368 1.880790849211783e-38 1768976227
50.179352 -79.157936 2.367568 1.880790849211783e-38 1768976227
50.179352 -79.157928 -1.674846 1.880790849211783e-38 1768976227
50.179352 -79.157928 -2.192123 1.880790849211783e-38 1768976227
50.179352 -79.157928 1.620392 1.880790849211783e-38 1768976227
50.179352 -79.157921 1.141433 1.880790849211783e-38 1768976227
50.179348 -79.157928 -2.766874 1.880790849211783e-38 1768976227
50.179352 -79.157936 -3.226675 1.880790849211783e-38 1768976227
50.179348 -79.157928 0.566682 1.880790849211783e-38 1768976227
50.179348 -79.157921 0.068563 1.880790849211783e-38 1768976227
49.795185 -79.078323 -0.542920 1.880790849211783e-38 1768976227
49.795181 -79.078323 -1.077795 1.880790849211783e-38 1768976227
49.795177 -79.078316 4.977747 1.880790849211783e-38 1768976227
49.795181 -79.078323 4.519283 1.880790849211783e-38 1768976227
49.795181 -79.078316 3.888896 1.880790849211783e-38 1768976227
49.795181 -79.078316 3.449535 1.880790849211783e-38 1768976227
49.795177 -79.078316 2.819147 1.880790849211783e-38 1768976227
49.795189 -79.078323 2.360683 1.880790849211783e-38 1768976227
49.795181 -79.078316 -1.669977 1.880790849211783e-38 1768976227
49.795185 -79.078323 -2.185750 1.880790849211783e-38 1768976227
49.795177 -79.078316 1.615680 1.880790849211783e-38 1768976227
49.795181 -79.078316 1.138114 1.880790849211783e-38 1768976227
49.795181 -79.078323 -2.758829 1.880790849211783e-38 1768976227
