# .PCD v0.7 - Point Cloud Data file format
VERSION 0.7
FIELDS x y z rgb label
SIZE 4 4 4 4 4
TYPE F F F F U
COUNT 1 1 1 1 1
WIDTH 744
HEIGHT 1
VIEWPOINT 0 0 0 1 0 0 0
POINTS 744
DATA ascii
-28.322647 -19.362726 -0.613105 1.880790849211783e-38 1768976227
-28.322641 -19.362720 -0.802462 1.880790849211783e-38 1768976227
-28.322641 -19.362720 0.593170 1.880790849211783e-38 1768976227
-28.322649 -19.362728 0.417840 1.880790849211783e-38 1768976227
-28.322649 -19.362726 -1.012859 1.880790849211783e-38 1768976227
-28.322655 -19.362732 -1.181177 1.880790849211783e-38 1768976227
-28.322649 -19.362726 0.207443 1.880790849211783e-38 1768976227
-28.322651 -19.362730 0.025098 1.880790849211783e-38 1768976227
-28.090681 -19.080080 4.238337 1.880790849211783e-38 1768976227
-28.090687 -19.080084 4.064800 1.880790849211783e-38 1768976227
-28.090687 -19.080082 -0.197286 1.880790849211783e-38 1768976227
-28.090689 -19.080084 -0.391649 1.880790849211783e-38 1768976227
-28.090685 -19.080082 3.863496 1.880790849211783e-38 1768976227
-28.090687 -19.080086 3.627485 1.880790849211783e-38 1768976227
-28.090685 -19.080082 4.870014 1.880790849211783e-38 1768976227
-28.090685 -19.080082 3.474771 1.880790849211783e-38 1768976227
-28.090685 -19.080080 3.252643 1.880790849211783e-38 1768976227
-28.090683 -19.080080 4.682594 1.880790849211783e-38 1768976227
-28.090683 -19.080082 4.488231 1.880790849211783e-38 1768976227
-28.090683 -19.080082 1.808809 1.880790849211783e-38 1768976227
-28.090681 -19.080080 1.642213 1.880790849211783e-38 1768976227
-28.090685 -19.080082 3.002748 1.880790849211783e-38 1768976227
-28.090685 -19.080082 2.850035 1.880790849211783e-38 1768976227
-28.090683 -19.080082 1.413144 1.880790849211783e-38 1768976227
-28.090687 -19.080084 1.253489 1.880790849211783e-38 1768976227
-28.090687 -19.080084 2.634849 1.880790849211783e-38 1768976227
-28.090683 -19.080080 2.419662 1.880790849211783e-38 1768976227
-28.090689 -19.080086 1.024419 1.880790849211783e-38 1768976227
-28.090683 -19.080080 0.857823 1.880790849211783e-38 1768976227
-28.090689 -19.080086 2.246125 1.880790849211783e-38 1768976227
-28.090687 -19.080084 2.030938 1.880790849211783e-38 1768976227
-28.090681 -19.080080 -0.606835 1.880790849211783e-38 1768976227
-28.090683 -19.080082 -0.794256 1.880790849211783e-38 1768976227
-28.090685 -19.080082 0.587104 1.880790849211783e-38 1768976227
-28.090681 -19.080082 0.413567 1.880790849211783e-38 1768976227
-28.090685 -19.080082 -1.002501 1.880790849211783e-38 1768976227
-28.090693 -19.080088 -1.169098 1.880790849211783e-38 1768976227
-28.090683 -19.080082 0.205321 1.880790849211783e-38 1768976227
-28.090681 -19.080080 0.024842 1.880790849211783e-38 1768976227
-27.863466 -18.803211 4.195480 1.880790849211783e-38 1768976227
-27.863462 -18.803207 4.023697 1.880790849211783e-38 1768976227
-27.863466 -18.803211 -0.195291 1.880790849211783e-38 1768976227
-27.863464 -18.803211 -0.387689 1.880790849211783e-38 1768976227
-27.863464 -18.803209 3.824429 1.880790849211783e-38 1768976227
-27.863461 -18.803209 3.590804 1.880790849211783e-38 1768976227
-27.863462 -18.803209 4.820769 1.880790849211783e-38 1768976227
-27.863459 -18.803205 3.439634 1.880790849211783e-38 1768976227
-27.863459 -18.803209 3.219753 1.880790849211783e-38 1768976227
-27.863462 -18.803209 4.635244 1.880790849211783e-38 1768976227
-27.863466 -18.803211 4.442848 1.880790849211783e-38 1768976227
-27.863466 -18.803211 1.790519 1.880790849211783e-38 1768976227
-27.863462 -18.803207 1.625607 1.880790849211783e-38 1768976227
-27.863462 -18.803207 2.972385 1.880790849211783e-38 1768976227
-27.863457 -18.803204 2.821216 1.880790849211783e-38 1768976227
-27.863462 -18.803209 1.398854 1.880790849211783e-38 1768976227
-27.863466 -18.803213 1.240814 1.880790849211783e-38 1768976227
-27.863466 -18.803209 2.608206 1.880790849211783e-38 1768976227
-27.863462 -18.803211 2.395195 1.880790849211783e-38 1768976227
-27.863464 -18.803209 1.014060 1.880790849211783e-38 1768976227
-27.863468 -18.803213 0.849149 1.880790849211783e-38 1768976227
-27.863462 -18.803207 2.223412 1.880790849211783e-38 1768976227
-27.863461 -18.803207 2.010401 1.880790849211783e-38 1768976227
-27.863466 -18.803211 -0.600699 1.880790849211783e-38 1768976227
-27.863466 -18.803211 -0.786225 1.880790849211783e-38 1768976227
-27.863468 -18.803215 0.581168 1.880790849211783e-38 1768976227
-27.863468 -18.803211 0.409385 1.880790849211783e-38 1768976227
-27.863462 -18.803209 -0.992364 1.880790849211783e-38 1768976227
-27.863462 -18.803209 -1.157276 1.880790849211783e-38 1768976227
-27.863459 -18.803205 0.203245 1.880790849211783e-38 1768976227
-27.863464 -18.803211 0.024590 1.880790849211783e-38 1768976227
-27.750473 -18.605398 4.169999 1.880790849211783e-38 1768976227
-27.750475 -18.605398 3.999259 1.880790849211783e-38 1768976227
-27.750469 -18.605394 -0.194105 1.880790849211783e-38 1768976227
-27.750475 -18.605396 -0.385334 1.880790849211783e-38 1768976227
-27.750473 -18.605396 3.801200 1.880790849211783e-38 1768976227
-27.750473 -18.605398 3.568995 1.880790849211783e-38 1768976227
-27.750477 -18.605398 4.791491 1.880790849211783e-38 1768976227
-27.750471 -18.605398 3.418744 1.880790849211783e-38 1768976227
-27.750473 -18.605396 3.200197 1.880790849211783e-38 1768976227
-27.750473 -18.605396 4.607092 1.880790849211783e-38 1768976227
-27.750473 -18.605398 4.415864 1.880790849211783e-38 1768976227
-27.750473 -18.605394 1.779644 1.880790849211783e-38 1768976227
-27.750475 -18.605396 1.615734 1.880790849211783e-38 1768976227
-27.750471 -18.605396 2.954332 1.880790849211783e-38 1768976227
-27.750477 -18.605400 2.804082 1.880790849211783e-38 1768976227
-27.750467 -18.605392 1.390358 1.880790849211783e-38 1768976227
-27.750473 -18.605398 1.233278 1.880790849211783e-38 1768976227
-27.750475 -18.605398 2.592365 1.880790849211783e-38 1768976227
-27.750473 -18.605394 2.380647 1.880790849211783e-38 1768976227
-27.750471 -18.605396 1.007901 1.880790849211783e-38 1768976227
-27.750475 -18.605400 0.843991 1.880790849211783e-38 1768976227
-27.750465 -18.605391 2.209907 1.880790849211783e-38 1768976227
-27.750473 -18.605396 1.998191 1.880790849211783e-38 1768976227
-27.750471 -18.605396 -0.597051 1.880790849211783e-38 1768976227
-27.750471 -18.605396 -0.781450 1.880790849211783e-38 1768976227
-27.750473 -18.605396 0.577638 1.880790849211783e-38 1768976227
-27.750473 -18.605398 0.406898 1.880790849211783e-38 1768976227
-27.750475 -18.605400 -0.986337 1.880790849211783e-38 1768976227
-27.750469 -18.605394 -1.150247 1.880790849211783e-38 1768976227
-27.750469 -18.605394 0.202011 1.880790849211783e-38 1768976227
-27.750471 -18.605396 0.024441 1.880790849211783e-38 1768976227
-27.649977 -18.417385 4.146532 1.880790849211783e-38 1768976227
-27.649981 -18.417387 3.976753 1.880790849211783e-38 1768976227
-27.649981 -18.417389 -0.193013 1.880790849211783e-38 1768976227
-27.649979 -18.417387 -0.383165 1.880790849211783e-38 1768976227
-27.649981 -18.417387 3.779809 1.880790849211783e-38 1768976227
-27.649975 -18.417381 3.548909 1.880790849211783e-38 1768976227
-27.649977 -18.417385 4.981843 1.880790849211783e-38 1768976227
-27.649977 -18.417385 4.764525 1.880790849211783e-38 1768976227
-27.649979 -18.417385 3.399505 1.880790849211783e-38 1768976227
-27.649977 -18.417385 3.182188 1.880790849211783e-38 1768976227
-27.649979 -18.417385 4.581165 1.880790849211783e-38 1768976227
-27.649975 -18.417383 4.391012 1.880790849211783e-38 1768976227
-27.649979 -18.417387 1.769629 1.880790849211783e-38 1768976227
-27.649981 -18.417385 1.606641 1.880790849211783e-38 1768976227
-27.649981 -18.417387 2.937707 1.880790849211783e-38 1768976227
-27.649973 -18.417381 2.788301 1.880790849211783e-38 1768976227
-27.649977 -18.417387 1.382534 1.880790849211783e-38 1768976227
-27.649977 -18.417383 1.226337 1.880790849211783e-38 1768976227
-27.649981 -18.417387 2.577776 1.880790849211783e-38 1768976227
-27.649975 -18.417383 2.367250 1.880790849211783e-38 1768976227
-27.649977 -18.417385 1.002229 1.880790849211783e-38 1768976227
-27.649979 -18.417387 0.839242 1.880790849211783e-38 1768976227
-27.649981 -18.417385 2.197472 1.880790849211783e-38 1768976227
-27.649981 -18.417387 1.986946 1.880790849211783e-38 1768976227
-27.649979 -18.417387 -0.593691 1.880790849211783e-38 1768976227
-27.649977 -18.417385 -0.777052 1.880790849211783e-38 1768976227
-27.649979 -18.417387 0.574387 1.880790849211783e-38 1768976227
-27.649979 -18.417385 0.404608 1.880790849211783e-38 1768976227
-27.649981 -18.417385 -0.980786 1.880790849211783e-38 1768976227
-27.649979 -18.417385 -1.143774 1.880790849211783e-38 1768976227
-27.649979 -18.417387 0.200874 1.880790849211783e-38 1768976227
-27.649977 -18.417385 0.024304 1.880790849211783e-38 1768976227
-27.550610 -18.231480 4.123365 1.880790849211783e-38 1768976227
-27.550610 -18.231480 3.954535 1.880790849211783e-38 1768976227
-27.550613 -18.231480 -0.191934 1.880790849211783e-38 1768976227
-27.550615 -18.231483 -0.381025 1.880790849211783e-38 1768976227
-27.550608 -18.231478 3.758691 1.880790849211783e-38 1768976227
-27.550611 -18.231480 3.529083 1.880790849211783e-38 1768976227
-27.550610 -18.231478 4.954009 1.880790849211783e-38 1768976227
-27.550608 -18.231478 4.737906 1.880790849211783e-38 1768976227
-27.550608 -18.231478 3.380512 1.880790849211783e-38 1768976227
-27.550611 -18.231480 3.164410 1.880790849211783e-38 1768976227
-27.550610 -18.231478 4.555571 1.880790849211783e-38 1768976227
-27.550610 -18.231480 4.366480 1.880790849211783e-38 1768976227
-27.550611 -18.231480 1.759742 1.880790849211783e-38 1768976227
-27.550611 -18.231480 1.597665 1.880790849211783e-38 1768976227
-27.550608 -18.231478 2.921293 1.880790849211783e-38 1768976227
-27.550611 -18.231480 2.772723 1.880790849211783e-38 1768976227
-27.550610 -18.231480 1.374810 1.880790849211783e-38 1768976227
-27.550610 -18.231478 1.219486 1.880790849211783e-38 1768976227
-27.550610 -18.231480 2.563374 1.880790849211783e-38 1768976227
-27.550610 -18.231480 2.354024 1.880790849211783e-38 1768976227
-27.550610 -18.231480 0.996630 1.880790849211783e-38 1768976227
-27.550608 -18.231476 0.834553 1.880790849211783e-38 1768976227
-27.550611 -18.231480 2.185194 1.880790849211783e-38 1768976227
-27.550610 -18.231478 1.975845 1.880790849211783e-38 1768976227
-27.550610 -18.231480 -0.590374 1.880790849211783e-38 1768976227
-27.550610 -18.231480 -0.772711 1.880790849211783e-38 1768976227
-27.550611 -18.231480 0.571178 1.880790849211783e-38 1768976227
-27.550610 -18.231476 0.402348 1.880790849211783e-38 1768976227
-27.550608 -18.231478 -0.975307 1.880790849211783e-38 1768976227
-27.550608 -18.231476 -1.137384 1.880790849211783e-38 1768976227
-27.550610 -18.231476 0.199752 1.880790849211783e-38 1768976227
-27.550608 -18.231478 0.024168 1.880790849211783e-38 1768976227
-27.452347 -18.047636 4.100493 1.880790849211783e-38 1768976227
-27.452343 -18.047634 3.932599 1.880790849211783e-38 1768976227
-27.452347 -18.047638 -0.190870 1.880790849211783e-38 1768976227
-27.452343 -18.047634 -0.378911 1.880790849211783e-38 1768976227
-27.452345 -18.047636 3.737842 1.880790849211783e-38 1768976227
-27.452337 -18.047630 3.509506 1.880790849211783e-38 1768976227
-27.452339 -18.047632 4.926529 1.880790849211783e-38 1768976227
-27.452347 -18.047636 4.711626 1.880790849211783e-38 1768976227
-27.452343 -18.047634 3.361761 1.880790849211783e-38 1768976227
-27.452341 -18.047632 3.146856 1.880790849211783e-38 1768976227
-27.452345 -18.047636 4.530301 1.880790849211783e-38 1768976227
-27.452349 -18.047638 4.342260 1.880790849211783e-38 1768976227
-27.452345 -18.047636 1.749981 1.880790849211783e-38 1768976227
-27.452341 -18.047636 1.588803 1.880790849211783e-38 1768976227
-27.452347 -18.047636 2.905090 1.880790849211783e-38 1768976227
-27.452341 -18.047634 2.757343 1.880790849211783e-38 1768976227
-27.452345 -18.047636 1.367184 1.880790849211783e-38 1768976227
-27.452351 -18.047640 1.212721 1.880790849211783e-38 1768976227
-27.452345 -18.047636 2.549155 1.880790849211783e-38 1768976227
-27.452341 -18.047632 2.340966 1.880790849211783e-38 1768976227
-27.452345 -18.047636 0.991102 1.880790849211783e-38 1768976227
-27.452347 -18.047638 0.829924 1.880790849211783e-38 1768976227
-27.452347 -18.047638 2.173073 1.880790849211783e-38 1768976227
-27.452345 -18.047636 1.964885 1.880790849211783e-38 1768976227
-27.452345 -18.047638 -0.587099 1.880790849211783e-38 1768976227
-27.452339 -18.047630 -0.768424 1.880790849211783e-38 1768976227
-27.452339 -18.047632 0.568009 1.880790849211783e-38 1768976227
-27.452347 -18.047638 0.400116 1.880790849211783e-38 1768976227
-27.452345 -18.047636 -0.969897 1.880790849211783e-38 1768976227
-27.452347 -18.047638 -1.131075 1.880790849211783e-38 1768976227
-27.452347 -18.047638 0.198644 1.880790849211783e-38 1768976227
-27.452351 -18.047640 0.024034 1.880790849211783e-38 1768976227
-27.368877 -17.874777 4.079955 1.880790849211783e-38 1768976227
-27.368881 -17.874779 3.912903 1.880790849211783e-38 1768976227
-27.368879 -17.874779 -0.189914 1.880790849211783e-38 1768976227
-27.368885 -17.874783 -0.377013 1.880790849211783e-38 1768976227
-27.368885 -17.874781 3.719121 1.880790849211783e-38 1768976227
-27.368881 -17.874777 3.491929 1.880790849211783e-38 1768976227
-27.368883 -17.874781 4.901855 1.880790849211783e-38 1768976227
-27.368883 -17.874781 4.688027 1.880790849211783e-38 1768976227
-27.368883 -17.874781 3.344923 1.880790849211783e-38 1768976227
-27.368885 -17.874781 3.131096 1.880790849211783e-38 1768976227
-27.368885 -17.874781 4.507611 1.880790849211783e-38 1768976227
-27.368881 -17.874781 4.320511 1.880790849211783e-38 1768976227
-27.368885 -17.874781 1.741216 1.880790849211783e-38 1768976227
-27.368885 -17.874783 1.580845 1.880790849211783e-38 1768976227
-27.368887 -17.874783 2.890539 1.880790849211783e-38 1768976227
-27.368877 -17.874779 2.743532 1.880790849211783e-38 1768976227
-27.368881 -17.874783 1.360336 1.880790849211783e-38 1768976227
-27.368885 -17.874781 1.206647 1.880790849211783e-38 1768976227
-27.368883 -17.874781 2.536388 1.880790849211783e-38 1768976227
-27.368885 -17.874784 2.329242 1.880790849211783e-38 1768976227
-27.368883 -17.874783 0.986138 1.880790849211783e-38 1768976227
-27.368879 -17.874779 0.825767 1.880790849211783e-38 1768976227
-27.368881 -17.874781 2.162189 1.880790849211783e-38 1768976227
-27.368881 -17.874781 1.955044 1.880790849211783e-38 1768976227
-27.368885 -17.874781 -0.584159 1.880790849211783e-38 1768976227
-27.368881 -17.874783 -0.764576 1.880790849211783e-38 1768976227
-27.368883 -17.874779 0.565165 1.880790849211783e-38 1768976227
-27.368883 -17.874781 0.398112 1.880790849211783e-38 1768976227
-27.368881 -17.874779 -0.965039 1.880790849211783e-38 1768976227
-27.368881 -17.874781 -1.125410 1.880790849211783e-38 1768976227
-27.368883 -17.874779 0.197649 1.880790849211783e-38 1768976227
-27.368879 -17.874781 0.023913 1.880790849211783e-38 1768976227
-27.324495 -17.728460 4.065349 1.880790849211783e-38 1768976227
-27.324495 -17.728460 3.898895 1.880790849211783e-38 1768976227
-27.324497 -17.728458 -0.189234 1.880790849211783e-38 1768976227
-27.324497 -17.728460 -0.375664 1.880790849211783e-38 1768976227
-27.324493 -17.728456 3.705806 1.880790849211783e-38 1768976227
-27.324495 -17.728460 3.479428 1.880790849211783e-38 1768976227
-27.324497 -17.728460 4.884307 1.880790849211783e-38 1768976227
-27.324495 -17.728456 4.671244 1.880790849211783e-38 1768976227
-27.324495 -17.728460 3.332948 1.880790849211783e-38 1768976227
-27.324499 -17.728458 3.119886 1.880790849211783e-38 1768976227
-27.324493 -17.728456 4.491473 1.880790849211783e-38 1768976227
-27.324495 -17.728460 4.305044 1.880790849211783e-38 1768976227
-27.324501 -17.728462 1.734983 1.880790849211783e-38 1768976227
-27.324497 -17.728460 1.575186 1.880790849211783e-38 1768976227
-27.324497 -17.728460 2.880191 1.880790849211783e-38 1768976227
-27.324499 -17.728462 2.733711 1.880790849211783e-38 1768976227
-27.324495 -17.728460 1.355466 1.880790849211783e-38 1768976227
-27.324495 -17.728458 1.202328 1.880790849211783e-38 1768976227
-27.324495 -17.728460 2.527308 1.880790849211783e-38 1768976227
-27.324497 -17.728460 2.320903 1.880790849211783e-38 1768976227
-27.324495 -17.728460 0.982607 1.880790849211783e-38 1768976227
-27.324499 -17.728462 0.822811 1.880790849211783e-38 1768976227
-27.324495 -17.728460 2.154449 1.880790849211783e-38 1768976227
-27.324495 -17.728458 1.948045 1.880790849211783e-38 1768976227
-27.324499 -17.728462 -0.582067 1.880790849211783e-38 1768976227
-27.324495 -17.728460 -0.761839 1.880790849211783e-38 1768976227
-27.324495 -17.728460 0.563141 1.880790849211783e-38 1768976227
-27.324499 -17.728462 0.396687 1.880790849211783e-38 1768976227
-27.324495 -17.728460 -0.961584 1.880790849211783e-38 1768976227
-27.324497 -17.728458 -1.121381 1.880790849211783e-38 1768976227
-27.324495 -17.728460 0.196941 1.880790849211783e-38 1768976227
-27.324495 -17.728458 0.023828 1.880790849211783e-38 1768976227
-27.280437 -17.583206 4.050887 1.880790849211783e-38 1768976227
-27.280436 -17.583204 3.885024 1.880790849211783e-38 1768976227
-27.280434 -17.583204 -0.188561 1.880790849211783e-38 1768976227
-27.280436 -17.583206 -0.374327 1.880790849211783e-38 1768976227
-27.280432 -17.583204 3.692623 1.880790849211783e-38 1768976227
-27.280428 -17.583200 3.467049 1.880790849211783e-38 1768976227
-27.280436 -17.583206 4.866930 1.880790849211783e-38 1768976227
-27.280432 -17.583204 4.654625 1.880790849211783e-38 1768976227
-27.280434 -17.583204 3.321091 1.880790849211783e-38 1768976227
-27.280434 -17.583204 3.108787 1.880790849211783e-38 1768976227
-27.280434 -17.583204 4.475495 1.880790849211783e-38 1768976227
-27.280432 -17.583204 4.289729 1.880790849211783e-38 1768976227
-27.280434 -17.583204 1.728810 1.880790849211783e-38 1768976227
-27.280436 -17.583204 1.569582 1.880790849211783e-38 1768976227
-27.280436 -17.583204 2.869945 1.880790849211783e-38 1768976227
-27.280436 -17.583204 2.723986 1.880790849211783e-38 1768976227
-27.280432 -17.583204 1.350644 1.880790849211783e-38 1768976227
-27.280437 -17.583206 1.198050 1.880790849211783e-38 1768976227
-27.280432 -17.583204 2.518316 1.880790849211783e-38 1768976227
-27.280436 -17.583206 2.312647 1.880790849211783e-38 1768976227
-27.280436 -17.583206 0.979112 1.880790849211783e-38 1768976227
-27.280434 -17.583206 0.819883 1.880790849211783e-38 1768976227
-27.280434 -17.583204 2.146784 1.880790849211783e-38 1768976227
-27.280436 -17.583206 1.941114 1.880790849211783e-38 1768976227
-27.280432 -17.583202 -0.579996 1.880790849211783e-38 1768976227
-27.280436 -17.583206 -0.759128 1.880790849211783e-38 1768976227
-27.280428 -17.583199 0.561138 1.880790849211783e-38 1768976227
-27.280430 -17.583200 0.395276 1.880790849211783e-38 1768976227
-27.280439 -17.583208 -0.958163 1.880790849211783e-38 1768976227
-27.280434 -17.583204 -1.117392 1.880790849211783e-38 1768976227
-27.280437 -17.583206 0.196240 1.880790849211783e-38 1768976227
-27.280432 -17.583202 0.023743 1.880790849211783e-38 1768976227
-27.236671 -17.438951 4.036560 1.880790849211783e-38 1768976227
-27.236675 -17.438957 3.871284 1.880790849211783e-38 1768976227
-27.236675 -17.438953 -0.187894 1.880790849211783e-38 1768976227
-27.236671 -17.438953 -0.373003 1.880790849211783e-38 1768976227
-27.236670 -17.438950 3.679563 1.880790849211783e-38 1768976227
-27.236675 -17.438953 3.454788 1.880790849211783e-38 1768976227
-27.236679 -17.438957 4.849719 1.880790849211783e-38 1768976227
-27.236675 -17.438953 4.638165 1.880790849211783e-38 1768976227
-27.236673 -17.438953 3.309346 1.880790849211783e-38 1768976227
-27.236675 -17.438953 3.097793 1.880790849211783e-38 1768976227
-27.236675 -17.438955 4.459668 1.880790849211783e-38 1768976227
-27.236679 -17.438959 4.274559 1.880790849211783e-38 1768976227
-27.236675 -17.438955 1.722696 1.880790849211783e-38 1768976227
-27.236673 -17.438955 1.564031 1.880790849211783e-38 1768976227
-27.236675 -17.438955 2.859795 1.880790849211783e-38 1768976227
-27.236677 -17.438955 2.714352 1.880790849211783e-38 1768976227
-27.236675 -17.438955 1.345867 1.880790849211783e-38 1768976227
-27.236675 -17.438955 1.193813 1.880790849211783e-38 1768976227
-27.236679 -17.438959 2.509411 1.880790849211783e-38 1768976227
-27.236673 -17.438953 2.304467 1.880790849211783e-38 1768976227
-27.236675 -17.438953 0.975649 1.880790849211783e-38 1768976227
-27.236673 -17.438953 0.816984 1.880790849211783e-38 1768976227
-27.236677 -17.438957 2.139192 1.880790849211783e-38 1768976227
-27.236677 -17.438957 1.934250 1.880790849211783e-38 1768976227
-27.236677 -17.438955 -0.577945 1.880790849211783e-38 1768976227
-27.236671 -17.438953 -0.756444 1.880790849211783e-38 1768976227
-27.236675 -17.438955 0.559153 1.880790849211783e-38 1768976227
-27.236673 -17.438953 0.393878 1.880790849211783e-38 1768976227
-27.236673 -17.438953 -0.954775 1.880790849211783e-38 1768976227
-27.236675 -17.438953 -1.113440 1.880790849211783e-38 1768976227
-27.236675 -17.438955 0.195546 1.880790849211783e-38 1768976227
-27.236675 -17.438953 0.023659 1.880790849211783e-38 1768976227
-27.193232 -17.295727 4.022373 1.880790849211783e-38 1768976227
-27.193222 -17.295717 3.857676 1.880790849211783e-38 1768976227
-27.193228 -17.295723 -0.187233 1.880790849211783e-38 1768976227
-27.193228 -17.295721 -0.371692 1.880790849211783e-38 1768976227
-27.193228 -17.295721 3.666631 1.880790849211783e-38 1768976227
-27.193228 -17.295723 3.442645 1.880790849211783e-38 1768976227
-27.193228 -17.295723 4.832672 1.880790849211783e-38 1768976227
-27.193226 -17.295721 4.621861 1.880790849211783e-38 1768976227
-27.193230 -17.295725 3.297714 1.880790849211783e-38 1768976227
-27.193228 -17.295723 3.086904 1.880790849211783e-38 1768976227
-27.193224 -17.295719 4.443992 1.880790849211783e-38 1768976227
-27.193230 -17.295723 4.259533 1.880790849211783e-38 1768976227
-27.193228 -17.295723 1.716641 1.880790849211783e-38 1768976227
-27.193226 -17.295721 1.558533 1.880790849211783e-38 1768976227
-27.193228 -17.295721 2.849743 1.880790849211783e-38 1768976227
-27.193228 -17.295723 2.704811 1.880790849211783e-38 1768976227
-27.193226 -17.295721 1.341136 1.880790849211783e-38 1768976227
-27.193224 -17.295719 1.189617 1.880790849211783e-38 1768976227
-27.193230 -17.295723 2.500590 1.880790849211783e-38 1768976227
-27.193232 -17.295723 2.296368 1.880790849211783e-38 1768976227
-27.193228 -17.295723 0.972220 1.880790849211783e-38 1768976227
-27.193226 -17.295721 0.814112 1.880790849211783e-38 1768976227
-27.193228 -17.295723 2.131673 1.880790849211783e-38 1768976227
-27.193230 -17.295723 1.927451 1.880790849211783e-38 1768976227
-27.193228 -17.295721 -0.575914 1.880790849211783e-38 1768976227
-27.193228 -17.295723 -0.753785 1.880790849211783e-38 1768976227
-27.193232 -17.295725 0.557188 1.880790849211783e-38 1768976227
-27.193228 -17.295723 0.392493 1.880790849211783e-38 1768976227
-27.193228 -17.295721 -0.951419 1.880790849211783e-38 1768976227
-27.193228 -17.295723 -1.109526 1.880790849211783e-38 1768976227
-27.193228 -17.295723 0.194859 1.880790849211783e-38 1768976227
-27.193230 -17.295723 0.023576 1.880790849211783e-38 1768976227
-27.150080 -17.153488 4.008319 1.880790849211783e-38 1768976227
-27.150078 -17.153488 3.844199 1.880790849211783e-38 1768976227
-27.150078 -17.153488 -0.186579 1.880790849211783e-38 1768976227
-27.150085 -17.153492 -0.370394 1.880790849211783e-38 1768976227
-27.150078 -17.153486 3.653820 1.880790849211783e-38 1768976227
-27.150080 -17.153488 3.430618 1.880790849211783e-38 1768976227
-27.150080 -17.153490 4.815788 1.880790849211783e-38 1768976227
-27.150082 -17.153490 4.605714 1.880790849211783e-38 1768976227
-27.150082 -17.153490 3.286193 1.880790849211783e-38 1768976227
-27.150080 -17.153488 3.076119 1.880790849211783e-38 1768976227
-27.150080 -17.153488 4.428466 1.880790849211783e-38 1768976227
-27.150080 -17.153490 4.244651 1.880790849211783e-38 1768976227
-27.150082 -17.153492 1.710644 1.880790849211783e-38 1768976227
-27.150085 -17.153494 1.553089 1.880790849211783e-38 1768976227
-27.150082 -17.153488 2.839787 1.880790849211783e-38 1768976227
-27.150082 -17.153490 2.695362 1.880790849211783e-38 1768976227
-27.150082 -17.153488 1.336451 1.880790849211783e-38 1768976227
-27.150084 -17.153492 1.185461 1.880790849211783e-38 1768976227
-27.150084 -17.153490 2.491854 1.880790849211783e-38 1768976227
-27.150085 -17.153492 2.288345 1.880790849211783e-38 1768976227
-27.150082 -17.153492 0.968823 1.880790849211783e-38 1768976227
-27.150085 -17.153494 0.811268 1.880790849211783e-38 1768976227
-27.150084 -17.153492 2.124226 1.880790849211783e-38 1768976227
-27.150080 -17.153490 1.920717 1.880790849211783e-38 1768976227
-27.150082 -17.153490 -0.573902 1.880790849211783e-38 1768976227
-27.150080 -17.153488 -0.751151 1.880790849211783e-38 1768976227
-27.150082 -17.153490 0.555241 1.880790849211783e-38 1768976227
-27.150084 -17.153492 0.391122 1.880790849211783e-38 1768976227
-27.150082 -17.153490 -0.948095 1.880790849211783e-38 1768976227
-27.150082 -17.153492 -1.105650 1.880790849211783e-38 1768976227
-27.150082 -17.153490 0.194178 1.880790849211783e-38 1768976227
-27.150082 -17.153490 0.023493 1.880790849211783e-38 1768976227
-27.107231 -17.012245 3.994400 1.880790849211783e-38 1768976227
-27.107235 -17.012247 3.830851 1.880790849211783e-38 1768976227
-27.107231 -17.012243 -0.185931 1.880790849211783e-38 1768976227
-27.107235 -17.012247 -0.369108 1.880790849211783e-38 1768976227
-27.107233 -17.012245 3.641132 1.880790849211783e-38 1768976227
-27.107239 -17.012249 3.418705 1.880790849211783e-38 1768976227
-27.107233 -17.012245 4.799065 1.880790849211783e-38 1768976227
-27.107235 -17.012247 4.589721 1.880790849211783e-38 1768976227
-27.107237 -17.012249 3.274782 1.880790849211783e-38 1768976227
-27.107235 -17.012249 3.065438 1.880790849211783e-38 1768976227
-27.107235 -17.012247 4.413089 1.880790849211783e-38 1768976227
-27.107235 -17.012249 4.229912 1.880790849211783e-38 1768976227
-27.107231 -17.012245 1.704703 1.880790849211783e-38 1768976227
-27.107233 -17.012247 1.547695 1.880790849211783e-38 1768976227
-27.107231 -17.012245 2.829925 1.880790849211783e-38 1768976227
-27.107235 -17.012247 2.686002 1.880790849211783e-38 1768976227
-27.107235 -17.012245 1.331810 1.880790849211783e-38 1768976227
-27.107237 -17.012249 1.181344 1.880790849211783e-38 1768976227
-27.107237 -17.012249 2.483201 1.880790849211783e-38 1768976227
-27.107233 -17.012245 2.280398 1.880790849211783e-38 1768976227
-27.107233 -17.012245 0.965458 1.880790849211783e-38 1768976227
-27.107231 -17.012245 0.808451 1.880790849211783e-38 1768976227
-27.107237 -17.012247 2.116849 1.880790849211783e-38 1768976227
-27.107231 -17.012245 1.914047 1.880790849211783e-38 1768976227
-27.107235 -17.012245 -0.571909 1.880790849211783e-38 1768976227
-27.107237 -17.012247 -0.748543 1.880790849211783e-38 1768976227
-27.107237 -17.012247 0.553313 1.880790849211783e-38 1768976227
-27.107233 -17.012243 0.389764 1.880790849211783e-38 1768976227
-27.107239 -17.012249 -0.944803 1.880790849211783e-38 1768976227
-27.107233 -17.012245 -1.101810 1.880790849211783e-38 1768976227
-27.107235 -17.012245 0.193504 1.880790849211783e-38 1768976227
-27.107231 -17.012245 0.023412 1.880790849211783e-38 1768976227
-27.087269 -16.886059 3.983935 1.880790849211783e-38 1768976227
-27.087267 -16.886057 3.820814 1.880790849211783e-38 1768976227
-27.087267 -16.886057 -0.185444 1.880790849211783e-38 1768976227
-27.087269 -16.886059 -0.368140 1.880790849211783e-38 1768976227
-27.087269 -16.886057 3.631593 1.880790849211783e-38 1768976227
-27.087271 -16.886059 3.409748 1.880790849211783e-38 1768976227
-27.087269 -16.886057 4.786492 1.880790849211783e-38 1768976227
-27.087267 -16.886057 4.577696 1.880790849211783e-38 1768976227
-27.087265 -16.886057 3.266202 1.880790849211783e-38 1768976227
-27.087267 -16.886057 3.057406 1.880790849211783e-38 1768976227
-27.087271 -16.886061 4.401527 1.880790849211783e-38 1768976227
-27.087271 -16.886059 4.218831 1.880790849211783e-38 1768976227
-27.087267 -16.886057 1.700237 1.880790849211783e-38 1768976227
-27.087267 -16.886059 1.543641 1.880790849211783e-38 1768976227
-27.087269 -16.886059 2.822512 1.880790849211783e-38 1768976227
-27.087269 -16.886059 2.678965 1.880790849211783e-38 1768976227
-27.087271 -16.886059 1.328321 1.880790849211783e-38 1768976227
-27.087269 -16.886059 1.178249 1.880790849211783e-38 1768976227
-27.087273 -16.886063 2.476695 1.880790849211783e-38 1768976227
-27.087273 -16.886063 2.274425 1.880790849211783e-38 1768976227
-27.087271 -16.886059 0.962929 1.880790849211783e-38 1768976227
-27.087271 -16.886061 0.806333 1.880790849211783e-38 1768976227
-27.087269 -16.886057 2.111303 1.880790849211783e-38 1768976227
-27.087267 -16.886059 1.909032 1.880790849211783e-38 1768976227
-27.087273 -16.886061 -0.570411 1.880790849211783e-38 1768976227
-27.087269 -16.886059 -0.746582 1.880790849211783e-38 1768976227
-27.087271 -16.886061 0.551864 1.880790849211783e-38 1768976227
-27.087269 -16.886059 0.388743 1.880790849211783e-38 1768976227
-27.087269 -16.886059 -0.942327 1.880790849211783e-38 1768976227
-27.087267 -16.886059 -1.098924 1.880790849211783e-38 1768976227
-27.087269 -16.886059 0.192997 1.880790849211783e-38 1768976227
-27.087267 -16.886057 0.023351 1.880790849211783e-38 1768976227
-27.087269 -16.886059 4.992126 1.880790849211783e-38 1768976227
-27.075390 -16.765474 3.974733 1.880790849211783e-38 1768976227
-27.075392 -16.765474 3.811989 1.880790849211783e-38 1768976227
-27.075392 -16.765474 -0.185016 1.880790849211783e-38 1768976227
-27.075388 -16.765472 -0.367290 1.880790849211783e-38 1768976227
-27.075390 -16.765472 3.623205 1.880790849211783e-38 1768976227
-27.075388 -16.765472 3.401872 1.880790849211783e-38 1768976227
-27.075390 -16.765472 4.775437 1.880790849211783e-38 1768976227
-27.075392 -16.765472 4.567123 1.880790849211783e-38 1768976227
-27.075394 -16.765476 3.258658 1.880790849211783e-38 1768976227
-27.075394 -16.765474 3.050345 1.880790849211783e-38 1768976227
-27.075394 -16.765474 4.391360 1.880790849211783e-38 1768976227
-27.075390 -16.765472 4.209086 1.880790849211783e-38 1768976227
-27.075394 -16.765476 1.696310 1.880790849211783e-38 1768976227
-27.075396 -16.765476 1.540076 1.880790849211783e-38 1768976227
-27.075396 -16.765476 2.815993 1.880790849211783e-38 1768976227
-27.075394 -16.765474 2.672778 1.880790849211783e-38 1768976227
-27.075394 -16.765474 1.325253 1.880790849211783e-38 1768976227
-27.075392 -16.765472 1.175528 1.880790849211783e-38 1768976227
-27.075396 -16.765476 2.470975 1.880790849211783e-38 1768976227
-27.075390 -16.765472 2.269171 1.880790849211783e-38 1768976227
-27.075392 -16.765474 0.960705 1.880790849211783e-38 1768976227
-27.075392 -16.765474 0.804470 1.880790849211783e-38 1768976227
-27.075394 -16.765474 2.106426 1.880790849211783e-38 1768976227
-27.075390 -16.765474 1.904623 1.880790849211783e-38 1768976227
-27.075396 -16.765476 -0.569093 1.880790849211783e-38 1768976227
-27.075394 -16.765472 -0.744858 1.880790849211783e-38 1768976227
-27.075392 -16.765472 0.550589 1.880790849211783e-38 1768976227
-27.075394 -16.765474 0.387845 1.880790849211783e-38 1768976227
-27.075390 -16.765474 -0.940151 1.880790849211783e-38 1768976227
-27.075390 -16.765472 -1.096386 1.880790849211783e-38 1768976227
-27.075392 -16.765474 0.192551 1.880790849211783e-38 1768976227
-27.075390 -16.765474 0.023297 1.880790849211783e-38 1768976227
-27.075390 -16.765472 4.980595 1.880790849211783e-38 1768976227
-27.063572 -16.645443 3.965610 1.880790849211783e-38 1768976227
-27.063572 -16.645445 3.803240 1.880790849211783e-38 1768976227
-27.063568 -16.645441 -0.184591 1.880790849211783e-38 1768976227
-27.063570 -16.645443 -0.366447 1.880790849211783e-38 1768976227
-27.063568 -16.645443 3.614889 1.880790849211783e-38 1768976227
-27.063572 -16.645443 3.394064 1.880790849211783e-38 1768976227
-27.063572 -16.645445 4.764476 1.880790849211783e-38 1768976227
-27.063574 -16.645445 4.556641 1.880790849211783e-38 1768976227
-27.063572 -16.645443 3.251178 1.880790849211783e-38 1768976227
-27.063568 -16.645443 3.043343 1.880790849211783e-38 1768976227
-27.063570 -16.645443 4.381280 1.880790849211783e-38 1768976227
-27.063570 -16.645443 4.199425 1.880790849211783e-38 1768976227
-27.063568 -16.645441 1.692417 1.880790849211783e-38 1768976227
-27.063572 -16.645443 1.536540 1.880790849211783e-38 1768976227
-27.063572 -16.645443 2.809529 1.880790849211783e-38 1768976227
-27.063568 -16.645441 2.666642 1.880790849211783e-38 1768976227
-27.063570 -16.645443 1.322211 1.880790849211783e-38 1768976227
-27.063564 -16.645439 1.172829 1.880790849211783e-38 1768976227
-27.063570 -16.645443 2.465303 1.880790849211783e-38 1768976227
-27.063570 -16.645443 2.263962 1.880790849211783e-38 1768976227
-27.063568 -16.645441 0.958500 1.880790849211783e-38 1768976227
-27.063570 -16.645443 0.802624 1.880790849211783e-38 1768976227
-27.063570 -16.645443 2.101591 1.880790849211783e-38 1768976227
-27.063568 -16.645441 1.900251 1.880790849211783e-38 1768976227
-27.063570 -16.645443 -0.567787 1.880790849211783e-38 1768976227
-27.063570 -16.645443 -0.743148 1.880790849211783e-38 1768976227
-27.063574 -16.645447 0.549325 1.880790849211783e-38 1768976227
-27.063566 -16.645441 0.386954 1.880790849211783e-38 1768976227
-27.063568 -16.645443 -0.937993 1.880790849211783e-38 1768976227
-27.063568 -16.645443 -1.093869 1.880790849211783e-38 1768976227
-27.063568 -16.645441 0.192109 1.880790849211783e-38 1768976227
-27.063572 -16.645445 0.023243 1.880790849211783e-38 1768976227
-27.063568 -16.645443 4.969163 1.880790849211783e-38 1768976227
-27.051804 -16.525982 3.956566 1.880790849211783e-38 1768976227
-27.051800 -16.525978 3.794565 1.880790849211783e-38 1768976227
-27.051802 -16.525980 -0.184170 1.880790849211783e-38 1768976227
-27.051805 -16.525982 -0.365611 1.880790849211783e-38 1768976227
-27.051805 -16.525984 3.606645 1.880790849211783e-38 1768976227
-27.051804 -16.525980 3.386323 1.880790849211783e-38 1768976227
-27.051798 -16.525976 4.753608 1.880790849211783e-38 1768976227
-27.051805 -16.525980 4.546248 1.880790849211783e-38 1768976227
-27.051805 -16.525982 3.243763 1.880790849211783e-38 1768976227
-27.051804 -16.525980 3.036402 1.880790849211783e-38 1768976227
-27.051805 -16.525980 4.371288 1.880790849211783e-38 1768976227
-27.051802 -16.525978 4.189847 1.880790849211783e-38 1768976227
-27.051802 -16.525978 1.688557 1.880790849211783e-38 1768976227
-27.051805 -16.525982 1.533036 1.880790849211783e-38 1768976227
-27.051802 -16.525980 2.803121 1.880790849211783e-38 1768976227
-27.051802 -16.525978 2.660560 1.880790849211783e-38 1768976227
-27.051804 -16.525980 1.319196 1.880790849211783e-38 1768976227
-27.051802 -16.525980 1.170155 1.880790849211783e-38 1768976227
-27.051802 -16.525978 2.459680 1.880790849211783e-38 1768976227
-27.051804 -16.525978 2.258799 1.880790849211783e-38 1768976227
-27.051804 -16.525980 0.956314 1.880790849211783e-38 1768976227
-27.051802 -16.525978 0.800793 1.880790849211783e-38 1768976227
-27.051802 -16.525978 2.096798 1.880790849211783e-38 1768976227
-27.051804 -16.525980 1.895917 1.880790849211783e-38 1768976227
-27.051804 -16.525980 -0.566492 1.880790849211783e-38 1768976227
-27.051804 -16.525980 -0.741453 1.880790849211783e-38 1768976227
-27.051805 -16.525984 0.548073 1.880790849211783e-38 1768976227
-27.051804 -16.525980 0.386072 1.880790849211783e-38 1768976227
-27.051804 -16.525982 -0.935854 1.880790849211783e-38 1768976227
-27.051804 -16.525982 -1.091374 1.880790849211783e-38 1768976227
-27.051805 -16.525982 0.191671 1.880790849211783e-38 1768976227
-27.051804 -16.525978 0.023190 1.880790849211783e-38 1768976227
-27.051802 -16.525978 4.957830 1.880790849211783e-38 1768976227
-27.040092 -16.407043 3.947598 1.880790849211783e-38 1768976227
-27.040092 -16.407042 3.785964 1.880790849211783e-38 1768976227
-27.040089 -16.407042 -0.183753 1.880790849211783e-38 1768976227
-27.040092 -16.407043 -0.364783 1.880790849211783e-38 1768976227
-27.040094 -16.407043 3.598469 1.880790849211783e-38 1768976227
-27.040087 -16.407040 3.378647 1.880790849211783e-38 1768976227
-27.040092 -16.407043 4.742835 1.880790849211783e-38 1768976227
-27.040092 -16.407043 4.535944 1.880790849211783e-38 1768976227
-27.040092 -16.407043 3.236411 1.880790849211783e-38 1768976227
-27.040091 -16.407042 3.029520 1.880790849211783e-38 1768976227
-27.040091 -16.407043 4.361380 1.880790849211783e-38 1768976227
-27.040089 -16.407040 4.180349 1.880790849211783e-38 1768976227
-27.040092 -16.407043 1.684729 1.880790849211783e-38 1768976227
-27.040092 -16.407045 1.529561 1.880790849211783e-38 1768976227
-27.040092 -16.407043 2.796767 1.880790849211783e-38 1768976227
-27.040092 -16.407043 2.654530 1.880790849211783e-38 1768976227
-27.040092 -16.407045 1.316205 1.880790849211783e-38 1768976227
-27.040092 -16.407042 1.167503 1.880790849211783e-38 1768976227
-27.040091 -16.407042 2.454105 1.880790849211783e-38 1768976227
-27.040092 -16.407043 2.253679 1.880790849211783e-38 1768976227
-27.040091 -16.407042 0.954146 1.880790849211783e-38 1768976227
-27.040092 -16.407042 0.798978 1.880790849211783e-38 1768976227
-27.040094 -16.407043 2.092046 1.880790849211783e-38 1768976227
-27.040089 -16.407040 1.891620 1.880790849211783e-38 1768976227
-27.040089 -16.407042 -0.565208 1.880790849211783e-38 1768976227
-27.040091 -16.407042 -0.739772 1.880790849211783e-38 1768976227
-27.040092 -16.407043 0.546830 1.880790849211783e-38 1768976227
-27.040092 -16.407042 0.385197 1.880790849211783e-38 1768976227
-27.040089 -16.407042 -0.933732 1.880790849211783e-38 1768976227
-27.040089 -16.407040 -1.088900 1.880790849211783e-38 1768976227
-27.040091 -16.407043 0.191237 1.880790849211783e-38 1768976227
-27.040089 -16.407040 0.023138 1.880790849211783e-38 1768976227
-27.040094 -16.407043 4.946592 1.880790849211783e-38 1768976227
-27.028429 -16.288639 3.938705 1.880790849211783e-38 1768976227
-27.028423 -16.288637 3.777435 1.880790849211783e-38 1768976227
-27.028431 -16.288641 -0.183339 1.880790849211783e-38 1768976227
-27.028429 -16.288639 -0.363961 1.880790849211783e-38 1768976227
-27.028427 -16.288639 3.590363 1.880790849211783e-38 1768976227
-27.028423 -16.288637 3.371036 1.880790849211783e-38 1768976227
-27.028429 -16.288641 4.732150 1.880790849211783e-38 1768976227
-27.028431 -16.288641 4.525725 1.880790849211783e-38 1768976227
-27.028429 -16.288639 3.229120 1.880790849211783e-38 1768976227
-27.028427 -16.288641 3.022695 1.880790849211783e-38 1768976227
-27.028427 -16.288639 4.351554 1.880790849211783e-38 1768976227
-27.028429 -16.288637 4.170932 1.880790849211783e-38 1768976227
-27.028431 -16.288643 1.680934 1.880790849211783e-38 1768976227
-27.028427 -16.288637 1.526115 1.880790849211783e-38 1768976227
-27.028425 -16.288639 2.790467 1.880790849211783e-38 1768976227
-27.028427 -16.288637 2.648550 1.880790849211783e-38 1768976227
-27.028425 -16.288637 1.313240 1.880790849211783e-38 1768976227
-27.028425 -16.288637 1.164872 1.880790849211783e-38 1768976227
-27.028427 -16.288637 2.448576 1.880790849211783e-38 1768976227
-27.028425 -16.288637 2.248602 1.880790849211783e-38 1768976227
-27.028423 -16.288637 0.951997 1.880790849211783e-38 1768976227
-27.028429 -16.288639 0.797178 1.880790849211783e-38 1768976227
-27.028431 -16.288641 2.087333 1.880790849211783e-38 1768976227
-27.028427 -16.288639 1.887359 1.880790849211783e-38 1768976227
-27.028429 -16.288639 -0.563935 1.880790849211783e-38 1768976227
-27.028431 -16.288641 -0.738106 1.880790849211783e-38 1768976227
-27.028431 -16.288641 0.545598 1.880790849211783e-38 1768976227
-27.028429 -16.288641 0.384329 1.880790849211783e-38 1768976227
-27.028427 -16.288641 -0.931629 1.880790849211783e-38 1768976227
-27.028427 -16.288637 -1.086447 1.880790849211783e-38 1768976227
-27.028425 -16.288635 0.190806 1.880790849211783e-38 1768976227
-27.028431 -16.288641 0.023085 1.880790849211783e-38 1768976227
-27.028427 -16.288639 4.935449 1.880790849211783e-38 1768976227
-27.016819 -16.170769 3.929888 1.880790849211783e-38 1768976227
-27.016819 -16.170769 3.768980 1.880790849211783e-38 1768976227
-27.016821 -16.170771 -0.182929 1.880790849211783e-38 1768976227
-27.016815 -16.170767 -0.363146 1.880790849211783e-38 1768976227
-27.016815 -16.170765 3.582325 1.880790849211783e-38 1768976227
-27.016821 -16.170771 3.363491 1.880790849211783e-38 1768976227
-27.016819 -16.170769 4.721557 1.880790849211783e-38 1768976227
-27.016819 -16.170769 4.515594 1.880790849211783e-38 1768976227
-27.016821 -16.170769 3.221892 1.880790849211783e-38 1768976227
-27.016817 -16.170767 3.015929 1.880790849211783e-38 1768976227
-27.016817 -16.170767 4.341814 1.880790849211783e-38 1768976227
-27.016815 -16.170767 4.161595 1.880790849211783e-38 1768976227
-27.016817 -16.170767 1.677171 1.880790849211783e-38 1768976227
-27.016821 -16.170769 1.522699 1.880790849211783e-38 1768976227
-27.016817 -16.170769 2.784220 1.880790849211783e-38 1768976227
-27.016817 -16.170767 2.642621 1.880790849211783e-38 1768976227
-27.016817 -16.170769 1.310301 1.880790849211783e-38 1768976227
-27.016819 -16.170769 1.162265 1.880790849211783e-38 1768976227
-27.016819 -16.170769 2.443095 1.880790849211783e-38 1768976227
-27.016819 -16.170767 2.243569 1.880790849211783e-38 1768976227
-27.016819 -16.170769 0.949866 1.880790849211783e-38 1768976227
-27.016819 -16.170769 0.795394 1.880790849211783e-38 1768976227
-27.016817 -16.170767 2.082660 1.880790849211783e-38 1768976227
-27.016819 -16.170769 1.883134 1.880790849211783e-38 1768976227
-27.016817 -16.170767 -0.562672 1.880790849211783e-38 1768976227
-27.016817 -16.170767 -0.736453 1.880790849211783e-38 1768976227
-27.016821 -16.170767 0.544377 1.880790849211783e-38 1768976227
-27.016817 -16.170767 0.383469 1.880790849211783e-38 1768976227
-27.016823 -16.170771 -0.929543 1.880790849211783e-38 1768976227
-27.016817 -16.170767 -1.084015 1.880790849211783e-38 1768976227
-27.016819 -16.170767 0.190379 1.880790849211783e-38 1768976227
-27.016819 -16.170769 0.023034 1.880790849211783e-38 1768976227
-27.016819 -16.170769 4.924400 1.880790849211783e-38 1768976227
-27.005259 -16.053421 3.921146 1.880790849211783e-38 1768976227
-27.005262 -16.053423 3.760596 1.880790849211783e-38 1768976227
-27.005262 -16.053423 -0.182522 1.880790849211783e-38 1768976227
-27.005260 -16.053423 -0.362338 1.880790849211783e-38 1768976227
-27.005264 -16.053423 3.574358 1.880790849211783e-38 1768976227
-27.005259 -16.053421 3.356008 1.880790849211783e-38 1768976227
-27.005266 -16.053427 4.711055 1.880790849211783e-38 1768976227
-27.005260 -16.053421 4.505549 1.880790849211783e-38 1768976227
-27.005260 -16.053421 3.214725 1.880790849211783e-38 1768976227
-27.005262 -16.053423 3.009220 1.880790849211783e-38 1768976227
-27.005262 -16.053425 4.332156 1.880790849211783e-38 1768976227
-27.005259 -16.053421 4.152338 1.880790849211783e-38 1768976227
-27.005262 -16.053425 1.673441 1.880790849211783e-38 1768976227
-27.005260 -16.053423 1.519312 1.880790849211783e-38 1768976227
-27.005264 -16.053425 2.778027 1.880790849211783e-38 1768976227
-27.005262 -16.053425 2.636743 1.880790849211783e-38 1768976227
-27.005264 -16.053423 1.307386 1.880790849211783e-38 1768976227
-27.005262 -16.053423 1.159680 1.880790849211783e-38 1768976227
-27.005262 -16.053423 2.437661 1.880790849211783e-38 1768976227
-27.005260 -16.053423 2.238578 1.880790849211783e-38 1768976227
-27.005260 -16.053425 0.947753 1.880790849211783e-38 1768976227
-27.005262 -16.053423 0.793625 1.880790849211783e-38 1768976227
-27.005260 -16.053423 2.078028 1.880790849211783e-38 1768976227
-27.005259 -16.053421 1.878945 1.880790849211783e-38 1768976227
-27.005259 -16.053421 -0.561421 1.880790849211783e-38 1768976227
-27.005260 -16.053423 -0.734815 1.880790849211783e-38 1768976227
-27.005266 -16.053427 0.543166 1.880790849211783e-38 1768976227
-27.005259 -16.053421 0.382616 1.880790849211783e-38 1768976227
-27.005260 -16.053421 -0.927476 1.880790849211783e-38 1768976227
-27.005260 -16.053423 -1.081604 1.880790849211783e-38 1768976227
-27.005260 -16.053421 0.189955 1.880790849211783e-38 1768976227
-27.005262 -16.053425 0.022983 1.880790849211783e-38 1768976227
-27.005259 -16.053423 4.913446 1.880790849211783e-38 1768976227
-27.005556 -15.943565 3.914189 1.880790849211783e-38 1768976227
-27.005556 -15.943564 3.753924 1.880790849211783e-38 1768976227
-27.005558 -15.943564 -0.182198 1.880790849211783e-38 1768976227
-27.005554 -15.943563 -0.361696 1.880790849211783e-38 1768976227
-27.005556 -15.943564 3.568016 1.880790849211783e-38 1768976227
-27.005560 -15.943567 3.350055 1.880790849211783e-38 1768976227
-27.005554 -15.943562 4.702695 1.880790849211783e-38 1768976227
-27.005560 -15.943566 4.497556 1.880790849211783e-38 1768976227
-27.005558 -15.943565 3.209021 1.880790849211783e-38 1768976227
-27.005556 -15.943565 3.003881 1.880790849211783e-38 1768976227
-27.005558 -15.943566 4.324469 1.880790849211783e-38 1768976227
-27.005560 -15.943566 4.144972 1.880790849211783e-38 1768976227
-27.005558 -15.943565 1.670472 1.880790849211783e-38 1768976227
-27.005558 -15.943565 1.516617 1.880790849211783e-38 1768976227
-27.005558 -15.943564 2.773098 1.880790849211783e-38 1768976227
-27.005562 -15.943567 2.632065 1.880790849211783e-38 1768976227
-27.005558 -15.943565 1.305066 1.880790849211783e-38 1768976227
-27.005558 -15.943565 1.157622 1.880790849211783e-38 1768976227
-27.005556 -15.943565 2.433336 1.880790849211783e-38 1768976227
-27.005556 -15.943564 2.234606 1.880790849211783e-38 1768976227
-27.005558 -15.943564 0.946071 1.880790849211783e-38 1768976227
-27.005558 -15.943566 0.792216 1.880790849211783e-38 1768976227
-27.005556 -15.943563 2.074341 1.880790849211783e-38 1768976227
-27.005560 -15.943566 1.875612 1.880790849211783e-38 1768976227
-27.005556 -15.943565 -0.560425 1.880790849211783e-38 1768976227
-27.005558 -15.943567 -0.733512 1.880790849211783e-38 1768976227
-27.005556 -15.943563 0.542202 1.880790849211783e-38 1768976227
-27.005556 -15.943564 0.381937 1.880790849211783e-38 1768976227
-27.005556 -15.943563 -0.925830 1.880790849211783e-38 1768976227
-27.005560 -15.943566 -1.079685 1.880790849211783e-38 1768976227
-27.005560 -15.943567 0.189618 1.880790849211783e-38 1768976227
-27.005558 -15.943565 0.022942 1.880790849211783e-38 1768976227
-27.005556 -15.943564 4.904728 1.880790849211783e-38 1768976227
-27.015768 -15.839910 3.908727 1.880790849211783e-38 1768976227
-27.015766 -15.839909 3.748685 1.880790849211783e-38 1768976227
-27.015768 -15.839910 -0.181944 1.880790849211783e-38 1768976227
-27.015766 -15.839908 -0.361191 1.880790849211783e-38 1768976227
-27.015766 -15.839907 3.563036 1.880790849211783e-38 1768976227
-27.015770 -15.839910 3.345380 1.880790849211783e-38 1768976227
-27.015770 -15.839910 4.696134 1.880790849211783e-38 1768976227
-27.015772 -15.839911 4.491280 1.880790849211783e-38 1768976227
-27.015768 -15.839909 3.204543 1.880790849211783e-38 1768976227
-27.015770 -15.839911 2.999690 1.880790849211783e-38 1768976227
-27.015766 -15.839908 4.318434 1.880790849211783e-38 1768976227
-27.015768 -15.839909 4.139187 1.880790849211783e-38 1768976227
-27.015764 -15.839907 1.668140 1.880790849211783e-38 1768976227
-27.015766 -15.839910 1.514500 1.880790849211783e-38 1768976227
-27.015764 -15.839908 2.769228 1.880790849211783e-38 1768976227
-27.015768 -15.839910 2.628392 1.880790849211783e-38 1768976227
-27.015764 -15.839907 1.303245 1.880790849211783e-38 1768976227
-27.015768 -15.839911 1.156007 1.880790849211783e-38 1768976227
-27.015764 -15.839908 2.429940 1.880790849211783e-38 1768976227
-27.015768 -15.839911 2.231488 1.880790849211783e-38 1768976227
-27.015772 -15.839910 0.944751 1.880790849211783e-38 1768976227
-27.015764 -15.839908 0.791111 1.880790849211783e-38 1768976227
-27.015766 -15.839908 2.071446 1.880790849211783e-38 1768976227
-27.015768 -15.839910 1.872994 1.880790849211783e-38 1768976227
-27.015772 -15.839910 -0.559643 1.880790849211783e-38 1768976227
-27.015766 -15.839909 -0.732488 1.880790849211783e-38 1768976227
