# .PCD v0.7 - Point Cloud Data file format
VERSION 0.7
FIELDS x y z rgb label
SIZE 4 4 4 4 4
TYPE F F F F U
COUNT 1 1 1 1 1
WIDTH 768
HEIGHT 1
VIEWPOINT 0 0 0 1 0 0 0
POINTS 768
DATA ascii
39.206261 -4.812811 4.041933 1.880790849211783e-38 1768976227
38.947918 -4.781098 3.758618 1.880790849211783e-38 1768976227
46.450367 -5.702070 6.453319 1.880790849211783e-38 1768976227
47.751774 -5.861825 6.358757 1.880790849211783e-38 1768976227
31.480574 -3.864435 1.689440 1.880790849211783e-38 1768976227
35.646782 -4.375863 3.175753 1.880790849211783e-38 1768976227
36.290043 -4.454827 3.068635 1.880790849211783e-38 1768976227
31.519604 -3.869226 1.899261 1.880790849211783e-38 1768976227
75.161369 -9.226523 -2.235566 1.880790849211783e-38 1768976227
74.884262 -9.192507 -2.597461 1.880790849211783e-38 1768976227
26.540762 -3.258043 11.140354 1.880790849211783e-38 1768976227
27.117577 -3.328850 11.159075 1.880790849211783e-38 1768976227
27.812284 -3.414130 5.625370 1.880790849211783e-38 1768976227
27.858101 -3.419754 5.342031 1.880790849211783e-38 1768976227
27.488337 -3.374363 11.045567 1.880790849211783e-38 1768976227
27.511984 -3.377266 10.749101 1.880790849211783e-38 1768976227
24.243267 -2.976011 11.334343 1.880790849211783e-38 1768976227
25.943903 -3.184774 11.782127 1.880790849211783e-38 1768976227
29.920712 -3.672952 11.369772 1.880790849211783e-38 1768976227
26.071444 -3.200431 9.568790 1.880790849211783e-38 1768976227
26.464109 -3.248633 11.729509 1.880790849211783e-38 1768976227
26.670504 -3.273969 11.441986 1.880790849211783e-38 1768976227
26.593645 -3.264535 7.892809 1.880790849211783e-38 1768976227
26.209557 -3.217385 7.579093 1.880790849211783e-38 1768976227
26.808626 -3.290925 9.524642 1.880790849211783e-38 1768976227
27.279057 -3.348673 9.517615 1.880790849211783e-38 1768976227
28.993654 -3.559150 8.097558 1.880790849211783e-38 1768976227
32.624382 -4.004844 8.815939 1.880790849211783e-38 1768976227
30.260796 -3.714700 10.289956 1.880790849211783e-38 1768976227
30.584091 -3.754386 10.103847 1.880790849211783e-38 1768976227
33.611591 -4.126030 8.736593 1.880790849211783e-38 1768976227
33.120861 -4.065790 8.213408 1.880790849211783e-38 1768976227
30.896139 -3.792692 9.869694 1.880790849211783e-38 1768976227
30.485123 -3.742237 9.386806 1.880790849211783e-38 1768976227
27.395323 -3.362945 5.033248 1.880790849211783e-38 1768976227
27.395485 -3.362965 4.785027 1.880790849211783e-38 1768976227
31.343929 -3.847661 7.424173 1.880790849211783e-38 1768976227
31.134317 -3.821930 7.182161 1.880790849211783e-38 1768976227
27.159986 -3.334056 4.520149 1.880790849211783e-38 1768976227
33.718018 -4.139095 7.451799 1.880790849211783e-38 1768976227
31.846643 -3.909372 6.802102 1.880790849211783e-38 1768976227
45.268578 -5.695636 5.694592 1.880790849211783e-38 1768976227
46.377041 -5.835102 5.595159 1.880790849211783e-38 1768976227
38.176353 -4.803302 4.377691 1.880790849211783e-38 1768976227
39.081425 -4.917177 4.207713 1.880790849211783e-38 1768976227
45.457226 -5.719372 6.870270 1.880790849211783e-38 1768976227
45.803905 -5.762991 6.620687 1.880790849211783e-38 1768976227
39.221809 -4.934840 4.045052 1.880790849211783e-38 1768976227
39.332771 -4.948802 3.797180 1.880790849211783e-38 1768976227
47.063728 -5.921501 6.540985 1.880790849211783e-38 1768976227
47.293068 -5.950356 6.300036 1.880790849211783e-38 1768976227
36.650059 -4.611266 3.266359 1.880790849211783e-38 1768976227
35.809761 -4.505541 3.029158 1.880790849211783e-38 1768976227
32.487026 -4.087478 1.958288 1.880790849211783e-38 1768976227
75.604591 -9.512478 -2.623430 1.880790849211783e-38 1768976227
26.497486 -3.333881 11.126359 1.880790849211783e-38 1768976227
27.143574 -3.415171 11.173960 1.880790849211783e-38 1768976227
27.719536 -3.487638 5.608712 1.880790849211783e-38 1768976227
27.928564 -3.513938 5.357551 1.880790849211783e-38 1768976227
26.929695 -3.388261 10.825146 1.880790849211783e-38 1768976227
27.604366 -3.473147 10.789238 1.880790849211783e-38 1768976227
23.603056 -2.969707 11.039165 1.880790849211783e-38 1768976227
24.492500 -3.081616 11.127161 1.880790849211783e-38 1768976227
30.003019 -3.774942 11.405324 1.880790849211783e-38 1768976227
25.666996 -3.229390 9.423882 1.880790849211783e-38 1768976227
25.855379 -3.253092 11.464004 1.880790849211783e-38 1768976227
26.731998 -3.363387 11.472668 1.880790849211783e-38 1768976227
27.125582 -3.412907 8.053702 1.880790849211783e-38 1768976227
25.977932 -3.268512 7.514931 1.880790849211783e-38 1768976227
26.868303 -3.380537 9.549423 1.880790849211783e-38 1768976227
27.446859 -3.453330 9.579752 1.880790849211783e-38 1768976227
27.985603 -3.521114 7.818953 1.880790849211783e-38 1768976227
32.601086 -4.101829 8.812947 1.880790849211783e-38 1768976227
29.713253 -3.738485 10.107557 1.880790849211783e-38 1768976227
30.911240 -3.889214 10.215753 1.880790849211783e-38 1768976227
33.470062 -4.211162 8.703067 1.880790849211783e-38 1768976227
33.576019 -4.224493 8.329401 1.880790849211783e-38 1768976227
30.884008 -3.885787 9.869517 1.880790849211783e-38 1768976227
30.465031 -3.833073 9.384136 1.880790849211783e-38 1768976227
27.856817 -3.504910 5.119956 1.880790849211783e-38 1768976227
27.644566 -3.478205 4.830342 1.880790849211783e-38 1768976227
31.394175 -3.949976 7.438862 1.880790849211783e-38 1768976227
31.541452 -3.968507 7.278808 1.880790849211783e-38 1768976227
27.686586 -3.483492 4.609517 1.880790849211783e-38 1768976227
44.949856 -5.655536 7.085448 1.880790849211783e-38 1768976227
33.325405 -4.192962 7.367792 1.880790849211783e-38 1768976227
32.120663 -4.041382 6.863203 1.880790849211783e-38 1768976227
48.084476 -6.197298 6.051143 1.880790849211783e-38 1768976227
48.051739 -6.193079 5.799430 1.880790849211783e-38 1768976227
38.090260 -4.909209 4.369497 1.880790849211783e-38 1768976227
38.565235 -4.970425 4.153733 1.880790849211783e-38 1768976227
45.610363 -5.878426 6.896062 1.880790849211783e-38 1768976227
46.988655 -6.056065 6.794544 1.880790849211783e-38 1768976227
38.898674 -5.013400 4.013268 1.880790849211783e-38 1768976227
47.033855 -6.061890 6.539343 1.880790849211783e-38 1768976227
46.882477 -6.042380 6.247739 1.880790849211783e-38 1768976227
36.056686 -4.647115 3.051217 1.880790849211783e-38 1768976227
26.428188 -3.406159 11.101523 1.880790849211783e-38 1768976227
27.083321 -3.490594 11.153439 1.880790849211783e-38 1768976227
27.916204 -3.597940 5.650675 1.880790849211783e-38 1768976227
27.847647 -3.589104 5.344080 1.880790849211783e-38 1768976227
27.247377 -3.511739 10.957055 1.880790849211783e-38 1768976227
27.513515 -3.546040 10.757860 1.880790849211783e-38 1768976227
24.156645 -3.113394 11.302420 1.880790849211783e-38 1768976227
25.832794 -3.329422 11.740577 1.880790849211783e-38 1768976227
29.950068 -3.860071 11.389569 1.880790849211783e-38 1768976227
25.543598 -3.292150 9.382176 1.880790849211783e-38 1768976227
25.923016 -3.341051 11.498409 1.880790849211783e-38 1768976227
26.513987 -3.417217 11.383474 1.880790849211783e-38 1768976227
28.599089 -3.685952 8.494454 1.880790849211783e-38 1768976227
26.482191 -3.413119 7.663746 1.880790849211783e-38 1768976227
26.667658 -3.437022 9.481752 1.880790849211783e-38 1768976227
27.512520 -3.545911 9.606358 1.880790849211783e-38 1768976227
28.655148 -3.693177 8.009093 1.880790849211783e-38 1768976227
32.374920 -4.172595 8.755171 1.880790849211783e-38 1768976227
29.202864 -3.763769 9.937754 1.880790849211783e-38 1768976227
30.818443 -3.971990 10.188997 1.880790849211783e-38 1768976227
33.414604 -4.306593 8.691985 1.880790849211783e-38 1768976227
33.323341 -4.294831 8.269894 1.880790849211783e-38 1768976227
31.440964 -4.052223 10.051362 1.880790849211783e-38 1768976227
30.460299 -3.925832 9.386282 1.880790849211783e-38 1768976227
27.443892 -3.537066 5.046000 1.880790849211783e-38 1768976227
27.254160 -3.512613 4.763956 1.880790849211783e-38 1768976227
31.744631 -4.091361 7.524792 1.880790849211783e-38 1768976227
30.882025 -3.980185 7.129370 1.880790849211783e-38 1768976227
27.136478 -3.497446 4.519666 1.880790849211783e-38 1768976227
45.311672 -5.839929 7.145225 1.880790849211783e-38 1768976227
31.694740 -4.084931 7.009967 1.880790849211783e-38 1768976227
33.586304 -4.328722 7.179122 1.880790849211783e-38 1768976227
48.036411 -6.338445 6.047473 1.880790849211783e-38 1768976227
47.803963 -6.307774 5.771796 1.880790849211783e-38 1768976227
38.604984 -5.093961 4.159650 1.880790849211783e-38 1768976227
46.245262 -6.102102 6.994807 1.880790849211783e-38 1768976227
46.242542 -6.101744 6.689287 1.880790849211783e-38 1768976227
39.105942 -5.160063 4.036239 1.880790849211783e-38 1768976227
47.379208 -6.251727 6.589951 1.880790849211783e-38 1768976227
47.838375 -6.312315 6.377634 1.880790849211783e-38 1768976227
36.212791 -4.778309 3.065633 1.880790849211783e-38 1768976227
26.448582 -3.489913 11.114460 1.880790849211783e-38 1768976227
26.642485 -3.515498 10.976211 1.880790849211783e-38 1768976227
28.460796 -3.755426 5.763176 1.880790849211783e-38 1768976227
28.755386 -3.794298 5.520450 1.880790849211783e-38 1768976227
26.837133 -3.541182 10.796328 1.880790849211783e-38 1768976227
29.492369 -3.891543 11.536134 1.880790849211783e-38 1768976227
24.550426 -3.239450 11.491181 1.880790849211783e-38 1768976227
25.682175 -3.388785 11.676715 1.880790849211783e-38 1768976227
29.336628 -3.870993 11.160676 1.880790849211783e-38 1768976227
25.335150 -3.342994 9.309275 1.880790849211783e-38 1768976227
26.029493 -3.434614 11.550179 1.880790849211783e-38 1768976227
26.226881 -3.460660 11.264640 1.880790849211783e-38 1768976227
29.350368 -3.872806 8.721028 1.880790849211783e-38 1768976227
26.272503 -3.466679 7.606055 1.880790849211783e-38 1768976227
29.379639 -3.876668 10.450112 1.880790849211783e-38 1768976227
27.415775 -3.617535 9.576344 1.880790849211783e-38 1768976227
28.646458 -3.779925 8.009814 1.880790849211783e-38 1768976227
32.384319 -4.273139 8.761158 1.880790849211783e-38 1768976227
28.707857 -3.788026 9.773146 1.880790849211783e-38 1768976227
27.368641 -3.611315 9.052006 1.880790849211783e-38 1768976227
33.673145 -4.443201 8.762683 1.880790849211783e-38 1768976227
34.120735 -4.502260 8.471115 1.880790849211783e-38 1768976227
30.769821 -4.060104 9.840674 1.880790849211783e-38 1768976227
39.901672 -5.265060 12.300461 1.880790849211783e-38 1768976227
27.614491 -3.643756 5.079365 1.880790849211783e-38 1768976227
26.990383 -3.561404 4.719705 1.880790849211783e-38 1768976227
30.886726 -4.075530 7.324314 1.880790849211783e-38 1768976227
30.984028 -4.088368 7.155732 1.880790849211783e-38 1768976227
27.335140 -3.606895 4.554545 1.880790849211783e-38 1768976227
45.081810 -5.948583 7.111774 1.880790849211783e-38 1768976227
31.812706 -4.197714 7.038826 1.880790849211783e-38 1768976227
33.525600 -4.423732 7.168966 1.880790849211783e-38 1768976227
47.998100 -6.480726 6.045083 1.880790849211783e-38 1768976227
48.130905 -6.498658 5.813611 1.880790849211783e-38 1768976227
38.980907 -5.263221 4.201846 1.880790849211783e-38 1768976227
46.817211 -6.321281 7.084168 1.880790849211783e-38 1768976227
47.228764 -6.376850 6.834701 1.880790849211783e-38 1768976227
39.064201 -5.274468 4.033554 1.880790849211783e-38 1768976227
47.386189 -6.398105 6.593576 1.880790849211783e-38 1768976227
47.289032 -6.384987 6.306935 1.880790849211783e-38 1768976227
26.361202 -3.559302 11.082201 1.880790849211783e-38 1768976227
26.695463 -3.604434 11.002465 1.880790849211783e-38 1768976227
28.552692 -3.855198 5.784112 1.880790849211783e-38 1768976227
28.499348 -3.847995 5.473499 1.880790849211783e-38 1768976227
26.775333 -3.615218 10.775805 1.880790849211783e-38 1768976227
29.417242 -3.971930 11.511381 1.880790849211783e-38 1768976227
26.486673 -3.576243 12.402461 1.880790849211783e-38 1768976227
25.443871 -3.435443 11.573025 1.880790849211783e-38 1768976227
29.648716 -4.003183 11.283946 1.880790849211783e-38 1768976227
25.409986 -3.430868 9.340533 1.880790849211783e-38 1768976227
25.768248 -3.479240 11.438859 1.880790849211783e-38 1768976227
26.772543 -3.614841 11.503635 1.880790849211783e-38 1768976227
30.811855 -4.160231 9.158974 1.880790849211783e-38 1768976227
26.490633 -3.576778 7.672293 1.880790849211783e-38 1768976227
26.827772 -3.622298 9.546275 1.880790849211783e-38 1768976227
27.623695 -3.729764 9.652856 1.880790849211783e-38 1768976227
28.217714 -3.809969 7.893111 1.880790849211783e-38 1768976227
32.941875 -4.447827 8.915586 1.880790849211783e-38 1768976227
28.523922 -3.851313 9.714438 1.880790849211783e-38 1768976227
27.207973 -3.673633 9.002489 1.880790849211783e-38 1768976227
33.307396 -4.497180 8.670996 1.880790849211783e-38 1768976227
33.733696 -4.554739 8.378397 1.880790849211783e-38 1768976227
30.732273 -4.149486 9.832623 1.880790849211783e-38 1768976227
46.698025 -6.305189 14.401363 1.880790849211783e-38 1768976227
27.850435 -3.760379 5.124827 1.880790849211783e-38 1768976227
27.515291 -3.715128 4.813430 1.880790849211783e-38 1768976227
31.395763 -4.239071 7.448022 1.880790849211783e-38 1768976227
30.620615 -4.134409 7.074650 1.880790849211783e-38 1768976227
26.737209 -3.610070 4.456712 1.880790849211783e-38 1768976227
46.063305 -6.219489 7.269534 1.880790849211783e-38 1768976227
32.076252 -4.330951 7.099995 1.880790849211783e-38 1768976227
34.150967 -4.611080 7.305632 1.880790849211783e-38 1768976227
48.250908 -6.663098 6.079426 1.880790849211783e-38 1768976227
47.915947 -6.616842 5.790030 1.880790849211783e-38 1768976227
48.291336 -6.668681 5.546401 1.880790849211783e-38 1768976227
48.124786 -6.645682 5.189624 1.880790849211783e-38 1768976227
46.540298 -6.426876 7.045168 1.880790849211783e-38 1768976227
46.533875 -6.425989 6.736914 1.880790849211783e-38 1768976227
38.872238 -5.367973 4.015387 1.880790849211783e-38 1768976227
47.037903 -6.495591 6.547810 1.880790849211783e-38 1768976227
47.516304 -6.561656 6.339858 1.880790849211783e-38 1768976227
26.154110 -3.611692 10.999670 1.880790849211783e-38 1768976227
26.060827 -3.598810 10.745326 1.880790849211783e-38 1768976227
37.955833 -5.241424 7.692138 1.880790849211783e-38 1768976227
28.423018 -3.925011 5.461088 1.880790849211783e-38 1768976227
27.048592 -3.735213 10.890262 1.880790849211783e-38 1768976227
29.049065 -4.011464 11.371991 1.880790849211783e-38 1768976227
26.280518 -3.629148 12.310997 1.880790849211783e-38 1768976227
24.678101 -3.407865 11.229342 1.880790849211783e-38 1768976227
29.929518 -4.133048 11.395509 1.880790849211783e-38 1768976227
28.508854 -3.936865 10.483972 1.880790849211783e-38 1768976227
25.713991 -3.550915 11.419477 1.880790849211783e-38 1768976227
25.666710 -3.544385 11.033023 1.880790849211783e-38 1768976227
31.166780 -4.303905 9.268294 1.880790849211783e-38 1768976227
26.052629 -3.597678 7.548545 1.880790849211783e-38 1768976227
26.404251 -3.646235 9.399442 1.880790849211783e-38 1768976227
27.444736 -3.789918 9.594272 1.880790849211783e-38 1768976227
28.203043 -3.894635 7.892257 1.880790849211783e-38 1768976227
33.294586 -4.597740 9.014757 1.880790849211783e-38 1768976227
28.311668 -3.909635 9.646122 1.880790849211783e-38 1768976227
27.811275 -3.840534 9.205899 1.880790849211783e-38 1768976227
33.925377 -4.684847 8.835514 1.880790849211783e-38 1768976227
32.324017 -4.463711 8.031584 1.880790849211783e-38 1768976227
30.693628 -4.238566 9.824305 1.880790849211783e-38 1768976227
46.813316 -6.464577 14.442866 1.880790849211783e-38 1768976227
28.209415 -3.895514 5.193022 1.880790849211783e-38 1768976227
27.032904 -3.733047 4.730992 1.880790849211783e-38 1768976227
31.221409 -4.311449 7.409711 1.880790849211783e-38 1768976227
30.846394 -4.259662 7.129750 1.880790849211783e-38 1768976227
27.301086 -3.770081 4.552577 1.880790849211783e-38 1768976227
46.082832 -6.363704 7.275612 1.880790849211783e-38 1768976227
32.811230 -4.530992 7.265672 1.880790849211783e-38 1768976227
32.666786 -4.511045 6.991012 1.880790849211783e-38 1768976227
47.714512 -6.735733 6.014374 1.880790849211783e-38 1768976227
47.510208 -6.706892 5.743420 1.880790849211783e-38 1768976227
48.207272 -6.805295 5.539078 1.880790849211783e-38 1768976227
48.140682 -6.795896 5.193526 1.880790849211783e-38 1768976227
46.278488 -6.533013 7.008486 1.880790849211783e-38 1768976227
46.937851 -6.626094 6.798263 1.880790849211783e-38 1768976227
39.139107 -5.525167 4.044657 1.880790849211783e-38 1768976227
47.147366 -6.655671 6.565812 1.880790849211783e-38 1768976227
47.591400 -6.718354 6.352552 1.880790849211783e-38 1768976227
25.828232 -3.646104 10.867190 1.880790849211783e-38 1768976227
25.498232 -3.599519 10.517787 1.880790849211783e-38 1768976227
37.769894 -5.331877 7.657679 1.880790849211783e-38 1768976227
28.308748 -3.996272 5.441423 1.880790849211783e-38 1768976227
26.160730 -3.693042 10.537229 1.880790849211783e-38 1768976227
29.108881 -4.109225 11.400207 1.880790849211783e-38 1768976227
26.175333 -3.695103 12.266889 1.880790849211783e-38 1768976227
24.803617 -3.501462 11.291210 1.880790849211783e-38 1768976227
29.678354 -4.189616 11.304639 1.880790849211783e-38 1768976227
28.177504 -3.977744 10.366484 1.880790849211783e-38 1768976227
25.644966 -3.620232 11.393620 1.880790849211783e-38 1768976227
26.115610 -3.686672 11.230715 1.880790849211783e-38 1768976227
28.624897 -4.040902 8.515981 1.880790849211783e-38 1768976227
26.900373 -3.797455 7.797455 1.880790849211783e-38 1768976227
27.237431 -3.845037 9.700123 1.880790849211783e-38 1768976227
27.997122 -3.952281 9.791500 1.880790849211783e-38 1768976227
28.057911 -3.960862 7.854951 1.880790849211783e-38 1768976227
32.560421 -4.596469 8.819690 1.880790849211783e-38 1768976227
27.679604 -3.907457 9.434743 1.880790849211783e-38 1768976227
27.238596 -3.845201 9.020132 1.880790849211783e-38 1768976227
33.849308 -4.778419 8.819416 1.880790849211783e-38 1768976227
33.372208 -4.711068 8.295523 1.880790849211783e-38 1768976227
30.796125 -4.347409 9.861263 1.880790849211783e-38 1768976227
46.488934 -6.562722 14.348829 1.880790849211783e-38 1768976227
27.829838 -3.928666 5.125305 1.880790849211783e-38 1768976227
27.957628 -3.946705 4.894887 1.880790849211783e-38 1768976227
31.080292 -4.387524 7.379327 1.880790849211783e-38 1768976227
30.621559 -4.322766 7.080764 1.880790849211783e-38 1768976227
40.422714 -5.706369 6.743506 1.880790849211783e-38 1768976227
45.833744 -6.470231 7.239334 1.880790849211783e-38 1768976227
32.921162 -4.647394 7.293085 1.880790849211783e-38 1768976227
32.917526 -4.646882 7.047640 1.880790849211783e-38 1768976227
47.539276 -6.857288 5.994865 1.880790849211783e-38 1768976227
47.629604 -6.870317 5.760332 1.880790849211783e-38 1768976227
48.149162 -6.945261 5.534782 1.880790849211783e-38 1768976227
48.536003 -7.001060 5.238427 1.880790849211783e-38 1768976227
47.071529 -6.789817 7.131654 1.880790849211783e-38 1768976227
46.735069 -6.741285 6.771806 1.880790849211783e-38 1768976227
48.764019 -7.033951 5.041470 1.880790849211783e-38 1768976227
47.697739 -6.880145 6.645317 1.880790849211783e-38 1768976227
46.630516 -6.726204 6.226972 1.880790849211783e-38 1768976227
26.450718 -3.815375 11.133891 1.880790849211783e-38 1768976227
26.263876 -3.788424 10.838271 1.880790849211783e-38 1768976227
39.066502 -5.635135 7.923971 1.880790849211783e-38 1768976227
27.736095 -4.000784 5.333645 1.880790849211783e-38 1768976227
26.641956 -3.842961 10.735681 1.880790849211783e-38 1768976227
29.009487 -4.184464 11.366171 1.880790849211783e-38 1768976227
25.969412 -3.745949 12.175624 1.880790849211783e-38 1768976227
24.722595 -3.566103 11.259171 1.880790849211783e-38 1768976227
29.604977 -4.270360 11.281544 1.880790849211783e-38 1768976227
28.430141 -4.100896 10.463931 1.880790849211783e-38 1768976227
25.402061 -3.664112 11.290560 1.880790849211783e-38 1768976227
26.462549 -3.817082 11.384810 1.880790849211783e-38 1768976227
28.566814 -4.120611 8.502359 1.880790849211783e-38 1768976227
26.651201 -3.844294 7.728555 1.880790849211783e-38 1768976227
27.110811 -3.910590 9.659186 1.880790849211783e-38 1768976227
28.386768 -4.094640 9.932045 1.880790849211783e-38 1768976227
27.462223 -3.961280 7.691495 1.880790849211783e-38 1768976227
33.042351 -4.766183 8.954083 1.880790849211783e-38 1768976227
28.171448 -4.063581 9.606524 1.880790849211783e-38 1768976227
27.139307 -3.914701 8.991121 1.880790849211783e-38 1768976227
33.465820 -4.827266 8.723251 1.880790849211783e-38 1768976227
31.250494 -4.507717 7.771459 1.880790849211783e-38 1768976227
30.536585 -4.404739 9.782365 1.880790849211783e-38 1768976227
47.349354 -6.829892 14.620688 1.880790849211783e-38 1768976227
28.354330 -4.089962 5.224145 1.880790849211783e-38 1768976227
27.140123 -3.914819 4.753802 1.880790849211783e-38 1768976227
30.968266 -4.467008 7.355894 1.880790849211783e-38 1768976227
30.603148 -4.414341 7.079553 1.880790849211783e-38 1768976227
40.241566 -5.804632 6.716176 1.880790849211783e-38 1768976227
45.903763 -6.621373 7.253513 1.880790849211783e-38 1768976227
32.578003 -4.699203 7.220171 1.880790849211783e-38 1768976227
33.092907 -4.773476 7.088239 1.880790849211783e-38 1768976227
47.165504 -6.948647 5.950347 1.880790849211783e-38 1768976227
47.438049 -6.988800 5.739688 1.880790849211783e-38 1768976227
47.982491 -7.069010 5.518049 1.880790849211783e-38 1768976227
48.363956 -7.125210 5.222155 1.880790849211783e-38 1768976227
46.680206 -6.877151 7.075476 1.880790849211783e-38 1768976227
47.109177 -6.940349 6.829015 1.880790849211783e-38 1768976227
48.818275 -7.192142 5.049298 1.880790849211783e-38 1768976227
48.700226 -7.174750 4.715087 1.880790849211783e-38 1768976227
46.642841 -6.871646 6.501205 1.880790849211783e-38 1768976227
47.165474 -6.948642 6.301178 1.880790849211783e-38 1768976227
26.060862 -3.839411 10.974613 1.880790849211783e-38 1768976227
25.964497 -3.825213 10.719439 1.880790849211783e-38 1768976227
37.261414 -5.489529 7.561164 1.880790849211783e-38 1768976227
29.069599 -4.282671 5.592535 1.880790849211783e-38 1768976227
27.945686 -4.117092 11.265985 1.880790849211783e-38 1768976227
28.446714 -4.190906 11.150574 1.880790849211783e-38 1768976227
26.180584 -3.857049 12.280029 1.880790849211783e-38 1768976227
25.050547 -3.690566 11.413544 1.880790849211783e-38 1768976227
29.811689 -4.392001 11.365312 1.880790849211783e-38 1768976227
28.484167 -4.196424 10.488427 1.880790849211783e-38 1768976227
25.308678 -3.728595 11.254001 1.880790849211783e-38 1768976227
25.781151 -3.798203 11.096535 1.880790849211783e-38 1768976227
28.724258 -4.231795 8.552979 1.880790849211783e-38 1768976227
30.811708 -4.539328 8.938986 1.880790849211783e-38 1768976227
26.449301 -3.896637 9.427644 1.880790849211783e-38 1768976227
28.146889 -4.146734 9.852447 1.880790849211783e-38 1768976227
27.650864 -4.073658 7.747735 1.880790849211783e-38 1768976227
32.550125 -4.795440 8.824575 1.880790849211783e-38 1768976227
28.049154 -4.132335 9.569028 1.880790849211783e-38 1768976227
27.906096 -4.111259 9.249220 1.880790849211783e-38 1768976227
33.485367 -4.933224 8.732186 1.880790849211783e-38 1768976227
31.296934 -4.610814 7.786431 1.880790849211783e-38 1768976227
30.785500 -4.535467 9.866443 1.880790849211783e-38 1768976227
48.027950 -7.075707 14.836750 1.880790849211783e-38 1768976227
28.330656 -4.173808 5.222079 1.880790849211783e-38 1768976227
28.012438 -4.126926 4.908752 1.880790849211783e-38 1768976227
29.477129 -4.342711 7.004783 1.880790849211783e-38 1768976227
31.127790 -4.585894 7.204087 1.880790849211783e-38 1768976227
40.801167 -6.011023 6.812566 1.880790849211783e-38 1768976227
45.651871 -6.725652 7.216882 1.880790849211783e-38 1768976227
32.862709 -4.841491 7.286473 1.880790849211783e-38 1768976227
33.073364 -4.872526 7.087168 1.880790849211783e-38 1768976227
47.050747 -7.076785 5.938536 1.880790849211783e-38 1768976227
47.901684 -7.204772 5.798388 1.880790849211783e-38 1768976227
47.665348 -7.169225 5.484038 1.880790849211783e-38 1768976227
48.331367 -7.269400 5.220979 1.880790849211783e-38 1768976227
45.467205 -6.838608 6.894713 1.880790849211783e-38 1768976227
46.791328 -7.037766 6.785985 1.880790849211783e-38 1768976227
48.524139 -7.298395 5.021130 1.880790849211783e-38 1768976227
49.034939 -7.375223 4.749626 1.880790849211783e-38 1768976227
46.468372 -6.989192 6.479796 1.880790849211783e-38 1768976227
47.562832 -7.153806 6.357118 1.880790849211783e-38 1768976227
25.930098 -3.900081 10.924450 1.880790849211783e-38 1768976227
26.137892 -3.931334 10.795871 1.880790849211783e-38 1768976227
37.311424 -5.611918 7.574712 1.880790849211783e-38 1768976227
29.453476 -4.430024 5.668932 1.880790849211783e-38 1768976227
28.135450 -4.231782 11.347580 1.880790849211783e-38 1768976227
29.175863 -4.388268 11.441521 1.880790849211783e-38 1768976227
25.766788 -3.875518 12.091366 1.880790849211783e-38 1768976227
27.048542 -4.068304 12.329406 1.880790849211783e-38 1768976227
29.932209 -4.502028 11.416383 1.880790849211783e-38 1768976227
28.155848 -4.234850 10.372189 1.880790849211783e-38 1768976227
25.598528 -3.850210 11.388000 1.880790849211783e-38 1768976227
26.059084 -3.919482 11.221197 1.880790849211783e-38 1768976227
28.401642 -4.271820 8.460713 1.880790849211783e-38 1768976227
31.192739 -4.691621 9.053593 1.880790849211783e-38 1768976227
26.419748 -3.973728 9.421339 1.880790849211783e-38 1768976227
28.184666 -4.239184 9.870100 1.880790849211783e-38 1768976227
27.732487 -4.171174 7.774094 1.880790849211783e-38 1768976227
32.357559 -4.866819 8.776309 1.880790849211783e-38 1768976227
27.630640 -4.155855 9.430484 1.880790849211783e-38 1768976227
27.340286 -4.112184 9.065758 1.880790849211783e-38 1768976227
33.866013 -5.093702 8.835415 1.880790849211783e-38 1768976227
31.047050 -4.669709 7.727730 1.880790849211783e-38 1768976227
30.474201 -4.583548 9.771059 1.880790849211783e-38 1768976227
30.892876 -4.646519 9.547684 1.880790849211783e-38 1768976227
28.295782 -4.255898 5.217993 1.880790849211783e-38 1768976227
27.933603 -4.201424 4.897136 1.880790849211783e-38 1768976227
31.368231 -4.718017 7.457522 1.880790849211783e-38 1768976227
30.825897 -4.636446 7.137422 1.880790849211783e-38 1768976227
40.167889 -6.041552 6.709839 1.880790849211783e-38 1768976227
45.403625 -6.829045 7.180862 1.880790849211783e-38 1768976227
32.556614 -4.896759 7.221846 1.880790849211783e-38 1768976227
32.778275 -4.930098 7.027089 1.880790849211783e-38 1768976227
46.057240 -7.069469 5.815804 1.880790849211783e-38 1768976227
46.037842 -7.066493 5.575328 1.880790849211783e-38 1768976227
46.556206 -7.146058 5.358884 1.880790849211783e-38 1768976227
46.282379 -7.104027 5.001929 1.880790849211783e-38 1768976227
46.629753 -7.157347 7.074244 1.880790849211783e-38 1768976227
46.504902 -7.138183 6.747537 1.880790849211783e-38 1768976227
45.677055 -7.011115 4.728689 1.880790849211783e-38 1768976227
46.096027 -7.075424 4.467003 1.880790849211783e-38 1768976227
46.011002 -7.062372 6.418959 1.880790849211783e-38 1768976227
46.519989 -7.140498 6.220584 1.880790849211783e-38 1768976227
25.996870 -3.990341 10.957603 1.880790849211783e-38 1768976227
25.917288 -3.978125 10.709661 1.880790849211783e-38 1768976227
37.383049 -5.738041 7.592731 1.880790849211783e-38 1768976227
29.532602 -4.533051 5.686767 1.880790849211783e-38 1768976227
28.199963 -4.328500 11.378813 1.880790849211783e-38 1768976227
28.493288 -4.373523 11.178967 1.880790849211783e-38 1768976227
26.451212 -4.060079 12.418229 1.880790849211783e-38 1768976227
26.758503 -4.107246 12.202790 1.880790849211783e-38 1768976227
29.359188 -4.506433 11.202961 1.880790849211783e-38 1768976227
27.953564 -4.290680 10.302391 1.880790849211783e-38 1768976227
25.407969 -3.899949 11.308407 1.880790849211783e-38 1768976227
25.848679 -3.967594 11.135697 1.880790849211783e-38 1768976227
29.267756 -4.492399 8.722722 1.880790849211783e-38 1768976227
31.479950 -4.831956 9.141143 1.880790849211783e-38 1768976227
26.286140 -4.034742 9.377991 1.880790849211783e-38 1768976227
28.197571 -4.328133 9.879146 1.880790849211783e-38 1768976227
27.213604 -4.177101 7.632135 1.880790849211783e-38 1768976227
33.085518 -5.078399 8.977866 1.880790849211783e-38 1768976227
27.505613 -4.221922 9.392115 1.880790849211783e-38 1768976227
27.510324 -4.222646 9.126322 1.880790849211783e-38 1768976227
31.777546 -4.877635 8.294348 1.880790849211783e-38 1768976227
31.219179 -4.791930 7.774136 1.880790849211783e-38 1768976227
31.045713 -4.765304 9.958869 1.880790849211783e-38 1768976227
30.627542 -4.701117 9.470020 1.880790849211783e-38 1768976227
28.390320 -4.357719 5.237827 1.880790849211783e-38 1768976227
27.526829 -4.225179 4.828035 1.880790849211783e-38 1768976227
31.537048 -4.840720 7.501093 1.880790849211783e-38 1768976227
30.721632 -4.715559 7.116541 1.880790849211783e-38 1768976227
40.374104 -6.197147 6.747378 1.880790849211783e-38 1768976227
41.048927 -6.300728 6.495116 1.880790849211783e-38 1768976227
32.802868 -5.035015 7.279807 1.880790849211783e-38 1768976227
32.832466 -5.039558 7.041933 1.880790849211783e-38 1768976227
46.740406 -7.318683 5.904830 1.880790849211783e-38 1768976227
45.997166 -7.202305 5.573008 1.880790849211783e-38 1768976227
45.923965 -7.190844 5.288582 1.880790849211783e-38 1768976227
46.786999 -7.325978 5.058831 1.880790849211783e-38 1768976227
45.801304 -7.171638 6.951810 1.880790849211783e-38 1768976227
46.370380 -7.260744 6.731166 1.880790849211783e-38 1768976227
46.127441 -7.222705 4.777548 1.880790849211783e-38 1768976227
46.235504 -7.239625 4.482615 1.880790849211783e-38 1768976227
47.083729 -7.372440 6.571685 1.880790849211783e-38 1768976227
46.446537 -7.272668 6.213667 1.880790849211783e-38 1768976227
46.761570 -7.321996 4.185308 1.880790849211783e-38 1768976227
46.326042 -7.253801 3.935454 1.880790849211783e-38 1768976227
46.391068 -7.263983 3.643422 1.880790849211783e-38 1768976227
25.869070 -4.050617 10.908834 1.880790849211783e-38 1768976227
26.331846 -4.123080 10.886056 1.880790849211783e-38 1768976227
37.162498 -5.818959 7.551467 1.880790849211783e-38 1768976227
28.699800 -4.493858 5.528989 1.880790849211783e-38 1768976227
28.315737 -4.433720 11.430872 1.880790849211783e-38 1768976227
28.509449 -4.464052 11.190538 1.880790849211783e-38 1768976227
26.104853 -4.087537 12.261353 1.880790849211783e-38 1768976227
26.755531 -4.189421 12.207141 1.880790849211783e-38 1768976227
29.601572 -4.635057 11.300732 1.880790849211783e-38 1768976227
27.457874 -4.299395 10.124435 1.880790849211783e-38 1768976227
25.449604 -3.984937 11.332234 1.880790849211783e-38 1768976227
25.928364 -4.059902 11.175251 1.880790849211783e-38 1768976227
28.863823 -4.519540 8.606360 1.880790849211783e-38 1768976227
30.758085 -4.816147 8.935705 1.880790849211783e-38 1768976227
25.822523 -4.043329 9.216897 1.880790849211783e-38 1768976227
28.368000 -4.441903 9.943505 1.880790849211783e-38 1768976227
31.093962 -4.868739 8.724471 1.880790849211783e-38 1768976227
32.590073 -5.103002 8.847561 1.880790849211783e-38 1768976227
27.962414 -4.378396 9.552560 1.880790849211783e-38 1768976227
27.124645 -4.247218 9.002584 1.880790849211783e-38 1768976227
30.602537 -4.791791 7.991391 1.880790849211783e-38 1768976227
30.323778 -4.748143 7.554697 1.880790849211783e-38 1768976227
30.451725 -4.768177 9.772897 1.880790849211783e-38 1768976227
30.667294 -4.801931 9.486746 1.880790849211783e-38 1768976227
28.382862 -4.444231 5.238900 1.880790849211783e-38 1768976227
27.706388 -4.338308 4.861802 1.880790849211783e-38 1768976227
31.503475 -4.932861 7.496613 1.880790849211783e-38 1768976227
31.238194 -4.891323 7.239585 1.880790849211783e-38 1768976227
40.352997 -6.318532 6.747005 1.880790849211783e-38 1768976227
41.618046 -6.516616 6.588246 1.880790849211783e-38 1768976227
33.211391 -5.200289 7.373915 1.880790849211783e-38 1768976227
33.558350 -5.254616 7.200987 1.880790849211783e-38 1768976227
46.587856 -7.438818 5.888366 1.880790849211783e-38 1768976227
46.645294 -7.447989 5.654231 1.880790849211783e-38 1768976227
46.338058 -7.398933 5.338814 1.880790849211783e-38 1768976227
46.592739 -7.439598 5.040230 1.880790849211783e-38 1768976227
46.071018 -7.356293 6.996083 1.880790849211783e-38 1768976227
46.774475 -7.468616 6.793064 1.880790849211783e-38 1768976227
46.970860 -7.499974 4.867224 1.880790849211783e-38 1768976227
46.287300 -7.390829 4.489778 1.880790849211783e-38 1768976227
47.030296 -7.509464 6.567359 1.880790849211783e-38 1768976227
46.675667 -7.452840 6.247299 1.880790849211783e-38 1768976227
46.602535 -7.441162 4.173064 1.880790849211783e-38 1768976227
47.031540 -7.509664 3.997293 1.880790849211783e-38 1768976227
46.842930 -7.479547 3.680665 1.880790849211783e-38 1768976227
47.086422 -7.518425 3.397636 1.880790849211783e-38 1768976227
26.059601 -4.161012 10.994422 1.880790849211783e-38 1768976227
26.154253 -4.176125 10.817793 1.880790849211783e-38 1768976227
37.501007 -5.987894 7.623887 1.880790849211783e-38 1768976227
32.476292 -5.185584 6.259510 1.880790849211783e-38 1768976227
25.751595 -4.111832 10.400704 1.880790849211783e-38 1768976227
28.377184 -4.531067 11.143934 1.880790849211783e-38 1768976227
26.187393 -4.181417 12.305989 1.880790849211783e-38 1768976227
26.499249 -4.231212 12.095981 1.880790849211783e-38 1768976227
28.608416 -4.567988 10.926794 1.880790849211783e-38 1768976227
27.188501 -4.341267 10.029893 1.880790849211783e-38 1768976227
27.199356 -4.343000 12.117144 1.880790849211783e-38 1768976227
25.691614 -4.102254 11.078492 1.880790849211783e-38 1768976227
28.811134 -4.600358 8.594748 1.880790849211783e-38 1768976227
30.843781 -4.924916 8.964875 1.880790849211783e-38 1768976227
26.482655 -4.228562 9.457028 1.880790849211783e-38 1768976227
28.394157 -4.533778 9.957421 1.880790849211783e-38 1768976227
31.212656 -4.983815 8.761952 1.880790849211783e-38 1768976227
33.519180 -5.352105 9.104136 1.880790849211783e-38 1768976227
27.511929 -4.392910 9.403149 1.880790849211783e-38 1768976227
27.262558 -4.353092 9.052673 1.880790849211783e-38 1768976227
30.367264 -4.848829 7.933736 1.880790849211783e-38 1768976227
29.843691 -4.765229 7.438637 1.880790849211783e-38 1768976227
30.256300 -4.831111 9.714810 1.880790849211783e-38 1768976227
30.874075 -4.929753 9.555268 1.880790849211783e-38 1768976227
29.209435 -4.663956 5.394040 1.880790849211783e-38 1768976227
27.527340 -4.395370 4.832687 1.880790849211783e-38 1768976227
31.893656 -5.092553 7.593081 1.880790849211783e-38 1768976227
31.026047 -4.954019 7.193849 1.880790849211783e-38 1768976227
34.433403 -5.498082 5.759998 1.880790849211783e-38 1768976227
41.290848 -6.593030 6.539568 1.880790849211783e-38 1768976227
33.379227 -5.329758 7.414715 1.880790849211783e-38 1768976227
33.120945 -5.288517 7.110518 1.880790849211783e-38 1768976227
47.177364 -7.678926 5.965775 1.880790849211783e-38 1768976227
46.728840 -7.605921 5.667113 1.880790849211783e-38 1768976227
46.811775 -7.619421 5.396016 1.880790849211783e-38 1768976227
46.711617 -7.603118 5.055547 1.880790849211783e-38 1768976227
45.740028 -7.444975 6.949199 1.880790849211783e-38 1768976227
46.752758 -7.609814 6.793211 1.880790849211783e-38 1768976227
46.611454 -7.586815 4.832330 1.880790849211783e-38 1768976227
47.008415 -7.651427 4.561942 1.880790849211783e-38 1768976227
47.197163 -7.682148 6.593866 1.880790849211783e-38 1768976227
48.066116 -7.823586 6.436533 1.880790849211783e-38 1768976227
46.288235 -7.534205 4.146935 1.880790849211783e-38 1768976227
47.299767 -7.698850 4.022045 1.880790849211783e-38 1768976227
47.576126 -7.743832 3.740094 1.880790849211783e-38 1768976227
47.125183 -7.670434 3.402087 1.880790849211783e-38 1768976227
46.807026 -7.618648 3.136769 1.880790849211783e-38 1768976227
25.541388 -4.157300 10.781032 1.880790849211783e-38 1768976227
26.323837 -4.284657 10.893231 1.880790849211783e-38 1768976227
37.286568 -6.069029 7.583979 1.880790849211783e-38 1768976227
32.046963 -5.216194 6.179765 1.880790849211783e-38 1768976227
25.475384 -4.146556 10.294150 1.880790849211783e-38 1768976227
28.462183 -4.632709 11.182752 1.880790849211783e-38 1768976227
26.060829 -4.241848 12.252471 1.880790849211783e-38 1768976227
26.304642 -4.281532 12.012988 1.880790849211783e-38 1768976227
29.639282 -4.824302 11.326032 1.880790849211783e-38 1768976227
30.744097 -5.004129 11.347075 1.880790849211783e-38 1768976227
26.864443 -4.372649 11.973763 1.880790849211783e-38 1768976227
25.320015 -4.121267 10.923565 1.880790849211783e-38 1768976227
28.925339 -4.708095 8.633013 1.880790849211783e-38 1768976227
30.151096 -4.907609 8.767806 1.880790849211783e-38 1768976227
26.050591 -4.240180 9.307261 1.880790849211783e-38 1768976227
28.670023 -4.666538 10.059052 1.880790849211783e-38 1768976227
31.785238 -5.173593 8.927026 1.880790849211783e-38 1768976227
30.695761 -4.996262 8.341323 1.880790849211783e-38 1768976227
27.919456 -4.544370 9.547076 1.880790849211783e-38 1768976227
27.152216 -4.419489 9.020418 1.880790849211783e-38 1768976227
30.317423 -4.934681 7.924567 1.880790849211783e-38 1768976227
32.290791 -5.255880 8.052499 1.880790849211783e-38 1768976227
30.178967 -4.912145 9.694693 1.880790849211783e-38 1768976227
30.647242 -4.988365 9.489677 1.880790849211783e-38 1768976227
28.222965 -4.593772 5.214406 1.880790849211783e-38 1768976227
27.116369 -4.413655 4.762852 1.880790849211783e-38 1768976227
32.024544 -5.212544 7.627950 1.880790849211783e-38 1768976227
31.771709 -5.171391 7.370325 1.880790849211783e-38 1768976227
35.098782 -5.712929 5.874156 1.880790849211783e-38 1768976227
41.243523 -6.713091 6.535249 1.880790849211783e-38 1768976227
33.679379 -5.481897 7.485029 1.880790849211783e-38 1768976227
33.542198 -5.459568 7.204457 1.880790849211783e-38 1768976227
47.098663 -7.812001 5.958776 1.880790849211783e-38 1768976227
48.217949 -7.997652 5.850606 1.880790849211783e-38 1768976227
48.122894 -7.981884 5.549899 1.880790849211783e-38 1768976227
46.709122 -7.747390 5.057783 1.880790849211783e-38 1768976227
41.124256 -6.821057 6.251029 1.880790849211783e-38 1768976227
46.555740 -7.721950 6.767939 1.880790849211783e-38 1768976227
47.224106 -7.832808 4.898273 1.880790849211783e-38 1768976227
47.563160 -7.889046 4.618065 1.880790849211783e-38 1768976227
46.676758 -7.742021 6.524393 1.880790849211783e-38 1768976227
47.040573 -7.802366 6.302325 1.880790849211783e-38 1768976227
47.247650 -7.836713 4.234987 1.880790849211783e-38 1768976227
46.965683 -7.789944 3.995616 1.880790849211783e-38 1768976227
47.883247 -7.942137 3.766103 1.880790849211783e-38 1768976227
47.576225 -7.891212 3.436351 1.880790849211783e-38 1768976227
46.864578 -7.773175 3.142182 1.880790849211783e-38 1768976227
25.734772 -4.268487 10.868043 1.880790849211783e-38 1768976227
26.299513 -4.362158 10.888560 1.880790849211783e-38 1768976227
47.548004 -7.886531 9.675919 1.880790849211783e-38 1768976227
32.712173 -5.425792 6.311168 1.880790849211783e-38 1768976227
25.903790 -4.296522 10.472450 1.880790849211783e-38 1768976227
28.881357 -4.790395 11.353069 1.880790849211783e-38 1768976227
25.235338 -4.185649 11.870249 1.880790849211783e-38 1768976227
26.791960 -4.443837 12.241605 1.880790849211783e-38 1768976227
29.405420 -4.877318 11.242236 1.880790849211783e-38 1768976227
30.487413 -5.056782 11.257915 1.880790849211783e-38 1768976227
26.570778 -4.407152 11.848745 1.880790849211783e-38 1768976227
25.382957 -4.210134 10.956148 1.880790849211783e-38 1768976227
31.655411 -5.250512 9.452509 1.880790849211783e-38 1768976227
30.609945 -5.077106 8.905650 1.880790849211783e-38 1768976227
25.999453 -4.312388 9.293595 1.880790849211783e-38 1768976227
28.111526 -4.662707 9.867990 1.880790849211783e-38 1768976227
30.503790 -5.059499 8.571372 1.880790849211783e-38 1768976227
30.834948 -5.114427 8.383299 1.880790849211783e-38 1768976227
27.838760 -4.617465 9.524200 1.880790849211783e-38 1768976227
27.078848 -4.491422 9.000504 1.880790849211783e-38 1768976227
30.271572 -5.020982 7.916504 1.880790849211783e-38 1768976227
32.108223 -5.325618 8.010941 1.880790849211783e-38 1768976227
30.137545 -4.998752 9.686186 1.880790849211783e-38 1768976227
30.440388 -5.048983 9.430301 1.880790849211783e-38 1768976227
29.051121 -4.818552 5.370074 1.880790849211783e-38 1768976227
28.157297 -4.670299 4.948137 1.880790849211783e-38 1768976227
31.541531 -5.231623 7.516624 1.880790849211783e-38 1768976227
31.221634 -5.178564 7.246310 1.880790849211783e-38 1768976227
35.197151 -5.837961 5.893540 1.880790849211783e-38 1768976227
40.177685 -6.664056 6.369518 1.880790849211783e-38 1768976227
33.073376 -5.485702 7.353991 1.880790849211783e-38 1768976227
33.409702 -5.541486 7.179555 1.880790849211783e-38 1768976227
46.955265 -7.933796 5.943634 1.880790849211783e-38 1768976227
47.693924 -8.058604 5.789945 1.880790849211783e-38 1768976227
47.654301 -8.051910 5.498633 1.880790849211783e-38 1768976227
48.240604 -8.150974 5.226254 1.880790849211783e-38 1768976227
41.434612 -7.000999 6.301386 1.880790849211783e-38 1768976227
47.132511 -7.963745 6.855246 1.880790849211783e-38 1768976227
47.391113 -8.007440 4.918077 1.880790849211783e-38 1768976227
47.913326 -8.095675 4.654413 1.880790849211783e-38 1768976227
47.406197 -8.009989 6.629699 1.880790849211783e-38 1768976227
47.339046 -7.998642 6.345516 1.880790849211783e-38 1768976227
47.243950 -7.982574 4.236794 1.880790849211783e-38 1768976227
47.717152 -8.062530 4.061598 1.880790849211783e-38 1768976227
47.862785 -8.087136 3.766395 1.880790849211783e-38 1768976227
48.287937 -8.158973 3.489518 1.880790849211783e-38 1768976227
48.116962 -8.130084 3.227782 1.880790849211783e-38 1768976227
27.076403 -4.574965 11.440402 1.880790849211783e-38 1768976227
26.118481 -4.413109 10.819070 1.880790849211783e-38 1768976227
47.595982 -8.042056 9.690573 1.880790849211783e-38 1768976227
32.427864 -5.479174 6.259476 1.880790849211783e-38 1768976227
26.262007 -4.437360 10.622632 1.880790849211783e-38 1768976227
28.040504 -4.737864 11.028102 1.880790849211783e-38 1768976227
25.665430 -4.336559 12.078652 1.880790849211783e-38 1768976227
26.587187 -4.492304 12.154177 1.880790849211783e-38 1768976227
29.465567 -4.978650 11.270922 1.880790849211783e-38 1768976227
27.310530 -4.614523 10.089898 1.880790849211783e-38 1768976227
27.413794 -4.631971 12.230845 1.880790849211783e-38 1768976227
27.311869 -4.614750 11.794685 1.880790849211783e-38 1768976227
31.874687 -5.385707 9.522794 1.880790849211783e-38 1768976227
30.065559 -5.080027 8.751683 1.880790849211783e-38 1768976227
26.225168 -4.431135 9.379012 1.880790849211783e-38 1768976227
26.100777 -4.410118 9.166783 1.880790849211783e-38 1768976227
31.299078 -5.288448 8.799286 1.880790849211783e-38 1768976227
30.315605 -5.122276 8.246264 1.880790849211783e-38 1768976227
27.557055 -4.656178 9.432585 1.880790849211783e-38 1768976227
27.076866 -4.575042 9.004390 1.880790849211783e-38 1768976227
29.571596 -4.996564 7.737355 1.880790849211783e-38 1768976227
31.738993 -5.362779 7.922817 1.880790849211783e-38 1768976227
30.053026 -5.077909 9.663899 1.880790849211783e-38 1768976227
30.441011 -5.143466 9.435255 1.880790849211783e-38 1768976227
29.306442 -4.951764 5.420006 1.880790849211783e-38 1768976227
28.661764 -4.842836 5.039332 1.880790849211783e-38 1768976227
32.542912 -5.498613 7.759181 1.880790849211783e-38 1768976227
31.620676 -5.342788 7.342631 1.880790849211783e-38 1768976227
34.778973 -5.876429 5.826460 1.880790849211783e-38 1768976227
40.305229 -6.810174 6.392965 1.880790849211783e-38 1768976227
33.055782 -5.585270 7.353792 1.880790849211783e-38 1768976227
33.730885 -5.699339 7.252236 1.880790849211783e-38 1768976227
47.655544 -8.200022 6.035378 1.880790849211783e-38 1768976227
47.750034 -8.216281 5.799738 1.880790849211783e-38 1768976227
47.646175 -8.198410 5.500523 1.880790849211783e-38 1768976227
47.719753 -8.211070 5.172485 1.880790849211783e-38 1768976227
41.463177 -7.134509 6.308973 1.880790849211783e-38 1768976227
46.120228 -7.935842 6.711463 1.880790849211783e-38 1768976227
48.773708 -8.392423 5.064162 1.880790849211783e-38 1768976227
48.345242 -8.318697 4.698786 1.880790849211783e-38 1768976227
46.423241 -7.987981 6.495574 1.880790849211783e-38 1768976227
47.180538 -8.118288 6.327522 1.880790849211783e-38 1768976227
47.635941 -8.196650 4.274145 1.880790849211783e-38 1768976227
47.446243 -8.164007 4.040617 1.880790849211783e-38 1768976227
47.977852 -8.255481 3.777392 1.880790849211783e-38 1768976227
48.368530 -8.322704 3.497141 1.880790849211783e-38 1768976227
47.923298 -8.246094 3.216444 1.880790849211783e-38 1768976227
48.077946 -8.272704 2.917682 1.880790849211783e-38 1768976227
26.844173 -4.619039 11.348114 1.880790849211783e-38 1768976227
25.825727 -4.443796 10.703305 1.880790849211783e-38 1768976227
37.269630 -6.412932 7.592024 1.880790849211783e-38 1768976227
32.533401 -5.597976 6.283078 1.880790849211783e-38 1768976227
25.707113 -4.423386 10.403535 1.880790849211783e-38 1768976227
28.341406 -4.876665 11.152177 1.880790849211783e-38 1768976227
25.253048 -4.345256 11.890691 1.880790849211783e-38 1768976227
26.704483 -4.595003 12.214079 1.880790849211783e-38 1768976227
29.611584 -5.095223 11.332601 1.880790849211783e-38 1768976227
27.098454 -4.662792 10.016697 1.880790849211783e-38 1768976227
27.093971 -4.662021 12.094372 1.880790849211783e-38 1768976227
27.554905 -4.741333 11.905763 1.880790849211783e-38 1768976227
30.088814 -5.177339 8.993875 1.880790849211783e-38 1768976227
30.364307 -5.224743 8.843191 1.880790849211783e-38 1768976227
26.268101 -4.519915 9.399199 1.880790849211783e-38 1768976227
25.721882 -4.425927 9.038360 1.880790849211783e-38 1768976227
31.378511 -5.399255 8.826155 1.880790849211783e-38 1768976227
29.852154 -5.136617 8.124376 1.880790849211783e-38 1768976227
28.018335 -4.821075 9.595411 1.880790849211783e-38 1768976227
27.624166 -4.753251 9.191120 1.880790849211783e-38 1768976227
29.158449 -5.017252 7.633180 1.880790849211783e-38 1768976227
31.822392 -5.475633 7.947722 1.880790849211783e-38 1768976227
30.178379 -5.192750 9.709200 1.880790849211783e-38 1768976227
30.633522 -5.271067 9.499809 1.880790849211783e-38 1768976227
28.821650 -4.959301 5.333089 1.880790849211783e-38 1768976227
34.885208 -6.002648 6.136698 1.880790849211783e-38 1768976227
33.474838 -5.759967 7.985484 1.880790849211783e-38 1768976227
33.531399 -5.769699 7.790324 1.880790849211783e-38 1768976227
35.143909 -6.047162 5.890625 1.880790849211783e-38 1768976227
39.791119 -6.846801 6.314666 1.880790849211783e-38 1768976227
33.124405 -5.699668 7.372848 1.880790849211783e-38 1768976227
33.640514 -5.788475 7.236527 1.880790849211783e-38 1768976227
47.854290 -8.382898 6.063722 1.880790849211783e-38 1768976227
47.569897 -8.333080 5.780885 1.880790849211783e-38 1768976227
47.464687 -8.314650 5.482441 1.880790849211783e-38 1768976227
48.232090 -8.449080 5.230757 1.880790849211783e-38 1768976227
41.317101 -7.237743 6.290040 1.880790849211783e-38 1768976227
41.659275 -7.297685 6.065476 1.880790849211783e-38 1768976227
49.059189 -8.593967 5.096471 1.880790849211783e-38 1768976227
48.017601 -8.411508 4.669386 1.880790849211783e-38 1768976227
46.860352 -8.208786 6.560169 1.880790849211783e-38 1768976227
47.253296 -8.277620 6.340600 1.880790849211783e-38 1768976227
48.803699 -8.549212 4.381216 1.880790849211783e-38 1768976227
48.534744 -8.502098 4.135480 1.880790849211783e-38 1768976227
48.182938 -8.440470 3.485546 1.880790849211783e-38 1768976227
47.726250 -8.360469 3.204896 1.880790849211783e-38 1768976227
48.165413 -8.437400 2.924521 1.880790849211783e-38 1768976227
26.993189 -4.728545 11.417086 1.880790849211783e-38 1768976227
25.707911 -4.503396 10.660057 1.880790849211783e-38 1768976227
47.792931 -8.372149 9.740776 1.880790849211783e-38 1768976227
33.114105 -5.800779 6.398577 1.880790849211783e-38 1768976227
26.192123 -4.588218 10.605368 1.880790849211783e-38 1768976227
28.072994 -4.917700 11.052345 1.880790849211783e-38 1768976227
25.608204 -4.485929 12.064236 1.880790849211783e-38 1768976227
26.457159 -4.634645 12.107295 1.880790849211783e-38 1768976227
29.235312 -5.121309 11.194457 1.880790849211783e-38 1768976227
26.844320 -4.702466 9.927956 1.880790849211783e-38 1768976227
26.601957 -4.660010 11.880963 1.880790849211783e-38 1768976227
27.278442 -4.778514 11.792482 1.880790849211783e-38 1768976227
31.238201 -5.472167 9.342330 1.880790849211783e-38 1768976227
30.258396 -5.300529 8.816962 1.880790849211783e-38 1768976227
