# .PCD v0.7 - Point Cloud Data file format
VERSION 0.7
FIELDS x y z rgb label
SIZE 4 4 4 4 4
TYPE F F F F U
COUNT 1 1 1 1 1
WIDTH 753
HEIGHT 1
VIEWPOINT 0 0 0 1 0 0 0
POINTS 753
DATA ascii
31.529352 -51.786606 8.013458 1.880790849211783e-38 1768976227
31.860891 -52.331154 3.263476 1.880790849211783e-38 1768976227
32.037281 -52.620865 2.979304 1.880790849211783e-38 1768976227
30.019234 -49.306244 5.104441 1.880790849211783e-38 1768976227
29.343208 -48.195885 4.735736 1.880790849211783e-38 1768976227
42.578510 -69.934715 3.407269 1.880790849211783e-38 1768976227
42.347637 -69.555504 3.005934 1.880790849211783e-38 1768976227
29.252361 -48.046669 4.364619 1.880790849211783e-38 1768976227
31.421038 -51.608692 4.305315 1.880790849211783e-38 1768976227
42.460045 -69.740143 2.463133 1.880790849211783e-38 1768976227
42.916382 -70.489670 2.084733 1.880790849211783e-38 1768976227
39.591080 -65.027901 5.035712 1.880790849211783e-38 1768976227
31.760134 -52.165661 3.652654 1.880790849211783e-38 1768976227
42.711605 -70.153320 1.420008 1.880790849211783e-38 1768976227
43.270615 -71.071495 1.013371 1.880790849211783e-38 1768976227
26.754429 -43.943844 10.328382 1.880790849211783e-38 1768976227
29.799149 -48.944763 10.906386 1.880790849211783e-38 1768976227
27.410509 -45.021446 15.527193 1.880790849211783e-38 1768976227
27.645742 -45.407818 15.258364 1.880790849211783e-38 1768976227
30.132292 -49.491943 20.065643 1.880790849211783e-38 1768976227
26.173817 -42.990196 13.952124 1.880790849211783e-38 1768976227
25.552507 -41.969696 13.178984 1.880790849211783e-38 1768976227
30.674839 -50.383068 19.908455 1.880790849211783e-38 1768976227
30.932327 -50.805992 19.504097 1.880790849211783e-38 1768976227
25.592327 -42.035107 12.696527 1.880790849211783e-38 1768976227
25.364397 -41.660732 12.005174 1.880790849211783e-38 1768976227
30.768194 -50.536404 18.759600 1.880790849211783e-38 1768976227
26.846624 -44.095276 15.777626 1.880790849211783e-38 1768976227
29.862823 -49.049351 10.471889 1.880790849211783e-38 1768976227
29.377895 -48.252857 9.793731 1.880790849211783e-38 1768976227
25.346413 -41.631187 11.458645 1.880790849211783e-38 1768976227
26.742302 -43.923923 11.774344 1.880790849211783e-38 1768976227
29.667801 -48.729027 9.423903 1.880790849211783e-38 1768976227
29.867651 -49.057274 8.982545 1.880790849211783e-38 1768976227
28.391663 -46.632980 11.976009 1.880790849211783e-38 1768976227
27.346800 -44.916805 11.148288 1.880790849211783e-38 1768976227
32.911755 -54.426056 7.938435 1.880790849211783e-38 1768976227
33.261951 -55.005177 7.694409 1.880790849211783e-38 1768976227
32.746307 -54.152458 7.199977 1.880790849211783e-38 1768976227
34.206486 -56.567150 7.061588 1.880790849211783e-38 1768976227
30.607534 -50.615570 8.869869 1.880790849211783e-38 1768976227
30.764751 -50.875561 8.526522 1.880790849211783e-38 1768976227
31.923471 -52.791733 6.312839 1.880790849211783e-38 1768976227
31.843798 -52.659981 5.894536 1.880790849211783e-38 1768976227
31.117924 -51.459602 8.292499 1.880790849211783e-38 1768976227
32.372601 -53.534462 8.268775 1.880790849211783e-38 1768976227
41.679764 -68.925690 4.290486 1.880790849211783e-38 1768976227
31.488914 -52.073109 2.942901 1.880790849211783e-38 1768976227
29.816311 -49.307129 5.095200 1.880790849211783e-38 1768976227
29.545443 -48.859192 4.792136 1.880790849211783e-38 1768976227
31.635530 -52.315567 2.544192 1.880790849211783e-38 1768976227
31.751249 -52.506927 2.265008 1.880790849211783e-38 1768976227
31.042891 -51.335526 4.654857 1.880790849211783e-38 1768976227
31.704790 -52.430099 4.365841 1.880790849211783e-38 1768976227
42.575401 -70.406792 2.482132 1.880790849211783e-38 1768976227
42.753151 -70.700745 2.087153 1.880790849211783e-38 1768976227
31.668676 -52.370384 4.048109 1.880790849211783e-38 1768976227
31.526937 -52.135986 3.643902 1.880790849211783e-38 1768976227
42.654224 -70.537148 1.425167 1.880790849211783e-38 1768976227
26.646656 -44.065483 10.338036 1.880790849211783e-38 1768976227
29.434074 -48.675026 10.826450 1.880790849211783e-38 1768976227
27.417896 -45.340878 15.608768 1.880790849211783e-38 1768976227
27.719810 -45.840153 15.375480 1.880790849211783e-38 1768976227
29.815151 -49.305214 19.953390 1.880790849211783e-38 1768976227
26.070847 -43.113270 13.966484 1.880790849211783e-38 1768976227
25.784140 -42.639141 13.364717 1.880790849211783e-38 1768976227
30.546183 -50.514118 19.923744 1.880790849211783e-38 1768976227
30.762964 -50.872612 19.493965 1.880790849211783e-38 1768976227
25.582994 -42.306511 12.755141 1.880790849211783e-38 1768976227
25.391541 -41.989902 12.077907 1.880790849211783e-38 1768976227
30.818445 -50.964355 18.883869 1.880790849211783e-38 1768976227
26.977163 -44.612041 15.933346 1.880790849211783e-38 1768976227
29.703718 -49.120934 10.467998 1.880790849211783e-38 1768976227
29.649220 -49.030815 9.933435 1.880790849211783e-38 1768976227
24.629869 -40.730335 11.190194 1.880790849211783e-38 1768976227
26.904543 -44.491947 11.904804 1.880790849211783e-38 1768976227
29.490103 -48.767685 9.414135 1.880790849211783e-38 1768976227
29.434490 -48.675716 8.896385 1.880790849211783e-38 1768976227
27.926971 -46.182739 11.838696 1.880790849211783e-38 1768976227
27.505333 -45.485477 11.268790 1.880790849211783e-38 1768976227
32.553154 -54.201546 7.891333 1.880790849211783e-38 1768976227
32.815289 -54.638012 7.629169 1.880790849211783e-38 1768976227
32.605255 -54.288300 7.204932 1.880790849211783e-38 1768976227
33.186066 -55.255363 6.885304 1.880790849211783e-38 1768976227
29.923367 -49.822914 8.715110 1.880790849211783e-38 1768976227
30.746302 -51.193111 8.564162 1.880790849211783e-38 1768976227
32.972393 -54.899593 6.552975 1.880790849211783e-38 1768976227
31.732687 -52.835461 5.903440 1.880790849211783e-38 1768976227
31.021315 -51.651012 8.308229 1.880790849211783e-38 1768976227
32.290897 -53.764893 8.289287 1.880790849211783e-38 1768976227
31.115269 -51.807449 3.219054 1.880790849211783e-38 1768976227
31.235748 -52.008053 2.933886 1.880790849211783e-38 1768976227
29.711763 -49.470592 5.102808 1.880790849211783e-38 1768976227
29.457010 -49.046421 4.801764 1.880790849211783e-38 1768976227
31.093981 -51.772003 2.513185 1.880790849211783e-38 1768976227
31.548820 -52.529320 2.261859 1.880790849211783e-38 1768976227
30.754351 -51.206512 4.634727 1.880790849211783e-38 1768976227
33.524719 -55.819229 4.639612 1.880790849211783e-38 1768976227
31.791618 -52.933582 1.862740 1.880790849211783e-38 1768976227
31.519062 -52.479771 1.546439 1.880790849211783e-38 1768976227
31.462133 -52.384983 4.041884 1.880790849211783e-38 1768976227
31.304676 -52.122818 3.636366 1.880790849211783e-38 1768976227
42.212517 -70.284554 1.417485 1.880790849211783e-38 1768976227
26.655964 -44.382626 10.393530 1.880790849211783e-38 1768976227
29.344103 -48.858425 10.847508 1.880790849211783e-38 1768976227
27.408823 -45.636158 15.681890 1.880790849211783e-38 1768976227
27.207983 -45.301754 15.167298 1.880790849211783e-38 1768976227
29.873234 -49.739441 20.092564 1.880790849211783e-38 1768976227
26.362391 -43.893826 14.193523 1.880790849211783e-38 1768976227
25.571180 -42.576447 13.320833 1.880790849211783e-38 1768976227
29.964209 -49.890911 19.642208 1.880790849211783e-38 1768976227
30.293314 -50.438877 19.292664 1.880790849211783e-38 1768976227
25.348652 -42.205933 12.701710 1.880790849211783e-38 1768976227
25.274006 -42.081650 12.082314 1.880790849211783e-38 1768976227
30.400055 -50.616608 18.720961 1.880790849211783e-38 1768976227
26.662409 -44.393364 15.826451 1.880790849211783e-38 1768976227
29.606586 -49.295471 10.486115 1.880790849211783e-38 1768976227
29.364548 -48.892467 9.887420 1.880790849211783e-38 1768976227
25.069372 -41.740929 11.447021 1.880790849211783e-38 1768976227
26.874643 -44.746731 11.951236 1.880790849211783e-38 1768976227
29.521475 -49.153759 9.471432 1.880790849211783e-38 1768976227
29.228582 -48.666084 8.878473 1.880790849211783e-38 1768976227
27.759996 -46.220867 11.826953 1.880790849211783e-38 1768976227
27.824194 -46.327755 11.456617 1.880790849211783e-38 1768976227
31.805597 -53.320518 7.749061 1.880790849211783e-38 1768976227
32.532692 -54.539452 7.601673 1.880790849211783e-38 1768976227
32.334946 -54.207939 7.181292 1.880790849211783e-38 1768976227
39.690830 -66.539719 8.276482 1.880790849211783e-38 1768976227
30.275885 -50.756027 8.862319 1.880790849211783e-38 1768976227
30.494286 -51.122166 8.536870 1.880790849211783e-38 1768976227
33.053318 -55.412254 6.602240 1.880790849211783e-38 1768976227
31.648035 -53.056374 5.917431 1.880790849211783e-38 1768976227
30.503088 -51.136921 8.210702 1.880790849211783e-38 1768976227
32.222111 -54.018780 8.313411 1.880790849211783e-38 1768976227
31.407413 -52.652977 3.265691 1.880790849211783e-38 1768976227
31.207104 -52.317169 2.946002 1.880790849211783e-38 1768976227
29.676451 -49.751110 5.122488 1.880790849211783e-38 1768976227
29.130831 -48.836399 4.772579 1.880790849211783e-38 1768976227
31.010597 -51.987732 2.519106 1.880790849211783e-38 1768976227
31.049788 -52.053436 2.237326 1.880790849211783e-38 1768976227
30.798681 -51.632469 4.664853 1.880790849211783e-38 1768976227
33.379375 -55.958874 4.642831 1.880790849211783e-38 1768976227
31.346989 -52.551678 1.845965 1.880790849211783e-38 1768976227
31.062170 -52.074192 1.531721 1.880790849211783e-38 1768976227
33.474567 -56.118462 4.322140 1.880790849211783e-38 1768976227
33.210480 -55.675735 3.877232 1.880790849211783e-38 1768976227
31.338593 -52.537601 1.057657 1.880790849211783e-38 1768976227
31.656353 -53.070312 0.752587 1.880790849211783e-38 1768976227
32.500919 -54.486187 -2.184219 1.880790849211783e-38 1768976227
31.260389 -52.406502 0.368960 1.880790849211783e-38 1768976227
26.549696 -44.509262 10.404387 1.880790849211783e-38 1768976227
29.090233 -48.768337 10.807981 1.880790849211783e-38 1768976227
26.883495 -45.068855 15.459019 1.880790849211783e-38 1768976227
27.243502 -45.672386 15.263812 1.880790849211783e-38 1768976227
29.818544 -49.989319 20.157085 1.880790849211783e-38 1768976227
25.824314 -43.293186 13.974053 1.880790849211783e-38 1768976227
25.433800 -42.638512 13.316192 1.880790849211783e-38 1768976227
29.954504 -50.217251 19.735029 1.880790849211783e-38 1768976227
30.289129 -50.778233 19.387438 1.880790849211783e-38 1768976227
25.249962 -42.330311 12.716166 1.880790849211783e-38 1768976227
24.836939 -41.637905 11.933350 1.880790849211783e-38 1768976227
30.613525 -51.322063 18.947647 1.880790849211783e-38 1768976227
26.531618 -44.478951 15.828365 1.880790849211783e-38 1768976227
29.354982 -49.212181 10.449519 1.880790849211783e-38 1768976227
29.481836 -49.424843 9.977056 1.880790849211783e-38 1768976227
24.898630 -41.741325 11.426484 1.880790849211783e-38 1768976227
27.343611 -45.840214 12.221210 1.880790849211783e-38 1768976227
29.182598 -48.923187 9.410003 1.880790849211783e-38 1768976227
29.051519 -48.703442 8.869264 1.880790849211783e-38 1768976227
27.255140 -45.691895 11.670516 1.880790849211783e-38 1768976227
27.728586 -46.485603 11.474920 1.880790849211783e-38 1768976227
32.018997 -54.048115 7.840733 1.880790849211783e-38 1768976227
32.015968 -54.043007 7.518985 1.880790849211783e-38 1768976227
31.368795 -52.950569 -0.357558 1.880790849211783e-38 1768976227
31.346209 -52.912445 -0.709308 1.880790849211783e-38 1768976227
40.313663 -68.049522 8.998831 1.880790849211783e-38 1768976227
39.007565 -65.844826 8.175377 1.880790849211783e-38 1768976227
29.948900 -50.553787 8.811195 1.880790849211783e-38 1768976227
30.460154 -51.416782 8.570687 1.880790849211783e-38 1768976227
31.346764 -52.913391 6.293213 1.880790849211783e-38 1768976227
40.136223 -67.750008 7.542692 1.880790849211783e-38 1768976227
30.447716 -51.395786 8.237485 1.880790849211783e-38 1768976227
32.002110 -54.019611 8.298646 1.880790849211783e-38 1768976227
33.089169 -55.854557 3.458056 1.880790849211783e-38 1768976227
33.044510 -55.779179 3.135323 1.880790849211783e-38 1768976227
40.134579 -67.747231 6.962915 1.880790849211783e-38 1768976227
29.254498 -49.381634 4.817219 1.880790849211783e-38 1768976227
40.903366 -69.044945 3.339634 1.880790849211783e-38 1768976227
41.072464 -69.330376 2.974574 1.880790849211783e-38 1768976227
30.191608 -50.963486 4.596164 1.880790849211783e-38 1768976227
32.796940 -55.361290 4.585023 1.880790849211783e-38 1768976227
30.971565 -52.280056 1.833135 1.880790849211783e-38 1768976227
31.150423 -52.581959 1.543885 1.880790849211783e-38 1768976227
32.683838 -55.170368 4.241508 1.880790849211783e-38 1768976227
32.884964 -55.509869 3.858757 1.880790849211783e-38 1768976227
31.535975 -53.232769 -1.105681 1.880790849211783e-38 1768976227
31.110979 -52.515377 1.055316 1.880790849211783e-38 1768976227
31.482710 -53.142860 0.752266 1.880790849211783e-38 1768976227
32.448956 -54.773880 -1.879485 1.880790849211783e-38 1768976227
32.584347 -55.002426 -2.200964 1.880790849211783e-38 1768976227
31.394955 -52.994724 0.372433 1.880790849211783e-38 1768976227
31.122177 -52.534283 0.044670 1.880790849211783e-38 1768976227
26.521124 -44.767696 10.446054 1.880790849211783e-38 1768976227
28.960867 -48.885990 10.814648 1.880790849211783e-38 1768976227
26.765652 -45.180462 15.469542 1.880790849211783e-38 1768976227
27.138636 -45.810062 15.282398 1.880790849211783e-38 1768976227
25.727606 -43.428238 13.992535 1.880790849211783e-38 1768976227
25.423069 -42.914181 13.378276 1.880790849211783e-38 1768976227
30.054491 -50.732033 19.901623 1.880790849211783e-38 1768976227
30.121630 -50.845360 19.378294 1.880790849211783e-38 1768976227
25.126709 -42.413921 12.718460 1.880790849211783e-38 1768976227
24.667030 -41.637981 11.911997 1.880790849211783e-38 1768976227
31.361511 -52.938278 19.509329 1.880790849211783e-38 1768976227
26.376234 -44.523125 15.815704 1.880790849211783e-38 1768976227
29.244881 -49.365398 10.463277 1.880790849211783e-38 1768976227
29.095304 -49.112915 9.896330 1.880790849211783e-38 1768976227
24.649353 -41.608143 11.369624 1.880790849211783e-38 1768976227
27.272802 -46.036533 12.251562 1.880790849211783e-38 1768976227
29.072441 -49.074318 9.422164 1.880790849211783e-38 1768976227
29.172211 -49.242737 8.951410 1.880790849211783e-38 1768976227
27.387474 -46.230099 11.786830 1.880790849211783e-38 1768976227
27.206570 -45.924728 11.316163 1.880790849211783e-38 1768976227
31.381041 -53.337429 7.723868 1.880790849211783e-38 1768976227
31.787075 -54.027557 7.503464 1.880790849211783e-38 1768976227
31.423700 -53.409939 -0.360019 1.880790849211783e-38 1768976227
31.197838 -53.026051 -0.709566 1.880790849211783e-38 1768976227
31.432152 -53.424305 7.052232 1.880790849211783e-38 1768976227
31.337383 -53.263226 6.601465 1.880790849211783e-38 1768976227
30.068224 -51.106071 8.891609 1.880790849211783e-38 1768976227
29.926947 -50.865952 8.463785 1.880790849211783e-38 1768976227
39.330688 -66.849205 7.936514 1.880790849211783e-38 1768976227
39.565273 -67.247932 7.473476 1.880790849211783e-38 1768976227
32.797733 -55.745350 8.918718 1.880790849211783e-38 1768976227
32.775246 -55.707115 8.542663 1.880790849211783e-38 1768976227
32.771927 -55.701485 3.442444 1.880790849211783e-38 1768976227
32.399029 -55.067669 3.089823 1.880790849211783e-38 1768976227
39.799084 -67.645332 6.940073 1.880790849211783e-38 1768976227
28.946325 -49.199215 4.790885 1.880790849211783e-38 1768976227
32.696522 -55.573311 2.683243 1.880790849211783e-38 1768976227
32.366676 -55.012691 2.356084 1.880790849211783e-38 1768976227
30.181623 -51.298817 4.618176 1.880790849211783e-38 1768976227
38.398678 -65.265106 5.395641 1.880790849211783e-38 1768976227
41.127251 -69.902779 2.446693 1.880790849211783e-38 1768976227
38.281803 -65.066460 4.993423 1.880790849211783e-38 1768976227
32.703815 -55.585716 3.857155 1.880790849211783e-38 1768976227
31.050236 -52.775177 -1.094227 1.880790849211783e-38 1768976227
31.296694 -53.194073 -1.443547 1.880790849211783e-38 1768976227
31.088362 -52.839973 0.746648 1.880790849211783e-38 1768976227
31.408070 -53.383369 -1.828513 1.880790849211783e-38 1768976227
31.510344 -53.557209 -2.139320 1.880790849211783e-38 1768976227
31.180593 -52.996742 0.371785 1.880790849211783e-38 1768976227
30.859978 -52.451794 0.044520 1.880790849211783e-38 1768976227
26.342819 -44.774113 10.428965 1.880790849211783e-38 1768976227
28.989374 -49.272385 10.880735 1.880790849211783e-38 1768976227
26.704765 -45.389301 15.513399 1.880790849211783e-38 1768976227
26.894213 -45.711304 15.222324 1.880790849211783e-38 1768976227
25.526243 -43.386200 13.954123 1.880790849211783e-38 1768976227
25.304468 -43.009262 13.384066 1.880790849211783e-38 1768976227
29.843550 -50.724201 19.863153 1.880790849211783e-38 1768976227
31.042444 -52.761929 20.072968 1.880790849211783e-38 1768976227
25.250587 -42.917679 12.846624 1.880790849211783e-38 1768976227
24.825214 -42.194683 12.049786 1.880790849211783e-38 1768976227
31.562620 -53.646049 19.734995 1.880790849211783e-38 1768976227
26.617968 -45.241779 16.042398 1.880790849211783e-38 1768976227
28.051283 -47.677940 10.087632 1.880790849211783e-38 1768976227
28.955906 -49.215500 9.899359 1.880790849211783e-38 1768976227
24.499620 -41.641281 11.358437 1.880790849211783e-38 1768976227
26.905535 -45.730545 12.148480 1.880790849211783e-38 1768976227
30.190298 -51.313564 9.834566 1.880790849211783e-38 1768976227
30.548237 -51.921944 9.421649 1.880790849211783e-38 1768976227
26.763937 -45.489876 11.577471 1.880790849211783e-38 1768976227
27.420834 -46.606380 11.463696 1.880790849211783e-38 1768976227
32.222252 -55.147091 7.971819 1.880790849211783e-38 1768976227
31.331278 -53.622227 7.434012 1.880790849211783e-38 1768976227
31.926384 -54.640724 -0.367664 1.880790849211783e-38 1768976227
31.082190 -53.195919 -0.710581 1.880790849211783e-38 1768976227
39.084648 -66.891800 8.814398 1.880790849211783e-38 1768976227
38.491318 -65.876350 8.150314 1.880790849211783e-38 1768976227
29.518621 -50.519936 8.774101 1.880790849211783e-38 1768976227
29.790487 -50.985218 8.468642 1.880790849211783e-38 1768976227
39.107334 -66.930634 7.932143 1.880790849211783e-38 1768976227
39.419918 -67.465607 7.484420 1.880790849211783e-38 1768976227
32.845730 -56.214153 8.977833 1.880790849211783e-38 1768976227
32.451485 -55.539410 8.501897 1.880790849211783e-38 1768976227
33.565289 -57.445648 3.543964 1.880790849211783e-38 1768976227
32.333416 -55.337341 3.099468 1.880790849211783e-38 1768976227
39.762138 -68.051308 6.969390 1.880790849211783e-38 1768976227
29.168642 -49.920959 4.852578 1.880790849211783e-38 1768976227
32.286919 -55.257767 2.663293 1.880790849211783e-38 1768976227
32.307076 -55.292263 2.363873 1.880790849211783e-38 1768976227
29.697937 -50.826828 4.567600 1.880790849211783e-38 1768976227
37.741497 -64.593063 5.330647 1.880790849211783e-38 1768976227
32.523685 -55.662983 1.944838 1.880790849211783e-38 1768976227
32.080364 -54.904259 1.606361 1.880790849211783e-38 1768976227
37.973293 -64.989769 4.978725 1.880790849211783e-38 1768976227
33.166134 -56.762508 3.931855 1.880790849211783e-38 1768976227
30.923824 -52.924889 -1.095392 1.880790849211783e-38 1768976227
30.979284 -53.019806 -1.436276 1.880790849211783e-38 1768976227
32.237431 -55.173073 1.104795 1.880790849211783e-38 1768976227
32.359997 -55.382839 0.781197 1.880790849211783e-38 1768976227
31.317997 -53.599495 -1.832672 1.880790849211783e-38 1768976227
31.182934 -53.368343 -2.128010 1.880790849211783e-38 1768976227
32.178383 -55.072010 0.385660 1.880790849211783e-38 1768976227
31.970482 -54.716198 0.046360 1.880790849211783e-38 1768976227
26.139189 -44.736176 10.401718 1.880790849211783e-38 1768976227
28.521748 -48.813828 10.760427 1.880790849211783e-38 1768976227
26.336735 -45.074265 15.378506 1.880790849211783e-38 1768976227
26.584145 -45.497700 15.124423 1.880790849211783e-38 1768976227
25.523544 -43.682522 14.024605 1.880790849211783e-38 1768976227
24.861750 -42.549889 13.217719 1.880790849211783e-38 1768976227
29.290047 -50.128738 19.595293 1.880790849211783e-38 1768976227
31.372051 -53.692001 20.390718 1.880790849211783e-38 1768976227
25.125151 -43.000687 12.848730 1.880790849211783e-38 1768976227
24.997286 -42.781849 12.195880 1.880790849211783e-38 1768976227
31.000015 -53.055283 19.483181 1.880790849211783e-38 1768976227
26.257549 -44.938736 15.906790 1.880790849211783e-38 1768976227
28.259050 -48.364231 10.214758 1.880790849211783e-38 1768976227
28.869585 -49.409138 9.920748 1.880790849211783e-38 1768976227
24.448387 -41.842430 11.393139 1.880790849211783e-38 1768976227
24.351776 -41.677090 11.052105 1.880790849211783e-38 1768976227
29.954985 -51.266754 9.808236 1.880790849211783e-38 1768976227
31.480417 -53.877468 9.759221 1.880790849211783e-38 1768976227
25.116045 -42.985104 10.920661 1.880790849211783e-38 1768976227
26.940544 -46.107662 11.320990 1.880790849211783e-38 1768976227
31.019161 -53.457508 7.714023 1.880790849211783e-38 1768976227
33.326031 -57.433102 7.948371 1.880790849211783e-38 1768976227
31.672766 -54.583912 -0.366638 1.880790849211783e-38 1768976227
31.704096 -54.637905 -0.728563 1.880790849211783e-38 1768976227
40.203484 -69.285500 8.557060 1.880790849211783e-38 1768976227
29.455143 -50.762127 8.800696 1.880790849211783e-38 1768976227
29.482035 -50.808472 8.424479 1.880790849211783e-38 1768976227
35.308514 -60.849655 7.198816 1.880790849211783e-38 1768976227
35.308533 -60.849686 6.738628 1.880790849211783e-38 1768976227
32.703560 -56.360348 8.985390 1.880790849211783e-38 1768976227
32.268093 -55.609882 8.497749 1.880790849211783e-38 1768976227
33.441734 -57.632500 3.549253 1.880790849211783e-38 1768976227
39.533329 -68.130577 6.965266 1.880790849211783e-38 1768976227
28.768873 -49.579430 4.810925 1.880790849211783e-38 1768976227
40.832798 -70.370049 3.385719 1.880790849211783e-38 1768976227
29.705328 -51.193291 4.592461 1.880790849211783e-38 1768976227
37.443016 -64.528191 5.315950 1.880790849211783e-38 1768976227
32.102448 -55.324417 1.929618 1.880790849211783e-38 1768976227
32.067104 -55.263508 1.614035 1.880790849211783e-38 1768976227
32.709152 -56.369987 3.897815 1.880790849211783e-38 1768976227
31.860231 -54.906986 -1.134422 1.880790849211783e-38 1768976227
32.288128 -55.644405 1.112279 1.880790849211783e-38 1768976227
32.192234 -55.479156 0.781182 1.880790849211783e-38 1768976227
30.947109 -53.333336 -1.820372 1.880790849211783e-38 1768976227
31.460711 -54.218464 -2.158114 1.880790849211783e-38 1768976227
32.153305 -55.412056 0.387361 1.880790849211783e-38 1768976227
31.933727 -55.033646 0.046547 1.880790849211783e-38 1768976227
26.208956 -45.167744 10.483638 1.880790849211783e-38 1768976227
28.538429 -49.182293 10.822630 1.880790849211783e-38 1768976227
26.287008 -45.302261 15.429176 1.880790849211783e-38 1768976227
26.494110 -45.659172 15.151470 1.880790849211783e-38 1768976227
25.492508 -43.933037 14.080287 1.880790849211783e-38 1768976227
25.104803 -43.264885 13.416245 1.880790849211783e-38 1768976227
30.337925 -52.283489 20.401726 1.880790849211783e-38 1768976227
31.168465 -53.714813 20.363592 1.880790849211783e-38 1768976227
24.878811 -42.875412 12.788821 1.880790849211783e-38 1768976227
24.594879 -42.386089 12.061860 1.880790849211783e-38 1768976227
31.108109 -53.610798 19.652639 1.880790849211783e-38 1768976227
25.354687 -43.695518 15.439596 1.880790849211783e-38 1768976227
28.274471 -48.727394 10.273403 1.880790849211783e-38 1768976227
28.207726 -48.612362 9.743641 1.880790849211783e-38 1768976227
24.457447 -42.149242 11.456544 1.880790849211783e-38 1768976227
24.410076 -42.067608 11.136092 1.880790849211783e-38 1768976227
29.790926 -51.340805 9.805170 1.880790849211783e-38 1768976227
31.665272 -54.570999 9.867505 1.880790849211783e-38 1768976227
25.734211 -44.349583 11.247548 1.880790849211783e-38 1768976227
26.783142 -46.157280 11.313289 1.880790849211783e-38 1768976227
32.566902 -56.516823 8.141276 1.880790849211783e-38 1768976227
34.675869 -60.176735 8.313560 1.880790849211783e-38 1768976227
31.512812 -54.687542 -0.366694 1.880790849211783e-38 1768976227
34.910732 -60.584320 7.955362 1.880790849211783e-38 1768976227
39.741234 -68.967201 8.502907 1.880790849211783e-38 1768976227
29.137325 -50.565109 8.751265 1.880790849211783e-38 1768976227
29.528856 -51.244576 8.481982 1.880790849211783e-38 1768976227
34.862663 -60.500904 7.145085 1.880790849211783e-38 1768976227
34.986324 -60.715504 6.712052 1.880790849211783e-38 1768976227
30.856201 -53.548058 8.522157 1.880790849211783e-38 1768976227
32.275986 -56.011963 8.544277 1.880790849211783e-38 1768976227
33.664223 -58.421112 3.591551 1.880790849211783e-38 1768976227
28.968348 -50.271870 4.869615 1.880790849211783e-38 1768976227
29.588818 -51.348633 4.598371 1.880790849211783e-38 1768976227
32.650574 -56.662022 4.325588 1.880790849211783e-38 1768976227
32.584183 -56.546806 3.903229 1.880790849211783e-38 1768976227
32.363033 -56.163029 0.789434 1.880790849211783e-38 1768976227
31.948065 -55.442883 0.386901 1.880790849211783e-38 1768976227
31.327223 -54.365475 0.045902 1.880790849211783e-38 1768976227
23.827847 -41.351006 9.581032 1.880790849211783e-38 1768976227
28.360577 -49.217136 10.811426 1.880790849211783e-38 1768976227
25.336346 -43.968861 14.948951 1.880790849211783e-38 1768976227
25.945349 -45.025730 14.915236 1.880790849211783e-38 1768976227
28.962326 -50.261417 16.080429 1.880790849211783e-38 1768976227
25.107906 -43.572430 13.488071 1.880790849211783e-38 1768976227
29.956600 -51.986885 20.250639 1.880790849211783e-38 1768976227
30.847401 -53.532787 20.259222 1.880790849211783e-38 1768976227
24.958765 -43.313610 12.897015 1.880790849211783e-38 1768976227
24.455357 -42.439995 12.056155 1.880790849211783e-38 1768976227
30.904860 -53.632504 19.626337 1.880790849211783e-38 1768976227
25.167414 -43.675697 15.405702 1.880790849211783e-38 1768976227
28.349977 -49.198742 10.354706 1.880790849211783e-38 1768976227
28.464706 -49.397842 9.883827 1.880790849211783e-38 1768976227
24.421450 -42.381145 11.499505 1.880790849211783e-38 1768976227
24.292109 -42.156689 11.140228 1.880790849211783e-38 1768976227
29.618282 -51.399769 9.799326 1.880790849211783e-38 1768976227
31.254290 -54.238899 9.790364 1.880790849211783e-38 1768976227
27.956879 -48.516552 12.282898 1.880790849211783e-38 1768976227
26.496956 -45.982994 11.250933 1.880790849211783e-38 1768976227
30.613890 -53.499897 7.693352 1.880790849211783e-38 1768976227
31.241745 -54.597122 7.529672 1.880790849211783e-38 1768976227
34.783615 -60.786789 7.968137 1.880790849211783e-38 1768976227
34.785416 -60.789936 7.481770 1.880790849211783e-38 1768976227
29.047199 -50.761997 8.770138 1.880790849211783e-38 1768976227
30.992270 -54.161144 8.949219 1.880790849211783e-38 1768976227
34.589291 -60.447189 7.126390 1.880790849211783e-38 1768976227
34.827713 -60.863846 6.716809 1.880790849211783e-38 1768976227
32.397419 -56.616737 8.994946 1.880790849211783e-38 1768976227
31.833075 -55.630516 8.471405 1.880790849211783e-38 1768976227
34.180504 -59.732807 3.665835 1.880790849211783e-38 1768976227
35.465248 -61.977989 6.314277 1.880790849211783e-38 1768976227
28.721363 -50.192577 4.853521 1.880790849211783e-38 1768976227
35.655880 -62.311127 5.570427 1.880790849211783e-38 1768976227
35.976135 -62.870789 5.161439 1.880790849211783e-38 1768976227
32.218727 -56.304462 4.290854 1.880790849211783e-38 1768976227
33.609100 -58.734234 4.047204 1.880790849211783e-38 1768976227
30.771870 -53.775982 0.374619 1.880790849211783e-38 1768976227
30.689569 -53.632156 0.045204 1.880790849211783e-38 1768976227
23.817902 -41.623432 9.627466 1.880790849211783e-38 1768976227
27.951515 -48.847218 10.711599 1.880790849211783e-38 1768976227
25.116941 -43.893600 14.897540 1.880790849211783e-38 1768976227
24.988510 -43.669159 14.440826 1.880790849211783e-38 1768976227
29.421270 -51.415714 16.421267 1.880790849211783e-38 1768976227
25.165522 -43.978497 13.590214 1.880790849211783e-38 1768976227
29.761515 -52.010315 20.224709 1.880790849211783e-38 1768976227
30.743000 -53.725529 20.296982 1.880790849211783e-38 1768976227
24.607533 -43.003376 12.782482 1.880790849211783e-38 1768976227
24.291794 -42.451595 12.038584 1.880790849211783e-38 1768976227
30.299839 -52.951073 19.343447 1.880790849211783e-38 1768976227
25.103807 -43.870647 15.447690 1.880790849211783e-38 1768976227
28.311251 -49.475880 10.395015 1.880790849211783e-38 1768976227
28.126398 -49.152836 9.817786 1.880790849211783e-38 1768976227
24.268999 -42.411762 11.487899 1.880790849211783e-38 1768976227
24.436186 -42.703934 11.265314 1.880790849211783e-38 1768976227
29.405817 -51.388706 9.780265 1.880790849211783e-38 1768976227
31.207668 -54.537567 9.827241 1.880790849211783e-38 1768976227
25.756094 -45.010563 11.375572 1.880790849211783e-38 1768976227
26.307449 -45.974098 11.229291 1.880790849211783e-38 1768976227
30.853731 -54.298279 7.794744 1.880790849211783e-38 1768976227
31.098310 -54.728706 7.534850 1.880790849211783e-38 1768976227
34.476578 -60.673985 7.939684 1.880790849211783e-38 1768976227
34.118664 -60.044109 7.377279 1.880790849211783e-38 1768976227
28.808439 -50.698856 8.744178 1.880790849211783e-38 1768976227
32.049313 -56.402340 9.303526 1.880790849211783e-38 1768976227
34.537395 -60.781021 7.153433 1.880790849211783e-38 1768976227
34.639038 -60.959896 6.715849 1.880790849211783e-38 1768976227
32.512985 -57.218334 9.074903 1.880790849211783e-38 1768976227
32.849247 -57.810108 8.788187 1.880790849211783e-38 1768976227
33.838356 -59.550804 3.648386 1.880790849211783e-38 1768976227
35.105335 -61.780518 6.283343 1.880790849211783e-38 1768976227
28.703983 -50.515022 4.876308 1.880790849211783e-38 1768976227
35.577492 -62.611446 5.587657 1.880790849211783e-38 1768976227
36.152534 -63.623440 5.214253 1.880790849211783e-38 1768976227
32.269238 -56.789383 4.320373 1.880790849211783e-38 1768976227
33.540092 -59.025909 4.060313 1.880790849211783e-38 1768976227
31.017401 -54.586319 0.764628 1.880790849211783e-38 1768976227
30.948551 -54.465153 0.378768 1.880790849211783e-38 1768976227
23.454458 -41.276588 9.530836 1.880790849211783e-38 1768976227
27.664711 -48.686050 10.657913 1.880790849211783e-38 1768976227
24.261755 -42.697323 14.466620 1.880790849211783e-38 1768976227
24.838039 -43.711498 14.429990 1.880790849211783e-38 1768976227
28.822483 -50.723568 16.172369 1.880790849211783e-38 1768976227
25.392002 -44.686398 13.785241 1.880790849211783e-38 1768976227
29.622095 -52.130775 20.236719 1.880790849211783e-38 1768976227
31.267450 -55.026371 20.752707 1.880790849211783e-38 1768976227
24.583637 -43.263786 12.837790 1.880790849211783e-38 1768976227
24.144543 -42.491043 12.029066 1.880790849211783e-38 1768976227
30.398159 -53.496540 19.509129 1.880790849211783e-38 1768976227
24.937275 -43.886143 15.426592 1.880790849211783e-38 1768976227
27.979845 -49.240646 10.327815 1.880790849211783e-38 1768976227
27.733702 -48.807465 9.732050 1.880790849211783e-38 1768976227
24.323582 -42.806126 11.574795 1.880790849211783e-38 1768976227
24.142979 -42.488289 11.189168 1.880790849211783e-38 1768976227
29.520765 -51.952450 9.870565 1.880790849211783e-38 1768976227
31.707569 -55.800922 10.037610 1.880790849211783e-38 1768976227
25.358076 -44.626694 11.259175 1.880790849211783e-38 1768976227
25.682051 -45.196842 11.020476 1.880790849211783e-38 1768976227
30.202192 -53.526833 7.670888 1.880790849211783e-38 1768976227
30.846729 -54.669132 7.513806 1.880790849211783e-38 1768976227
33.578346 -59.510326 7.774123 1.880790849211783e-38 1768976227
33.984734 -60.230564 7.387562 1.880790849211783e-38 1768976227
28.321127 -50.193054 8.642170 1.880790849211783e-38 1768976227
31.991627 -56.698219 9.336374 1.880790849211783e-38 1768976227
34.389549 -60.948006 7.160848 1.880790849211783e-38 1768976227
34.603889 -61.327885 6.744862 1.880790849211783e-38 1768976227
32.631920 -57.833000 9.156740 1.880790849211783e-38 1768976227
32.789501 -58.112278 8.819050 1.880790849211783e-38 1768976227
35.094555 -62.197483 6.314958 1.880790849211783e-38 1768976227
35.041157 -62.102844 5.984673 1.880790849211783e-38 1768976227
35.276253 -62.519505 5.569932 1.880790849211783e-38 1768976227
32.719173 -57.987640 4.744263 1.880790849211783e-38 1768976227
31.963974 -56.649208 4.302356 1.880790849211783e-38 1768976227
33.540958 -59.444073 4.082101 1.880790849211783e-38 1768976227
30.319418 -53.734589 1.066714 1.880790849211783e-38 1768976227
30.706186 -54.420052 0.760998 1.880790849211783e-38 1768976227
23.394415 -41.461525 9.557203 1.880790849211783e-38 1768976227
27.824032 -49.312061 10.776535 1.880790849211783e-38 1768976227
24.144667 -42.791183 14.473684 1.880790849211783e-38 1768976227
24.217413 -42.920109 14.144563 1.880790849211783e-38 1768976227
28.339262 -50.225189 15.986149 1.880790849211783e-38 1768976227
25.403597 -45.022362 13.865186 1.880790849211783e-38 1768976227
29.355425 -52.026123 20.161636 1.880790849211783e-38 1768976227
30.895329 -54.755260 20.615229 1.880790849211783e-38 1768976227
24.489548 -43.402409 12.856951 1.880790849211783e-38 1768976227
24.159706 -42.817833 12.100899 1.880790849211783e-38 1768976227
30.049484 -53.256191 19.388342 1.880790849211783e-38 1768976227
24.915991 -44.158188 15.495736 1.880790849211783e-38 1768976227
27.915239 -49.473705 10.358994 1.880790849211783e-38 1768976227
27.537426 -48.804115 9.714779 1.880790849211783e-38 1768976227
24.016474 -42.563988 11.489685 1.880790849211783e-38 1768976227
24.155193 -42.809841 11.254612 1.880790849211783e-38 1768976227
29.071482 -51.522888 9.772251 1.880790849211783e-38 1768976227
31.610016 -56.021889 10.060165 1.880790849211783e-38 1768976227
25.743021 -45.623917 11.491133 1.880790849211783e-38 1768976227
29.519384 -52.316700 12.734766 1.880790849211783e-38 1768976227
30.350521 -54.170803 7.750022 1.880790849211783e-38 1768976227
31.091572 -55.493458 7.614180 1.880790849211783e-38 1768976227
33.838875 -60.396954 7.876579 1.880790849211783e-38 1768976227
34.167126 -60.982830 7.467157 1.880790849211783e-38 1768976227
31.526155 -56.269127 9.671925 1.880790849211783e-38 1768976227
31.764118 -56.693848 9.319838 1.880790849211783e-38 1768976227
34.348335 -61.306263 7.190735 1.880790849211783e-38 1768976227
34.312534 -61.242363 6.724044 1.880790849211783e-38 1768976227
32.193344 -57.459949 9.082260 1.880790849211783e-38 1768976227
32.463558 -57.942238 8.778346 1.880790849211783e-38 1768976227
34.750713 -62.024445 6.286719 1.880790849211783e-38 1768976227
34.991825 -62.454792 6.008391 1.880790849211783e-38 1768976227
35.805592 -63.907227 5.683919 1.880790849211783e-38 1768976227
32.279705 -57.614090 4.705715 1.880790849211783e-38 1768976227
32.032021 -57.172009 4.334704 1.880790849211783e-38 1768976227
31.513218 -56.246033 3.855943 1.880790849211783e-38 1768976227
30.122093 -53.763100 1.065472 1.880790849211783e-38 1768976227
30.556780 -54.538940 0.761368 1.880790849211783e-38 1768976227
23.319073 -41.620800 9.577662 1.880790849211783e-38 1768976227
27.418081 -48.936867 10.676422 1.880790849211783e-38 1768976227
23.987556 -42.813934 14.456845 1.880790849211783e-38 1768976227
24.471045 -43.676884 14.369575 1.880790849211783e-38 1768976227
28.363749 -50.624733 16.086018 1.880790849211783e-38 1768976227
25.317595 -45.187840 13.892568 1.880790849211783e-38 1768976227
30.385489 -54.233215 20.981339 1.880790849211783e-38 1768976227
30.982943 -55.299576 20.784883 1.880790849211783e-38 1768976227
24.290270 -43.354233 12.820920 1.880790849211783e-38 1768976227
23.593853 -42.111240 11.881041 1.880790849211783e-38 1768976227
29.760479 -53.117672 19.305147 1.880790849211783e-38 1768976227
24.536144 -43.793076 15.341575 1.880790849211783e-38 1768976227
25.180244 -44.942688 9.394328 1.880790849211783e-38 1768976227
27.776981 -49.577450 9.851995 1.880790849211783e-38 1768976227
23.843010 -42.555946 11.468049 1.880790849211783e-38 1768976227
23.749384 -42.388832 11.125050 1.880790849211783e-38 1768976227
29.026613 -51.807842 9.809648 1.880790849211783e-38 1768976227
31.477167 -56.181686 10.071767 1.880790849211783e-38 1768976227
25.593515 -45.680313 11.485844 1.880790849211783e-38 1768976227
25.427271 -45.383598 11.028415 1.880790849211783e-38 1768976227
30.135998 -54.170410 7.736928 1.880790849211783e-38 1768976227
30.818869 -55.397892 7.588279 1.880790849211783e-38 1768976227
33.281181 -59.823975 7.788729 1.880790849211783e-38 1768976227
33.733875 -60.637707 7.412406 1.880790849211783e-38 1768976227
31.381783 -56.409740 9.679783 1.880790849211783e-38 1768976227
31.564854 -56.738823 9.311539 1.880790849211783e-38 1768976227
34.239189 -61.546021 7.206712 1.880790849211783e-38 1768976227
34.199917 -61.475433 6.738278 1.880790849211783e-38 1768976227
32.401150 -58.242092 9.190399 1.880790849211783e-38 1768976227
32.395775 -58.232433 8.807468 1.880790849211783e-38 1768976227
34.415020 -61.862087 6.259714 1.880790849211783e-38 1768976227
34.735649 -62.438423 5.996711 1.880790849211783e-38 1768976227
35.581245 -63.958412 5.678902 1.880790849211783e-38 1768976227
32.497383 -58.415077 4.763110 1.880790849211783e-38 1768976227
29.984747 -53.898529 1.558065 1.880790849211783e-38 1768976227
31.455851 -56.542885 4.279792 1.880790849211783e-38 1768976227
31.042776 -55.800373 3.818955 1.880790849211783e-38 1768976227
30.109879 -54.123463 1.070809 1.880790849211783e-38 1768976227
22.851353 -41.076031 9.436399 1.880790849211783e-38 1768976227
27.281992 -49.040245 10.680975 1.880790849211783e-38 1768976227
23.762491 -42.713825 14.398776 1.880790849211783e-38 1768976227
25.642408 -46.093040 15.138969 1.880790849211783e-38 1768976227
28.171875 -50.639839 16.063745 1.880790849211783e-38 1768976227
27.729689 -49.844997 15.298584 1.880790849211783e-38 1768976227
26.551670 -47.727467 18.433378 1.880790849211783e-38 1768976227
26.910313 -48.372139 18.150551 1.880790849211783e-38 1768976227
24.494867 -44.030296 12.998942 1.880790849211783e-38 1768976227
23.633476 -42.481918 11.965457 1.880790849211783e-38 1768976227
26.929617 -48.406841 17.563440 1.880790849211783e-38 1768976227
24.148314 -43.407352 15.180867 1.880790849211783e-38 1768976227
25.043324 -45.016167 9.393856 1.880790849211783e-38 1768976227
27.108889 -48.729084 9.667117 1.880790849211783e-38 1768976227
24.133904 -43.381454 11.670841 1.880790849211783e-38 1768976227
23.977377 -43.100098 11.292690 1.880790849211783e-38 1768976227
28.915051 -51.975723 9.824879 1.880790849211783e-38 1768976227
31.182964 -56.052361 10.031677 1.880790849211783e-38 1768976227
25.494949 -45.827980 11.503587 1.880790849211783e-38 1768976227
25.231417 -45.354267 11.002745 1.880790849211783e-38 1768976227
29.845011 -54.030247 7.704019 1.880790849211783e-38 1768976227
30.587650 -55.374691 7.572431 1.880790849211783e-38 1768976227
33.393715 -60.454689 7.857697 1.880790849211783e-38 1768976227
33.638599 -60.898010 7.431792 1.880790849211783e-38 1768976227
31.277092 -56.622833 9.700119 1.880790849211783e-38 1768976227
31.393785 -56.834087 9.311593 1.880790849211783e-38 1768976227
33.732288 -61.067623 7.138750 1.880790849211783e-38 1768976227
34.064499 -61.669048 6.748209 1.880790849211783e-38 1768976227
32.005932 -57.942295 9.127821 1.880790849211783e-38 1768976227
32.165573 -58.231304 8.792586 1.880790849211783e-38 1768976227
34.390121 -62.258541 6.289307 1.880790849211783e-38 1768976227
34.380394 -62.240929 5.967758 1.880790849211783e-38 1768976227
34.920540 -63.218788 5.603854 1.880790849211783e-38 1768976227
31.670050 -57.334229 4.667169 1.880790849211783e-38 1768976227
29.788445 -53.927845 1.858556 1.880790849211783e-38 1768976227
29.665628 -53.705502 1.549892 1.880790849211783e-38 1768976227
32.699409 -59.197746 4.473257 1.880790849211783e-38 1768976227
30.873142 -55.891541 3.818805 1.880790849211783e-38 1768976227
22.810329 -41.294937 9.470842 1.880790849211783e-38 1768976227
27.021637 -48.918926 10.636754 1.880790849211783e-38 1768976227
23.665308 -42.842758 14.418114 1.880790849211783e-38 1768976227
25.044804 -45.340141 14.866810 1.880790849211783e-38 1768976227
24.421877 -44.212421 14.001442 1.880790849211783e-38 1768976227
27.789869 -50.309700 15.415420 1.880790849211783e-38 1768976227
26.548565 -48.062489 18.531767 1.880790849211783e-38 1768976227
26.654968 -48.255119 18.076399 1.880790849211783e-38 1768976227
24.886065 -45.052769 13.278586 1.880790849211783e-38 1768976227
23.455742 -42.463367 11.940253 1.880790849211783e-38 1768976227
26.783636 -48.488060 17.563520 1.880790849211783e-38 1768976227
23.995398 -43.440338 15.167025 1.880790849211783e-38 1768976227
24.930601 -45.133392 9.402587 1.880790849211783e-38 1768976227
25.304298 -45.809921 9.072820 1.880790849211783e-38 1768976227
24.090899 -43.613224 11.713595 1.880790849211783e-38 1768976227
23.942699 -43.344940 11.337872 1.880790849211783e-38 1768976227
31.070074 -56.248055 10.614711 1.880790849211783e-38 1768976227
32.501431 -58.839333 10.512871 1.880790849211783e-38 1768976227
24.958435 -45.183784 11.322937 1.880790849211783e-38 1768976227
23.840662 -43.160210 10.452987 1.880790849211783e-38 1768976227
29.785892 -54.309593 7.731005 1.880790849211783e-38 1768976227
30.564369 -55.729015 7.608244 1.880790849211783e-38 1768976227
33.198658 -60.532200 7.854722 1.880790849211783e-38 1768976227
33.432304 -60.958218 7.426800 1.880790849211783e-38 1768976227
31.160900 -56.816685 9.717184 1.880790849211783e-38 1768976227
31.646906 -57.702839 9.438246 1.880790849211783e-38 1768976227
33.855568 -61.729965 7.204208 1.880790849211783e-38 1768976227
33.840721 -61.702896 6.740714 1.880790849211783e-38 1768976227
31.799528 -57.981121 9.118786 1.880790849211783e-38 1768976227
31.964314 -58.281578 8.785581 1.880790849211783e-38 1768976227
32.183315 -58.680893 3.564950 1.880790849211783e-38 1768976227
34.145355 -62.258343 6.278855 1.880790849211783e-38 1768976227
34.491867 -62.890152 6.020005 1.880790849211783e-38 1768976227
34.926052 -63.681816 5.635535 1.880790849211783e-38 1768976227
31.532181 -57.493652 4.672384 1.880790849211783e-38 1768976227
29.428555 -53.658047 1.846191 1.880790849211783e-38 1768976227
29.390558 -53.588768 1.543958 1.880790849211783e-38 1768976227
32.437870 -59.145031 4.461861 1.880790849211783e-38 1768976227
30.756618 -56.079544 3.825296 1.880790849211783e-38 1768976227
22.727303 -41.439434 9.488218 1.880790849211783e-38 1768976227
21.994102 -40.102566 8.705295 1.880790849211783e-38 1768976227
23.470842 -42.795155 14.378207 1.880790849211783e-38 1768976227
25.080458 -45.730019 14.969778 1.880790849211783e-38 1768976227
24.470551 -44.617954 14.106432 1.880790849211783e-38 1768976227
27.372263 -49.908745 15.267198 1.880790849211783e-38 1768976227
26.311201 -47.974075 18.466993 1.880790849211783e-38 1768976227
26.434772 -48.199387 18.025572 1.880790849211783e-38 1768976227
23.438667 -42.736488 12.575008 1.880790849211783e-38 1768976227
23.453634 -42.763779 12.004782 1.880790849211783e-38 1768976227
26.582096 -48.468006 17.527138 1.880790849211783e-38 1768976227
23.116419 -42.148922 14.691723 1.880790849211783e-38 1768976227
21.931454 -39.988338 8.316906 1.880790849211783e-38 1768976227
24.970259 -45.529087 9.002243 1.880790849211783e-38 1768976227
23.562069 -42.961487 11.519414 1.880790849211783e-38 1768976227
23.712435 -43.235661 11.290529 1.880790849211783e-38 1768976227
31.100771 -56.707054 10.683579 1.880790849211783e-38 1768976227
32.195484 -58.703083 10.471129 1.880790849211783e-38 1768976227
25.180199 -45.911880 11.486313 1.880790849211783e-38 1768976227
23.443045 -42.744469 10.335128 1.880790849211783e-38 1768976227
29.527494 -54.225700 7.706351 1.880790849211783e-38 1768976227
30.249348 -55.551350 7.571499 1.880790849211783e-38 1768976227
33.172390 -60.919357 7.891942 1.880790849211783e-38 1768976227
33.347599 -61.241119 7.448979 1.880790849211783e-38 1768976227
31.147369 -57.200512 9.766718 1.880790849211783e-38 1768976227
31.603731 -58.038597 9.477531 1.880790849211783e-38 1768976227
33.626034 -61.752457 7.194964 1.880790849211783e-38 1768976227
33.951443 -62.350048 6.800195 1.880790849211783e-38 1768976227
31.936264 -58.649277 9.208678 1.880790849211783e-38 1768976227
31.791452 -58.383343 8.786427 1.880790849211783e-38 1768976227
32.182034 -59.100624 3.584537 1.880790849211783e-38 1768976227
33.959030 -62.363976 6.279150 1.880790849211783e-38 1768976227
33.949371 -62.346245 5.958113 1.880790849211783e-38 1768976227
29.283710 -53.778004 2.260338 1.880790849211783e-38 1768976227
34.701450 -63.727398 5.630281 1.880790849211783e-38 1768976227
31.436340 -57.731194 4.683962 1.880790849211783e-38 1768976227
29.219660 -53.660378 1.843230 1.880790849211783e-38 1768976227
29.826618 -54.775024 1.575536 1.880790849211783e-38 1768976227
32.521774 -59.724541 4.498158 1.880790849211783e-38 1768976227
30.682894 -56.347527 3.837245 1.880790849211783e-38 1768976227
22.568851 -41.446510 9.474211 1.880790849211783e-38 1768976227
22.062263 -40.516193 8.780599 1.880790849211783e-38 1768976227
23.319738 -42.825481 14.364699 1.880790849211783e-38 1768976227
24.860535 -45.655071 14.920632 1.880790849211783e-38 1768976227
25.644478 -47.094738 18.569996 1.880790849211783e-38 1768976227
24.240618 -44.516628 14.051218 1.880790849211783e-38 1768976227
23.126162 -42.469986 12.970269 1.880790849211783e-38 1768976227
26.243923 -48.195595 18.521711 1.880790849211783e-38 1768976227
26.202511 -48.119541 17.966076 1.880790849211783e-38 1768976227
23.577274 -43.298431 12.719376 1.880790849211783e-38 1768976227
23.202797 -42.610718 11.942116 1.880790849211783e-38 1768976227
26.596806 -48.843639 17.633888 1.880790849211783e-38 1768976227
23.217978 -42.638603 14.837934 1.880790849211783e-38 1768976227
21.814487 -40.061165 8.318332 1.880790849211783e-38 1768976227
21.835360 -40.099495 7.915619 1.880790849211783e-38 1768976227
24.079109 -44.220028 11.837343 1.880790849211783e-38 1768976227
25.285782 -46.436012 12.106297 1.880790849211783e-38 1768976227
30.878162 -56.706135 10.665812 1.880790849211783e-38 1768976227
31.715126 -58.243168 10.371984 1.880790849211783e-38 1768976227
24.943296 -45.807060 11.441216 1.880790849211783e-38 1768976227
23.324383 -42.834015 10.339722 1.880790849211783e-38 1768976227
29.278385 -54.156483 7.683930 1.880790849211783e-38 1768976227
30.190748 -55.844093 7.598954 1.880790849211783e-38 1768976227
30.402494 -56.235760 7.273282 1.880790849211783e-38 1768976227
33.438320 -61.851158 7.510880 1.880790849211783e-38 1768976227
31.123751 -57.569874 9.813711 1.880790849211783e-38 1768976227
31.538168 -58.336426 9.510590 1.880790849211783e-38 1768976227
33.384151 -61.750957 7.183025 1.880790849211783e-38 1768976227
33.571396 -62.097305 6.761556 1.880790849211783e-38 1768976227
31.739178 -58.708233 9.202864 1.880790849211783e-38 1768976227
30.468315 -56.357513 3.412574 1.880790849211783e-38 1768976227
33.960453 -62.816948 6.314416 1.880790849211783e-38 1768976227
33.759293 -62.444851 5.957779 1.880790849211783e-38 1768976227
28.804964 -53.280792 2.520545 1.880790849211783e-38 1768976227
28.963501 -53.574039 2.248083 1.880790849211783e-38 1768976227
34.233192 -63.321434 5.585267 1.880790849211783e-38 1768976227
31.141779 -57.603222 4.665938 1.880790849211783e-38 1768976227
29.363838 -54.314552 1.862650 1.880790849211783e-38 1768976227
29.505308 -54.576229 1.567252 1.880790849211783e-38 1768976227
32.381088 -59.895576 4.503664 1.880790849211783e-38 1768976227
30.624857 -56.647064 3.851336 1.880790849211783e-38 1768976227
29.804281 -55.129242 -1.850138 1.880790849211783e-38 1768976227
30.076948 -55.633595 -2.177335 1.880790849211783e-38 1768976227
22.603350 -41.809620 9.541586 1.880790849211783e-38 1768976227
22.023972 -40.737930 8.814219 1.880790849211783e-38 1768976227
22.936796 -42.426388 14.207567 1.880790849211783e-38 1768976227
24.569971 -45.447292 14.828442 1.880790849211783e-38 1768976227
25.867039 -47.846489 18.835571 1.880790849211783e-38 1768976227
24.009848 -44.411224 13.995028 1.880790849211783e-38 1768976227
23.358942 -43.207241 13.173850 1.880790849211783e-38 1768976227
25.979456 -48.054428 18.437265 1.880790849211783e-38 1768976227
26.379560 -48.794506 18.188295 1.880790849211783e-38 1768976227
23.496286 -43.461285 12.746340 1.880790849211783e-38 1768976227
23.433237 -43.344666 12.127949 1.880790849211783e-38 1768976227
