# .PCD v0.7 - Point Cloud Data file format
VERSION 0.7
FIELDS x y z rgb label
SIZE 4 4 4 4 4
TYPE F F F F U
COUNT 1 1 1 1 1
WIDTH 745
HEIGHT 1
VIEWPOINT 0 0 0 1 0 0 0
POINTS 745
DATA ascii
-10.993006 -20.530764 3.846970 1.880790849211783e-38 1768976227
-11.173378 -20.867630 3.702028 1.880790849211783e-38 1768976227
-11.225729 -20.814316 2.951613 1.880790849211783e-38 1768976227
-11.316548 -20.982710 2.853661 1.880790849211783e-38 1768976227
-11.248762 -20.857021 -0.137673 1.880790849211783e-38 1768976227
-11.362406 -21.067736 -0.276068 1.880790849211783e-38 1768976227
-11.259258 -20.876484 2.698606 1.880790849211783e-38 1768976227
-11.339664 -21.025568 2.551849 1.880790849211783e-38 1768976227
-11.351129 -21.046827 3.585823 1.880790849211783e-38 1768976227
-11.247517 -20.854713 3.398100 1.880790849211783e-38 1768976227
-11.390132 -21.119146 2.455298 1.880790849211783e-38 1768976227
-11.286001 -20.926071 2.277329 1.880790849211783e-38 1768976227
-11.430772 -21.194496 3.320560 1.880790849211783e-38 1768976227
-11.260265 -20.878353 3.135257 1.880790849211783e-38 1768976227
-10.853474 -20.124094 1.217898 1.880790849211783e-38 1768976227
-11.286231 -20.926495 1.149814 1.880790849211783e-38 1768976227
-10.894397 -20.199972 2.029418 1.880790849211783e-38 1768976227
-11.178667 -20.727053 1.976467 1.880790849211783e-38 1768976227
-11.400809 -21.138943 0.999474 1.880790849211783e-38 1768976227
-11.182570 -20.734291 0.869584 1.880790849211783e-38 1768976227
-11.037098 -20.464565 1.804097 1.880790849211783e-38 1768976227
-11.273766 -20.903381 1.692283 1.880790849211783e-38 1768976227
-11.239206 -20.839304 0.714270 1.880790849211783e-38 1768976227
-11.224475 -20.811991 0.597328 1.880790849211783e-38 1768976227
-11.216948 -20.798033 1.562996 1.880790849211783e-38 1768976227
-11.184348 -20.737587 1.409148 1.880790849211783e-38 1768976227
-11.166060 -20.703682 -0.420358 1.880790849211783e-38 1768976227
-11.401373 -21.139986 -0.561781 1.880790849211783e-38 1768976227
-11.047156 -20.483212 0.402360 1.880790849211783e-38 1768976227
-11.322904 -20.994492 0.290505 1.880790849211783e-38 1768976227
-10.999428 -20.394716 -0.684076 1.880790849211783e-38 1768976227
-11.257131 -20.872540 -0.816446 1.880790849211783e-38 1768976227
-10.703277 -19.845606 0.136333 1.880790849211783e-38 1768976227
-11.039991 -20.469929 0.017014 1.880790849211783e-38 1768976227
-11.012412 -20.418793 4.657348 1.880790849211783e-38 1768976227
-11.355431 -21.054802 4.553027 1.880790849211783e-38 1768976227
-11.236844 -20.834923 4.316762 1.880790849211783e-38 1768976227
-11.566012 -21.445255 4.224067 1.880790849211783e-38 1768976227
-11.412658 -21.160912 3.971475 1.880790849211783e-38 1768976227
-11.197511 -20.761993 3.689262 1.880790849211783e-38 1768976227
-11.313898 -20.827202 2.958265 1.880790849211783e-38 1768976227
-11.245581 -20.701441 2.820009 1.880790849211783e-38 1768976227
-11.210320 -20.636534 -0.136440 1.880790849211783e-38 1768976227
-11.433622 -21.047600 -0.276255 1.880790849211783e-38 1768976227
-11.160354 -20.544550 2.660038 1.880790849211783e-38 1768976227
-11.308426 -20.817131 2.530679 1.880790849211783e-38 1768976227
-11.148296 -20.522354 3.502180 1.880790849211783e-38 1768976227
-11.365830 -20.922804 3.414764 1.880790849211783e-38 1768976227
-11.501574 -21.172686 2.465545 1.880790849211783e-38 1768976227
-11.276456 -20.758278 2.262760 1.880790849211783e-38 1768976227
-11.079171 -20.395107 3.200540 1.880790849211783e-38 1768976227
-11.297510 -20.797037 3.128149 1.880790849211783e-38 1768976227
-10.996196 -20.242361 1.227057 1.880790849211783e-38 1768976227
-11.315620 -20.830374 1.146403 1.880790849211783e-38 1768976227
-11.501341 -21.172260 2.130575 1.880790849211783e-38 1768976227
-11.148131 -20.522049 1.960116 1.880790849211783e-38 1768976227
-11.293122 -20.788960 0.984532 1.880790849211783e-38 1768976227
-11.425501 -21.032648 0.883538 1.880790849211783e-38 1768976227
-11.278281 -20.761639 1.833277 1.880790849211783e-38 1768976227
-11.440583 -21.060411 1.707781 1.880790849211783e-38 1768976227
-11.480859 -21.134554 0.725574 1.880790849211783e-38 1768976227
-11.184937 -20.589808 0.591917 1.880790849211783e-38 1768976227
-11.525474 -21.216682 1.597063 1.880790849211783e-38 1768976227
-11.478919 -21.130983 1.438226 1.880790849211783e-38 1768976227
-11.326758 -20.850876 -0.424039 1.880790849211783e-38 1768976227
-11.169428 -20.561256 -0.547294 1.880790849211783e-38 1768976227
-11.387203 -20.962147 0.412441 1.880790849211783e-38 1768976227
-11.570227 -21.299065 0.295200 1.880790849211783e-38 1768976227
-10.992196 -20.234997 -0.679827 1.880790849211783e-38 1768976227
-11.180794 -20.582178 -0.806404 1.880790849211783e-38 1768976227
-11.458833 -21.094007 0.145146 1.880790849211783e-38 1768976227
-11.311275 -20.822374 0.017335 1.880790849211783e-38 1768976227
-11.279443 -20.763779 4.743774 1.880790849211783e-38 1768976227
-11.224725 -20.663048 4.475612 1.880790849211783e-38 1768976227
-11.245535 -20.701357 4.296096 1.880790849211783e-38 1768976227
-11.457857 -21.092209 4.161315 1.880790849211783e-38 1768976227
-10.911384 -20.086235 3.775939 1.880790849211783e-38 1768976227
-11.206223 -20.628990 3.671617 1.880790849211783e-38 1768976227
-11.532791 -21.078341 2.998864 1.880790849211783e-38 1768976227
-11.345169 -20.735428 2.829287 1.880790849211783e-38 1768976227
-11.546619 -21.103617 -0.139758 1.880790849211783e-38 1768976227
-11.167056 -20.409893 -0.268325 1.880790849211783e-38 1768976227
-11.348437 -20.741402 2.689945 1.880790849211783e-38 1768976227
-11.366364 -20.774164 2.529612 1.880790849211783e-38 1768976227
-11.406501 -20.847523 3.563525 1.880790849211783e-38 1768976227
-11.261436 -20.582390 3.364734 1.880790849211783e-38 1768976227
-11.404609 -20.844065 2.431272 1.880790849211783e-38 1768976227
-11.418189 -20.868887 2.278560 1.880790849211783e-38 1768976227
-11.494257 -21.007914 3.302130 1.880790849211783e-38 1768976227
-11.337518 -20.721443 3.121907 1.880790849211783e-38 1768976227
-11.511900 -21.040159 1.277517 1.880790849211783e-38 1768976227
-11.171960 -20.418856 1.125604 1.880790849211783e-38 1768976227
-11.141284 -20.362789 2.052490 1.880790849211783e-38 1768976227
-11.466240 -20.956707 2.004925 1.880790849211783e-38 1768976227
-11.448220 -20.923773 0.992547 1.880790849211783e-38 1768976227
-11.073783 -20.239420 0.851615 1.880790849211783e-38 1768976227
-11.484003 -20.989174 1.856418 1.880790849211783e-38 1768976227
-11.234953 -20.533985 1.667834 1.880790849211783e-38 1768976227
-11.150215 -20.379114 0.700790 1.880790849211783e-38 1768976227
-11.404473 -20.843817 0.600205 1.880790849211783e-38 1768976227
-11.308611 -20.668612 1.558368 1.880790849211783e-38 1768976227
-11.300636 -20.654036 1.408077 1.880790849211783e-38 1768976227
-11.461246 -20.947580 -0.426706 1.880790849211783e-38 1768976227
-11.464571 -20.953661 -0.558657 1.880790849211783e-38 1768976227
-11.293631 -20.641233 0.406795 1.880790849211783e-38 1768976227
-11.446362 -20.920376 0.290429 1.880790849211783e-38 1768976227
-11.125342 -20.333652 -0.684266 1.880790849211783e-38 1768976227
-11.551037 -21.111692 -0.828511 1.880790849211783e-38 1768976227
-11.392044 -20.821102 0.143504 1.880790849211783e-38 1768976227
-11.255501 -20.571543 0.017155 1.880790849211783e-38 1768976227
-11.340074 -20.726116 4.742961 1.880790849211783e-38 1768976227
-11.513486 -21.043058 4.565423 1.880790849211783e-38 1768976227
-11.610607 -21.220566 4.411093 1.880790849211783e-38 1768976227
-11.252251 -20.565603 4.064097 1.880790849211783e-38 1768976227
-11.292440 -20.639057 3.886247 1.880790849211783e-38 1768976227
-11.370271 -20.781305 3.704813 1.880790849211783e-38 1768976227
-11.392713 -20.674011 2.946213 1.880790849211783e-38 1768976227
-11.403165 -20.692982 2.828174 1.880790849211783e-38 1768976227
-11.175896 -20.280561 -0.134530 1.880790849211783e-38 1768976227
-11.325358 -20.551786 -0.270639 1.880790849211783e-38 1768976227
-11.275614 -20.461519 2.658045 1.880790849211783e-38 1768976227
-11.247282 -20.410105 2.489400 1.880790849211783e-38 1768976227
-11.859724 -21.521484 3.684824 1.880790849211783e-38 1768976227
-11.341338 -20.580786 3.370048 1.880790849211783e-38 1768976227
-11.388388 -20.666164 2.414516 1.880790849211783e-38 1768976227
-11.354879 -20.605356 2.253515 1.880790849211783e-38 1768976227
-11.647159 -21.135748 3.327730 1.880790849211783e-38 1768976227
-11.443457 -20.766098 3.133820 1.880790849211783e-38 1768976227
-11.540867 -20.942863 1.273717 1.880790849211783e-38 1768976227
-11.371790 -20.636044 1.139462 1.880790849211783e-38 1768976227
-11.431590 -20.744566 2.094437 1.880790849211783e-38 1768976227
-11.437384 -20.755075 1.988926 1.880790849211783e-38 1768976227
-11.601278 -21.052490 1.000308 1.880790849211783e-38 1768976227
-11.618033 -21.082895 0.888576 1.880790849211783e-38 1768976227
-11.757808 -21.336540 1.890269 1.880790849211783e-38 1768976227
-11.152601 -20.238293 1.646541 1.880790849211783e-38 1768976227
-11.445374 -20.769575 0.715401 1.880790849211783e-38 1768976227
-11.472936 -20.819590 0.600501 1.880790849211783e-38 1768976227
-11.560129 -20.977818 1.584303 1.880790849211783e-38 1768976227
-11.480062 -20.832523 1.422599 1.880790849211783e-38 1768976227
-11.640782 -21.124178 -0.431017 1.880790849211783e-38 1768976227
-11.641410 -21.125317 -0.564167 1.880790849211783e-38 1768976227
-11.268555 -20.448706 0.403669 1.880790849211783e-38 1768976227
-11.422702 -20.728432 0.288241 1.880790849211783e-38 1768976227
-11.294828 -20.496386 -0.690885 1.880790849211783e-38 1768976227
-11.621864 -21.089849 -0.829026 1.880790849211783e-38 1768976227
-11.361060 -20.616575 0.142330 1.880790849211783e-38 1768976227
-11.164457 -20.259804 0.016923 1.880790849211783e-38 1768976227
-11.153107 -20.239208 4.639214 1.880790849211783e-38 1768976227
-11.538274 -20.938160 4.550193 1.880790849211783e-38 1768976227
-11.488803 -20.848385 4.340911 1.880790849211783e-38 1768976227
-11.543095 -20.946907 4.146309 1.880790849211783e-38 1768976227
-11.566432 -20.989258 3.958738 1.880790849211783e-38 1768976227
-11.758180 -21.337214 3.810223 1.880790849211783e-38 1768976227
-11.457057 -20.643240 2.946739 1.880790849211783e-38 1768976227
-11.454420 -20.638489 2.825435 1.880790849211783e-38 1768976227
-11.311463 -20.380911 -0.135421 1.880790849211783e-38 1768976227
-11.484691 -20.693033 -0.272953 1.880790849211783e-38 1768976227
-11.570632 -20.847878 2.712755 1.880790849211783e-38 1768976227
-11.474791 -20.675190 2.525942 1.880790849211783e-38 1768976227
-11.538823 -20.790565 3.565621 1.880790849211783e-38 1768976227
-11.703251 -21.086832 3.458676 1.880790849211783e-38 1768976227
-11.313714 -20.384966 2.385638 1.880790849211783e-38 1768976227
-11.406881 -20.552835 2.251523 1.880790849211783e-38 1768976227
-11.357486 -20.463835 3.227319 1.880790849211783e-38 1768976227
-11.851728 -21.354357 3.227974 1.880790849211783e-38 1768976227
-11.335102 -20.423502 1.244203 1.880790849211783e-38 1768976227
-11.263797 -20.295025 1.122503 1.880790849211783e-38 1768976227
-11.769124 -21.205521 2.144550 1.880790849211783e-38 1768976227
-11.449944 -20.630424 1.980281 1.880790849211783e-38 1768976227
-11.521078 -20.758591 0.987990 1.880790849211783e-38 1768976227
-11.364449 -20.476379 0.864454 1.880790849211783e-38 1768976227
-11.532138 -20.778521 1.843906 1.880790849211783e-38 1768976227
-11.639607 -20.972157 1.709095 1.880790849211783e-38 1768976227
-11.402535 -20.545006 0.708847 1.880790849211783e-38 1768976227
-11.466509 -20.660271 0.596901 1.880790849211783e-38 1768976227
-11.380581 -20.505447 1.551213 1.880790849211783e-38 1768976227
-11.453934 -20.637611 1.411641 1.880790849211783e-38 1768976227
-11.392993 -20.527811 -0.419548 1.880790849211783e-38 1768976227
-11.672506 -21.031435 -0.562597 1.880790849211783e-38 1768976227
-11.433573 -20.600925 0.407353 1.880790849211783e-38 1768976227
-11.603851 -20.907734 0.291220 1.880790849211783e-38 1768976227
-11.362977 -20.473728 -0.691274 1.880790849211783e-38 1768976227
-11.278421 -20.321377 -0.800151 1.880790849211783e-38 1768976227
-11.500178 -20.720936 0.143289 1.880790849211783e-38 1768976227
-11.349943 -20.450243 0.017110 1.880790849211783e-38 1768976227
-11.447085 -20.625273 4.735599 1.880790849211783e-38 1768976227
-11.573266 -20.852623 4.539170 1.880790849211783e-38 1768976227
-11.416529 -20.570217 4.290142 1.880790849211783e-38 1768976227
-11.635101 -20.964039 4.156628 1.880790849211783e-38 1768976227
-11.484609 -20.692883 3.909355 1.880790849211783e-38 1768976227
-11.569368 -20.845602 3.728649 1.880790849211783e-38 1768976227
-11.622021 -20.792427 2.973025 1.880790849211783e-38 1768976227
-11.462337 -20.506748 2.812120 1.880790849211783e-38 1768976227
-11.399225 -20.393835 -0.135735 1.880790849211783e-38 1768976227
-11.626488 -20.800421 -0.274831 1.880790849211783e-38 1768976227
-11.580656 -20.718424 2.700443 1.880790849211783e-38 1768976227
-11.491724 -20.559320 2.516009 1.880790849211783e-38 1768976227
-11.550576 -20.664612 3.549978 1.880790849211783e-38 1768976227
-11.607844 -20.767063 3.411954 1.880790849211783e-38 1768976227
-11.883154 -21.259609 2.492180 1.880790849211783e-38 1768976227
-11.385817 -20.369846 2.235229 1.880790849211783e-38 1768976227
-11.574477 -20.707369 3.271217 1.880790849211783e-38 1768976227
-11.428423 -20.446072 3.095872 1.880790849211783e-38 1768976227
-11.657711 -20.856279 1.272704 1.880790849211783e-38 1768976227
-11.268781 -20.160463 1.116935 1.880790849211783e-38 1768976227
-11.681967 -20.899675 2.117173 1.880790849211783e-38 1768976227
-11.746428 -21.015001 2.020587 1.880790849211783e-38 1768976227
-11.550037 -20.663645 0.985125 1.880790849211783e-38 1768976227
-11.632319 -20.810852 0.880052 1.880790849211783e-38 1768976227
-11.552842 -20.668663 1.837241 1.880790849211783e-38 1768976227
-11.726665 -20.979641 1.712579 1.880790849211783e-38 1768976227
-11.587732 -20.731083 0.716469 1.880790849211783e-38 1768976227
-11.369017 -20.339790 0.588630 1.880790849211783e-38 1768976227
-11.724947 -20.976566 1.589521 1.880790849211783e-38 1768976227
-11.253077 -20.132366 1.379397 1.880790849211783e-38 1768976227
-11.251363 -20.129301 -0.412095 1.880790849211783e-38 1768976227
-11.734694 -20.994005 -0.562540 1.880790849211783e-38 1768976227
-11.559339 -20.680285 0.409609 1.880790849211783e-38 1768976227
-11.483534 -20.544666 0.286644 1.880790849211783e-38 1768976227
-11.411824 -20.416376 -0.690496 1.880790849211783e-38 1768976227
-11.392849 -20.382425 -0.803904 1.880790849211783e-38 1768976227
-11.578953 -20.715378 0.143491 1.880790849211783e-38 1768976227
-11.221811 -20.076431 0.016826 1.880790849211783e-38 1768976227
-11.661391 -20.862862 4.798204 1.880790849211783e-38 1768976227
-11.539198 -20.644255 4.501367 1.880790849211783e-38 1768976227
-11.426764 -20.443104 4.270800 1.880790849211783e-38 1768976227
-11.674335 -20.886021 4.148121 1.880790849211783e-38 1768976227
-11.550947 -20.665274 3.910703 1.880790849211783e-38 1768976227
-11.568723 -20.697075 3.708306 1.880790849211783e-38 1768976227
-11.710455 -20.803074 2.979584 1.880790849211783e-38 1768976227
-11.675282 -20.740591 2.849003 1.880790849211783e-38 1768976227
-11.491367 -20.413874 -0.136099 1.880790849211783e-38 1768976227
-11.762516 -20.895557 -0.276556 1.880790849211783e-38 1768976227
-11.680451 -20.749775 2.709109 1.880790849211783e-38 1768976227
-11.403933 -20.258553 2.483399 1.880790849211783e-38 1768976227
-11.677956 -20.745340 3.569881 1.880790849211783e-38 1768976227
-11.738648 -20.853159 3.431900 1.880790849211783e-38 1768976227
-11.436114 -20.315722 2.385564 1.880790849211783e-38 1768976227
-11.344309 -20.152634 2.215138 1.880790849211783e-38 1768976227
-11.773412 -20.914913 3.309597 1.880790849211783e-38 1768976227
-11.772775 -20.913782 3.172053 1.880790849211783e-38 1768976227
-11.566643 -20.547598 1.255991 1.880790849211783e-38 1768976227
-11.374607 -20.206455 1.121379 1.880790849211783e-38 1768976227
-11.816571 -20.991585 2.130084 1.880790849211783e-38 1768976227
-11.483142 -20.399261 1.964705 1.880790849211783e-38 1768976227
-11.664667 -20.721733 0.989567 1.880790849211783e-38 1768976227
-11.459891 -20.357960 0.862358 1.880790849211783e-38 1768976227
-11.704009 -20.791624 1.851300 1.880790849211783e-38 1768976227
-11.518585 -20.462227 1.673171 1.880790849211783e-38 1768976227
-11.852750 -21.055855 0.728926 1.880790849211783e-38 1768976227
-11.630514 -20.661060 0.598940 1.880790849211783e-38 1768976227
-11.493067 -20.416895 1.549730 1.880790849211783e-38 1768976227
-11.676116 -20.742073 1.423578 1.880790849211783e-38 1768976227
-11.721454 -20.822611 -0.427010 1.880790849211783e-38 1768976227
-11.783687 -20.933167 -0.561860 1.880790849211783e-38 1768976227
-11.591681 -20.592077 0.408553 1.880790849211783e-38 1768976227
-11.532722 -20.487341 0.286328 1.880790849211783e-38 1768976227
-11.576100 -20.564402 -0.696680 1.880790849211783e-38 1768976227
-11.634098 -20.667429 -0.816525 1.880790849211783e-38 1768976227
-11.764854 -20.899712 0.145013 1.880790849211783e-38 1768976227
-11.683386 -20.754988 0.017424 1.880790849211783e-38 1768976227
-11.211763 -19.917171 4.588463 1.880790849211783e-38 1768976227
-11.970556 -21.265133 4.644597 1.880790849211783e-38 1768976227
-11.498761 -20.427010 4.274663 1.880790849211783e-38 1768976227
-11.770245 -20.909286 4.159774 1.880790849211783e-38 1768976227
-11.572138 -20.557362 3.896868 1.880790849211783e-38 1768976227
-11.750527 -20.874260 3.746385 1.880790849211783e-38 1768976227
-11.657510 -20.563694 2.950320 1.880790849211783e-38 1768976227
-11.643016 -20.538128 2.826002 1.880790849211783e-38 1768976227
-11.540783 -20.357790 -0.135956 1.880790849211783e-38 1768976227
-11.486715 -20.262417 -0.268633 1.880790849211783e-38 1768976227
-11.323608 -19.974697 2.612361 1.880790849211783e-38 1768976227
-11.905962 -21.001963 2.578920 1.880790849211783e-38 1768976227
-11.582902 -20.432089 3.521971 1.880790849211783e-38 1768976227
-12.045179 -21.247540 3.502768 1.880790849211783e-38 1768976227
-11.820090 -20.850485 2.452533 1.880790849211783e-38 1768976227
-11.575143 -20.418402 2.248178 1.880790849211783e-38 1768976227
-11.591956 -20.448061 3.241239 1.880790849211783e-38 1768976227
-11.646878 -20.544941 3.121423 1.880790849211783e-38 1768976227
-11.648665 -20.548094 1.258163 1.880790849211783e-38 1768976227
-11.584477 -20.434868 1.135988 1.880790849211783e-38 1768976227
-11.642758 -20.537674 2.087578 1.880790849211783e-38 1768976227
-11.825405 -20.859861 2.012492 1.880790849211783e-38 1768976227
-11.468949 -20.231079 0.967783 1.880790849211783e-38 1768976227
-11.673193 -20.591360 0.873732 1.880790849211783e-38 1768976227
-11.810872 -20.834225 1.858256 1.880790849211783e-38 1768976227
-11.667386 -20.581118 1.685762 1.880790849211783e-38 1768976227
-11.762728 -20.749298 0.719538 1.880790849211783e-38 1768976227
-11.800194 -20.815388 0.604442 1.880790849211783e-38 1768976227
-11.776235 -20.773125 1.579458 1.880790849211783e-38 1768976227
-11.793870 -20.804234 1.430279 1.880790849211783e-38 1768976227
-11.564104 -20.398930 -0.419035 1.880790849211783e-38 1768976227
-11.770824 -20.763580 -0.558258 1.880790849211783e-38 1768976227
-11.895458 -20.983435 0.417027 1.880790849211783e-38 1768976227
-12.018379 -21.200266 0.296797 1.880790849211783e-38 1768976227
-11.641812 -20.536005 -0.696904 1.880790849211783e-38 1768976227
-11.879125 -20.954620 -0.829283 1.880790849211783e-38 1768976227
-11.665139 -20.577152 0.143019 1.880790849211783e-38 1768976227
-11.497624 -20.281658 0.017056 1.880790849211783e-38 1768976227
-11.792833 -20.802402 4.800571 1.880790849211783e-38 1768976227
-11.781641 -20.782661 4.546958 1.880790849211783e-38 1768976227
-11.677225 -20.598471 4.317894 1.880790849211783e-38 1768976227
-11.583824 -20.433714 4.072093 1.880790849211783e-38 1768976227
-11.404899 -20.118092 3.820103 1.880790849211783e-38 1768976227
-11.868271 -20.935476 3.763778 1.880790849211783e-38 1768976227
-11.933228 -20.902861 3.004131 1.880790849211783e-38 1768976227
-11.640653 -20.390369 2.810489 1.880790849211783e-38 1768976227
-11.615364 -20.346075 -0.136111 1.880790849211783e-38 1768976227
-11.808375 -20.684164 -0.274696 1.880790849211783e-38 1768976227
-11.919871 -20.879465 2.735379 1.880790849211783e-38 1768976227
-11.435821 -20.031578 2.463986 1.880790849211783e-38 1768976227
-11.761826 -20.602623 3.557466 1.880790849211783e-38 1768976227
-11.554059 -20.238689 3.342183 1.880790849211783e-38 1768976227
-11.934414 -20.904938 2.463161 1.880790849211783e-38 1768976227
-11.554996 -20.240334 2.232399 1.880790849211783e-38 1768976227
-11.748343 -20.579006 3.267597 1.880790849211783e-38 1768976227
-11.628817 -20.369637 3.100103 1.880790849211783e-38 1768976227
-11.701530 -20.497005 1.257190 1.880790849211783e-38 1768976227
-11.844516 -20.747469 1.155347 1.880790849211783e-38 1768976227
-11.720350 -20.529974 2.090379 1.880790849211783e-38 1768976227
-11.572417 -20.270844 1.959024 1.880790849211783e-38 1768976227
-11.623372 -20.360102 0.975627 1.880790849211783e-38 1768976227
-11.905020 -20.853451 0.886372 1.880790849211783e-38 1768976227
-11.710177 -20.512156 1.832672 1.880790849211783e-38 1768976227
-11.754117 -20.589121 1.689313 1.880790849211783e-38 1768976227
-11.543878 -20.220854 0.702417 1.880790849211783e-38 1768976227
-11.722652 -20.534004 0.597295 1.880790849211783e-38 1768976227
-11.954229 -20.939648 1.594854 1.880790849211783e-38 1768976227
-11.506063 -20.154617 1.387998 1.880790849211783e-38 1768976227
-11.714620 -20.519934 -0.422244 1.880790849211783e-38 1768976227
-11.610578 -20.337690 -0.547746 1.880790849211783e-38 1768976227
-11.853106 -20.762516 0.413345 1.880790849211783e-38 1768976227
-11.953842 -20.938969 0.293642 1.880790849211783e-38 1768976227
-11.715254 -20.521046 -0.697592 1.880790849211783e-38 1768976227
-11.947914 -20.928587 -0.829675 1.880790849211783e-38 1768976227
-11.789473 -20.651051 0.143779 1.880790849211783e-38 1768976227
-11.448866 -20.054428 0.016893 1.880790849211783e-38 1768976227
-11.909173 -20.860725 4.822297 1.880790849211783e-38 1768976227
-11.897264 -20.839867 4.567304 1.880790849211783e-38 1768976227
-11.790894 -20.653540 4.336872 1.880790849211783e-38 1768976227
-11.698637 -20.491940 4.090709 1.880790849211783e-38 1768976227
-11.639954 -20.389145 3.878220 1.880790849211783e-38 1768976227
-11.660313 -20.424809 3.678276 1.880790849211783e-38 1768976227
-11.387549 -19.808033 2.851707 1.880790849211783e-38 1768976227
-11.815397 -20.552250 2.837700 1.880790849211783e-38 1768976227
-11.932797 -20.756460 -0.139097 1.880790849211783e-38 1768976227
-11.569802 -20.125050 -0.267733 1.880790849211783e-38 1768976227
-11.722487 -20.390640 2.675958 1.880790849211783e-38 1768976227
-11.792812 -20.512964 2.527563 1.880790849211783e-38 1768976227
-11.664412 -20.289619 3.509478 1.880790849211783e-38 1768976227
-11.793674 -20.514465 3.393583 1.880790849211783e-38 1768976227
-11.807468 -20.538460 2.424165 1.880790849211783e-38 1768976227
-11.824653 -20.568352 2.272500 1.880790849211783e-38 1768976227
-11.961964 -20.807192 3.309543 1.880790849211783e-38 1768976227
-12.029937 -20.925432 3.190198 1.880790849211783e-38 1768976227
-11.982508 -20.842930 1.280618 1.880790849211783e-38 1768976227
-11.542606 -20.077745 1.119986 1.880790849211783e-38 1768976227
-11.958719 -20.801550 2.121694 1.880790849211783e-38 1768976227
-11.629107 -20.228207 1.958284 1.880790849211783e-38 1768976227
-11.676359 -20.310402 0.974929 1.880790849211783e-38 1768976227
-11.751212 -20.440603 0.870327 1.880790849211783e-38 1768976227
-11.679830 -20.316439 1.818324 1.880790849211783e-38 1768976227
-11.875675 -20.657101 1.697822 1.880790849211783e-38 1768976227
-11.846461 -20.606285 0.717043 1.880790849211783e-38 1768976227
-11.721686 -20.389246 0.594110 1.880790849211783e-38 1768976227
-12.012929 -20.895845 1.594270 1.880790849211783e-38 1768976227
-11.938567 -20.766499 1.432610 1.880790849211783e-38 1768976227
-12.017297 -20.903444 -0.430880 1.880790849211783e-38 1768976227
-11.842909 -20.600105 -0.555773 1.880790849211783e-38 1768976227
-11.857282 -20.625105 0.411320 1.880790849211783e-38 1768976227
-12.101868 -21.050550 0.295718 1.880790849211783e-38 1768976227
-11.697588 -20.347330 -0.692883 1.880790849211783e-38 1768976227
-11.817777 -20.556387 -0.816329 1.880790849211783e-38 1768976227
-11.948912 -20.784492 0.144958 1.880790849211783e-38 1768976227
-11.671125 -20.301296 0.017131 1.880790849211783e-38 1768976227
-11.926745 -20.745934 4.804054 1.880790849211783e-38 1768976227
-11.867981 -20.643715 4.532139 1.880790849211783e-38 1768976227
-11.850150 -20.612700 4.335782 1.880790849211783e-38 1768976227
-12.022940 -20.913258 4.182034 1.880790849211783e-38 1768976227
-11.803313 -20.531231 3.911999 1.880790849211783e-38 1768976227
-11.535873 -20.066034 3.619914 1.880790849211783e-38 1768976227
-11.552667 -19.955723 2.877972 1.880790849211783e-38 1768976227
-11.756775 -20.308290 2.808899 1.880790849211783e-38 1768976227
-11.854987 -20.477940 -0.137469 1.880790849211783e-38 1768976227
-11.644283 -20.113976 -0.268051 1.880790849211783e-38 1768976227
-11.880231 -20.521545 2.697827 1.880790849211783e-38 1768976227
-12.147850 -20.983824 2.590083 1.880790849211783e-38 1768976227
-11.960756 -20.660643 3.579876 1.880790849211783e-38 1768976227
-11.633534 -20.095411 3.330050 1.880790849211783e-38 1768976227
-11.906579 -20.567059 2.431767 1.880790849211783e-38 1768976227
-11.967157 -20.671700 2.287896 1.880790849211783e-38 1768976227
-11.814919 -20.408728 3.251817 1.880790849211783e-38 1768976227
-11.856838 -20.481138 3.127901 1.880790849211783e-38 1768976227
-11.794625 -20.373672 1.253966 1.880790849211783e-38 1768976227
-11.891294 -20.540655 1.147803 1.880790849211783e-38 1768976227
-11.836422 -20.445871 2.089047 1.880790849211783e-38 1768976227
-11.461783 -19.798733 1.920045 1.880790849211783e-38 1768976227
-11.699552 -20.209446 0.971772 1.880790849211783e-38 1768976227
-11.497516 -19.860455 0.847097 1.880790849211783e-38 1768976227
-11.696224 -20.203699 1.811383 1.880790849211783e-38 1768976227
-11.815256 -20.409311 1.680377 1.880790849211783e-38 1768976227
-11.989544 -20.710369 0.721920 1.880790849211783e-38 1768976227
-11.969287 -20.675379 0.603497 1.880790849211783e-38 1768976227
-11.946551 -20.636105 1.577194 1.880790849211783e-38 1768976227
-12.010507 -20.746580 1.433728 1.880790849211783e-38 1768976227
-11.926418 -20.601330 -0.425392 1.880790849211783e-38 1768976227
-11.996882 -20.723045 -0.560064 1.880790849211783e-38 1768976227
-11.846476 -20.463238 0.408802 1.880790849211783e-38 1768976227
-11.984358 -20.701408 0.291319 1.880790849211783e-38 1768976227
-11.598692 -20.035225 -0.683443 1.880790849211783e-38 1768976227
-12.246928 -21.154966 -0.841563 1.880790849211783e-38 1768976227
-11.796369 -20.376686 0.142361 1.880790849211783e-38 1768976227
-11.630097 -20.089472 0.016982 1.880790849211783e-38 1768976227
-11.731539 -20.264700 4.700788 1.880790849211783e-38 1768976227
-11.798388 -20.380171 4.482072 1.880790849211783e-38 1768976227
-11.640384 -20.107241 4.236825 1.880790849211783e-38 1768976227
-12.052206 -20.818611 4.170357 1.880790849211783e-38 1768976227
-12.021555 -20.765665 3.963558 1.880790849211783e-38 1768976227
-11.920596 -20.591272 3.721135 1.880790849211783e-38 1768976227
-11.852381 -20.331768 2.937346 1.880790849211783e-38 1768976227
-12.154172 -20.849466 2.888808 1.880790849211783e-38 1768976227
-11.849071 -20.326088 -0.136689 1.880790849211783e-38 1768976227
-11.924192 -20.454954 -0.273073 1.880790849211783e-38 1768976227
-11.812566 -20.263468 2.668571 1.880790849211783e-38 1768976227
-11.943892 -20.488747 2.533410 1.880790849211783e-38 1768976227
-12.070910 -20.706636 3.594137 1.880790849211783e-38 1768976227
-11.921353 -20.450083 3.394766 1.880790849211783e-38 1768976227
-11.890239 -20.396709 2.415855 1.880790849211783e-38 1768976227
-11.773179 -20.195904 2.239156 1.880790849211783e-38 1768976227
-11.992296 -20.571781 3.283545 1.880790849211783e-38 1768976227
-11.661670 -20.004620 3.060483 1.880790849211783e-38 1768976227
-11.919519 -20.446938 1.260682 1.880790849211783e-38 1768976227
-11.562694 -19.834835 1.110306 1.880790849211783e-38 1768976227
-12.035669 -20.646185 2.113213 1.880790849211783e-38 1768976227
-11.753744 -20.162563 1.958757 1.880790849211783e-38 1768976227
-12.201350 -20.930395 1.008204 1.880790849211783e-38 1768976227
-11.753235 -20.161692 0.861454 1.880790849211783e-38 1768976227
-11.784745 -20.215744 1.815641 1.880790849211783e-38 1768976227
-11.935994 -20.475201 1.688758 1.880790849211783e-38 1768976227
-11.871080 -20.363846 0.711086 1.880790849211783e-38 1768976227
-11.891907 -20.399574 0.596490 1.880790849211783e-38 1768976227
-12.060976 -20.689596 1.584055 1.880790849211783e-38 1768976227
-11.891923 -20.399597 1.412221 1.880790849211783e-38 1768976227
-12.185736 -20.903610 -0.432391 1.880790849211783e-38 1768976227
-11.881737 -20.382124 -0.551816 1.880790849211783e-38 1768976227
-11.559696 -19.829693 0.396840 1.880790849211783e-38 1768976227
-11.833083 -20.298664 0.286153 1.880790849211783e-38 1768976227
-11.655816 -19.994577 -0.683253 1.880790849211783e-38 1768976227
-11.801900 -20.245171 -0.806783 1.880790849211783e-38 1768976227
-11.931341 -20.467218 0.143245 1.880790849211783e-38 1768976227
-11.913864 -20.437237 0.017306 1.880790849211783e-38 1768976227
-11.746448 -20.150051 4.682390 1.880790849211783e-38 1768976227
-12.307878 -21.113136 4.651410 1.880790849211783e-38 1768976227
-11.840550 -20.311474 4.287365 1.880790849211783e-38 1768976227
-11.796685 -20.236229 4.060803 1.880790849211783e-38 1768976227
-11.921494 -20.450327 3.910214 1.880790849211783e-38 1768976227
-11.890232 -20.396698 3.692437 1.880790849211783e-38 1768976227
-12.045036 -20.519762 2.969741 1.880790849211783e-38 1768976227
-11.797071 -20.097330 2.789512 1.880790849211783e-38 1768976227
-11.969171 -20.390518 -0.137365 1.880790849211783e-38 1768976227
-12.071157 -20.564260 -0.275017 1.880790849211783e-38 1768976227
-12.140519 -20.682425 2.728555 1.880790849211783e-38 1768976227
-11.756487 -20.028191 2.480836 1.880790849211783e-38 1768976227
-12.023041 -20.482290 3.561475 1.880790849211783e-38 1768976227
-11.797416 -20.097919 3.342197 1.880790849211783e-38 1768976227
-12.085448 -20.588608 2.442890 1.880790849211783e-38 1768976227
-12.310753 -20.972431 2.329356 1.880790849211783e-38 1768976227
-11.948918 -20.356016 3.254843 1.880790849211783e-38 1768976227
-12.199387 -20.782711 3.185137 1.880790849211783e-38 1768976227
-11.836486 -20.164476 1.245462 1.880790849211783e-38 1768976227
-11.889683 -20.255102 1.135834 1.880790849211783e-38 1768976227
-11.853643 -20.193707 2.070550 1.880790849211783e-38 1768976227
-11.841461 -20.172955 1.963227 1.880790849211783e-38 1768976227
-11.942048 -20.344313 0.981703 1.880790849211783e-38 1768976227
-12.023618 -20.483271 0.876740 1.880790849211783e-38 1768976227
-12.149479 -20.697685 1.862208 1.880790849211783e-38 1768976227
-12.014687 -20.468058 1.691150 1.880790849211783e-38 1768976227
-12.329710 -21.004728 0.734760 1.880790849211783e-38 1768976227
-12.111386 -20.632795 0.604375 1.880790849211783e-38 1768976227
-12.211058 -20.802591 1.595519 1.880790849211783e-38 1768976227
-12.086237 -20.589949 1.427916 1.880790849211783e-38 1768976227
-12.090535 -20.597273 -0.426806 1.880790849211783e-38 1768976227
-11.957120 -20.369989 -0.552461 1.880790849211783e-38 1768976227
-12.366481 -21.067369 0.422354 1.880790849211783e-38 1768976227
-11.742168 -20.003799 0.282494 1.880790849211783e-38 1768976227
-12.248844 -20.866966 -0.714323 1.880790849211783e-38 1768976227
-11.979842 -20.408697 -0.814735 1.880790849211783e-38 1768976227
-11.775305 -20.060247 0.140644 1.880790849211783e-38 1768976227
-11.762167 -20.037868 0.016998 1.880790849211783e-38 1768976227
-11.869934 -20.221458 4.707282 1.880790849211783e-38 1768976227
-12.116762 -20.641953 4.555634 1.880790849211783e-38 1768976227
-12.228018 -20.831484 4.404894 1.880790849211783e-38 1768976227
-12.148833 -20.696589 4.160518 1.880790849211783e-38 1768976227
-12.136867 -20.676203 3.960384 1.880790849211783e-38 1768976227
-11.861610 -20.207279 3.664606 1.880790849211783e-38 1768976227
-12.119296 -20.504364 2.972789 1.880790849211783e-38 1768976227
-12.045982 -20.380327 2.833822 1.880790849211783e-38 1768976227
-11.980096 -20.268854 -0.136788 1.880790849211783e-38 1768976227
-12.208081 -20.654579 -0.276716 1.880790849211783e-38 1768976227
-12.200290 -20.641397 2.727984 1.880790849211783e-38 1768976227
-12.163190 -20.578629 2.553549 1.880790849211783e-38 1768976227
-12.296999 -20.805017 3.624022 1.880790849211783e-38 1768976227
-12.074606 -20.428757 3.403254 1.880790849211783e-38 1768976227
-12.033706 -20.359558 2.420008 1.880790849211783e-38 1768976227
-11.884548 -20.107201 2.237228 1.880790849211783e-38 1768976227
-12.232821 -20.696436 3.315159 1.880790849211783e-38 1768976227
-11.756873 -19.891190 3.053924 1.880790849211783e-38 1768976227
-12.116541 -20.499702 1.268419 1.880790849211783e-38 1768976227
-12.091202 -20.456833 1.149186 1.880790849211783e-38 1768976227
-12.015244 -20.328321 2.088059 1.880790849211783e-38 1768976227
-11.861384 -20.068010 1.956487 1.880790849211783e-38 1768976227
-12.346361 -20.888533 1.009756 1.880790849211783e-38 1768976227
-12.069562 -20.420221 0.875595 1.880790849211783e-38 1768976227
-12.044188 -20.377289 1.836642 1.880790849211783e-38 1768976227
-12.182253 -20.610882 1.705979 1.880790849211783e-38 1768976227
-11.851996 -20.052124 0.702685 1.880790849211783e-38 1768976227
-12.175256 -20.599043 0.604459 1.880790849211783e-38 1768976227
-11.867606 -20.078537 1.542724 1.880790849211783e-38 1768976227
-12.008284 -20.316545 1.411460 1.880790849211783e-38 1768976227
-12.087372 -20.450352 -0.424515 1.880790849211783e-38 1768976227
-12.041841 -20.373322 -0.553534 1.880790849211783e-38 1768976227
-12.172266 -20.593983 0.413598 1.880790849211783e-38 1768976227
-11.949872 -20.217720 0.286023 1.880790849211783e-38 1768976227
-12.228436 -20.689016 -0.709491 1.880790849211783e-38 1768976227
-12.184857 -20.615288 -0.824446 1.880790849211783e-38 1768976227
-12.290668 -20.794304 0.146050 1.880790849211783e-38 1768976227
-11.708003 -19.808508 0.016833 1.880790849211783e-38 1768976227
-11.990145 -20.285858 4.730669 1.880790849211783e-38 1768976227
-11.995786 -20.295401 4.487116 1.880790849211783e-38 1768976227
-12.128900 -20.520613 4.346874 1.880790849211783e-38 1768976227
-12.292357 -20.797165 4.188169 1.880790849211783e-38 1768976227
-12.063723 -20.410343 3.916412 1.880790849211783e-38 1768976227
-12.050882 -20.388618 3.704066 1.880790849211783e-38 1768976227
-11.962386 -20.100260 2.919418 1.880790849211783e-38 1768976227
-12.266932 -20.611986 2.871164 1.880790849211783e-38 1768976227
-12.076052 -20.291252 -0.137184 1.880790849211783e-38 1768976227
-12.015757 -20.189938 -0.270976 1.880790849211783e-38 1768976227
-12.131803 -20.384930 2.698912 1.880790849211783e-38 1768976227
-12.452971 -20.924585 2.601126 1.880790849211783e-38 1768976227
-12.166825 -20.443777 3.567473 1.880790849211783e-38 1768976227
-12.283735 -20.640221 3.444638 1.880790849211783e-38 1768976227
-12.278158 -20.630848 2.456645 1.880790849211783e-38 1768976227
-12.108655 -20.346033 2.267855 1.880790849211783e-38 1768976227
-12.212102 -20.519855 3.292758 1.880790849211783e-38 1768976227
-12.249349 -20.582439 3.165710 1.880790849211783e-38 1768976227
-12.370283 -20.785643 1.288414 1.880790849211783e-38 1768976227
-11.919009 -20.027372 1.127074 1.880790849211783e-38 1768976227
-12.175514 -20.458376 2.105180 1.880790849211783e-38 1768976227
-12.079981 -20.297852 1.982437 1.880790849211783e-38 1768976227
-11.793543 -19.816555 0.959652 1.880790849211783e-38 1768976227
-11.959979 -20.096216 0.863245 1.880790849211783e-38 1768976227
-12.069703 -20.280582 1.831198 1.880790849211783e-38 1768976227
-12.286622 -20.645069 1.711867 1.880790849211783e-38 1768976227
-12.137559 -20.394600 0.715965 1.880790849211783e-38 1768976227
-12.210833 -20.517721 0.603151 1.880790849211783e-38 1768976227
-12.166210 -20.442743 1.573519 1.880790849211783e-38 1768976227
-12.124025 -20.371861 1.417837 1.880790849211783e-38 1768976227
-12.289835 -20.650467 -0.429437 1.880790849211783e-38 1768976227
-12.138634 -20.396406 -0.555153 1.880790849211783e-38 1768976227
-11.992529 -20.150909 0.405424 1.880790849211783e-38 1768976227
-12.312187 -20.688026 0.293200 1.880790849211783e-38 1768976227
-12.339051 -20.733164 -0.712278 1.880790849211783e-38 1768976227
-12.051199 -20.249489 -0.811267 1.880790849211783e-38 1768976227
-12.020469 -20.197855 0.142115 1.880790849211783e-38 1768976227
-11.856042 -19.921572 0.016959 1.880790849211783e-38 1768976227
-11.787480 -19.806368 4.627121 1.880790849211783e-38 1768976227
-12.333533 -20.723894 4.590054 1.880790849211783e-38 1768976227
-11.954738 -20.087410 4.262727 1.880790849211783e-38 1768976227
-12.106876 -20.343046 4.104052 1.880790849211783e-38 1768976227
-11.849260 -19.910175 3.827277 1.880790849211783e-38 1768976227
-12.099572 -20.330772 3.700170 1.880790849211783e-38 1768976227
-12.351445 -20.612278 2.999182 1.880790849211783e-38 1768976227
-12.090712 -20.177164 2.815662 1.880790849211783e-38 1768976227
-12.165168 -20.301418 -0.137500 1.880790849211783e-38 1768976227
-12.025584 -20.068480 -0.269831 1.880790849211783e-38 1768976227
-12.019230 -20.057875 2.660398 1.880790849211783e-38 1768976227
-12.140119 -20.259617 2.523004 1.880790849211783e-38 1768976227
-12.254206 -20.450006 3.574994 1.880790849211783e-38 1768976227
-12.364785 -20.634544 3.449899 1.880790849211783e-38 1768976227
-12.171987 -20.312796 2.423133 1.880790849211783e-38 1768976227
-12.235469 -20.418739 2.280062 1.880790849211783e-38 1768976227
-12.325984 -20.569790 3.306722 1.880790849211783e-38 1768976227
-12.151547 -20.278688 3.124614 1.880790849211783e-38 1768976227
-12.241770 -20.429255 1.268605 1.880790849211783e-38 1768976227
-12.136193 -20.253065 1.141830 1.880790849211783e-38 1768976227
-12.139668 -20.258865 2.088408 1.880790849211783e-38 1768976227
-12.202763 -20.364159 1.992499 1.880790849211783e-38 1768976227
-12.075181 -20.151247 0.977619 1.880790849211783e-38 1768976227
-12.200202 -20.359884 0.876147 1.880790849211783e-38 1768976227
-12.287565 -20.505676 1.854860 1.880790849211783e-38 1768976227
-12.325598 -20.569147 1.708647 1.880790849211783e-38 1768976227
-12.422958 -20.731623 0.729109 1.880790849211783e-38 1768976227
-12.438307 -20.757238 0.611292 1.880790849211783e-38 1768976227
-11.964292 -19.966194 1.539609 1.880790849211783e-38 1768976227
-12.485017 -20.835188 1.452698 1.880790849211783e-38 1768976227
-12.237229 -20.421675 -0.425445 1.880790849211783e-38 1768976227
-12.444373 -20.767363 -0.566269 1.880790849211783e-38 1768976227
-12.377029 -20.654976 0.416314 1.880790849211783e-38 1768976227
-12.292320 -20.513613 0.291252 1.880790849211783e-38 1768976227
-12.098801 -20.190662 -0.694891 1.880790849211783e-38 1768976227
-12.084622 -20.167006 -0.809419 1.880790849211783e-38 1768976227
-12.442658 -20.764498 0.146365 1.880790849211783e-38 1768976227
-11.778786 -19.656618 0.016764 1.880790849211783e-38 1768976227
-12.379173 -20.658556 4.834907 1.880790849211783e-38 1768976227
-12.366356 -20.637165 4.579085 1.880790849211783e-38 1768976227
-12.122056 -20.229473 4.300612 1.880790849211783e-38 1768976227
-12.043508 -20.098391 4.062005 1.880790849211783e-38 1768976227
-12.081973 -20.162580 3.882783 1.880790849211783e-38 1768976227
-12.165788 -20.302454 3.701677 1.880790849211783e-38 1768976227
-12.502607 -20.722534 3.020697 1.880790849211783e-38 1768976227
-12.380643 -20.520384 2.868755 1.880790849211783e-38 1768976227
-12.378833 -20.517384 -0.139215 1.880790849211783e-38 1768976227
-12.618124 -20.913996 -0.281710 1.880790849211783e-38 1768976227
-12.151652 -20.140844 2.676252 1.880790849211783e-38 1768976227
-12.197478 -20.216797 2.522242 1.880790849211783e-38 1768976227
-12.163200 -20.159983 3.530690 1.880790849211783e-38 1768976227
-12.249687 -20.303329 3.400684 1.880790849211783e-38 1768976227
-12.124933 -20.096556 2.401689 1.880790849211783e-38 1768976227
-12.187660 -20.200523 2.259789 1.880790849211783e-38 1768976227
-12.455583 -20.644594 3.324770 1.880790849211783e-38 1768976227
-12.349083 -20.468077 3.159520 1.880790849211783e-38 1768976227
-12.397995 -20.549143 1.278367 1.880790849211783e-38 1768976227
-12.337855 -20.449467 1.154996 1.880790849211783e-38 1768976227
-12.220270 -20.254574 2.091756 1.880790849211783e-38 1768976227
-12.424281 -20.592714 2.018518 1.880790849211783e-38 1768976227
-12.468930 -20.666719 1.004446 1.880790849211783e-38 1768976227
-12.216241 -20.247894 0.872910 1.880790849211783e-38 1768976227
-12.403311 -20.557953 1.862964 1.880790849211783e-38 1768976227
-12.173451 -20.176973 1.679112 1.880790849211783e-38 1768976227
-12.201358 -20.223227 0.712520 1.880790849211783e-38 1768976227
-12.181755 -20.190735 0.595688 1.880790849211783e-38 1768976227
-12.230182 -20.271000 1.565950 1.880790849211783e-38 1768976227
-12.371082 -20.504538 1.432239 1.880790849211783e-38 1768976227
-12.161162 -20.156605 -0.420685 1.880790849211783e-38 1768976227
-12.494118 -20.708464 -0.565688 1.880790849211783e-38 1768976227
-12.285055 -20.361952 0.411153 1.880790849211783e-38 1768976227
-12.196339 -20.214907 0.287532 1.880790849211783e-38 1768976227
-12.435040 -20.610544 -0.710629 1.880790849211783e-38 1768976227
-12.122900 -20.093185 -0.807920 1.880790849211783e-38 1768976227
-12.197274 -20.216459 0.142761 1.880790849211783e-38 1768976227
-12.382391 -20.523281 0.017535 1.880790849211783e-38 1768976227
-12.206641 -20.231983 4.743668 1.880790849211783e-38 1768976227
-12.438595 -20.616438 4.582788 1.880790849211783e-38 1768976227
-11.970345 -19.840334 4.225541 1.880790849211783e-38 1768976227
-12.095541 -20.047842 4.059143 1.880790849211783e-38 1768976227
-12.229541 -20.269939 3.910543 1.880790849211783e-38 1768976227
-11.939721 -19.789577 3.614715 1.880790849211783e-38 1768976227
-12.376523 -20.374378 2.975375 1.880790849211783e-38 1768976227
-12.319342 -20.280249 2.840365 1.880790849211783e-38 1768976227
-12.484825 -20.552666 -0.139709 1.880790849211783e-38 1768976227
-12.263227 -20.187868 -0.272426 1.880790849211783e-38 1768976227
-12.259189 -20.181221 2.686518 1.880790849211783e-38 1768976227
-12.178965 -20.049156 2.505898 1.880790849211783e-38 1768976227
-12.326715 -20.292381 3.560372 1.880790849211783e-38 1768976227
-12.330083 -20.297930 3.405993 1.880790849211783e-38 1768976227
-12.048156 -19.833817 2.374621 1.880790849211783e-38 1768976227
-12.232675 -20.137575 2.256864 1.880790849211783e-38 1768976227
-12.543409 -20.649109 3.331575 1.880790849211783e-38 1768976227
-12.231410 -20.135492 3.113862 1.880790849211783e-38 1768976227
-12.176341 -20.044838 1.249272 1.880790849211783e-38 1768976227
-12.299583 -20.247721 1.145691 1.880790849211783e-38 1768976227
-12.321447 -20.283712 2.098593 1.880790849211783e-38 1768976227
-12.687029 -20.885538 2.050963 1.880790849211783e-38 1768976227
-12.684862 -20.881973 1.016763 1.880790849211783e-38 1768976227
-12.317318 -20.276913 0.875758 1.880790849211783e-38 1768976227
-12.382003 -20.383398 1.850521 1.880790849211783e-38 1768976227
-12.272573 -20.203253 1.684371 1.880790849211783e-38 1768976227
-12.182508 -20.054991 0.707884 1.880790849211783e-38 1768976227
-12.251947 -20.169300 0.596143 1.880790849211783e-38 1768976227
-12.264092 -20.189295 1.562488 1.880790849211783e-38 1768976227
-12.189031 -20.065727 1.404149 1.880790849211783e-38 1768976227
-12.320477 -20.282116 -0.424078 1.880790849211783e-38 1768976227
-12.379502 -20.379284 -0.557713 1.880790849211783e-38 1768976227
-12.411196 -20.431458 0.413311 1.880790849211783e-38 1768976227
-12.271025 -20.200705 0.287855 1.880790849211783e-38 1768976227
-12.090513 -19.903545 -0.687507 1.880790849211783e-38 1768976227
-12.019251 -19.786234 -0.797032 1.880790849211783e-38 1768976227
-12.438183 -20.475883 0.144857 1.880790849211783e-38 1768976227
-12.340597 -20.315239 0.017389 1.880790849211783e-38 1768976227
-12.571239 -20.694921 4.861077 1.880790849211783e-38 1768976227
-12.407102 -20.424717 4.548469 1.880790849211783e-38 1768976227
-12.408686 -20.427326 4.358508 1.880790849211783e-38 1768976227
-12.101927 -19.922335 4.041103 1.880790849211783e-38 1768976227
-12.392119 -20.400057 3.942838 1.880790849211783e-38 1768976227
-12.209614 -20.099613 3.678055 1.880790849211783e-38 1768976227
-12.445280 -20.349010 2.977137 1.880790849211783e-38 1768976227
-12.298670 -20.109293 2.821604 1.880790849211783e-38 1768976227
-12.204224 -19.954865 -0.135895 1.880790849211783e-38 1768976227
-12.447410 -20.352493 -0.275153 1.880790849211783e-38 1768976227
-12.378160 -20.239264 2.699201 1.880790849211783e-38 1768976227
-12.385807 -20.251766 2.535879 1.880790849211783e-38 1768976227
-12.540713 -20.505051 3.604305 1.880790849211783e-38 1768976227
-12.445365 -20.349148 3.420870 1.880790849211783e-38 1768976227
-12.575336 -20.561661 2.466293 1.880790849211783e-38 1768976227
-12.436245 -20.334236 2.283097 1.880790849211783e-38 1768976227
-12.527325 -20.483162 3.310881 1.880790849211783e-38 1768976227
-12.558116 -20.533506 3.181255 1.880790849211783e-38 1768976227
-12.490607 -20.423126 1.275191 1.880790849211783e-38 1768976227
-12.365667 -20.218838 1.146161 1.880790849211783e-38 1768976227
-12.284726 -20.086493 2.082012 1.880790849211783e-38 1768976227
-12.279542 -20.078014 1.975291 1.880790849211783e-38 1768976227
-12.408142 -20.288286 0.989673 1.880790849211783e-38 1768976227
-12.586281 -20.579559 0.890465 1.880790849211783e-38 1768976227
-12.365507 -20.218576 1.838935 1.880790849211783e-38 1768976227
-12.400859 -20.276379 1.693578 1.880790849211783e-38 1768976227
-12.606647 -20.612856 0.728913 1.880790849211783e-38 1768976227
-12.552311 -20.524015 0.607743 1.880790849211783e-38 1768976227
-12.281644 -20.081453 1.557002 1.880790849211783e-38 1768976227
-12.774579 -20.887442 1.464340 1.880790849211783e-38 1768976227
-12.289363 -20.094072 -0.420919 1.880790849211783e-38 1768976227
-12.661963 -20.703302 -0.567623 1.880790849211783e-38 1768976227
-12.767488 -20.875845 0.423077 1.880790849211783e-38 1768976227
-12.139386 -19.848850 0.283362 1.880790849211783e-38 1768976227
-12.624829 -20.642588 -0.714347 1.880790849211783e-38 1768976227
-12.329931 -20.160406 -0.813598 1.880790849211783e-38 1768976227
-12.664993 -20.708260 0.146770 1.880790849211783e-38 1768976227
-12.087018 -19.763224 0.016948 1.880790849211783e-38 1768976227
-12.242319 -20.017153 4.710525 1.880790849211783e-38 1768976227
-12.398927 -20.273220 4.523038 1.880790849211783e-38 1768976227
-12.068991 -19.733747 4.218268 1.880790849211783e-38 1768976227
-12.660180 -20.700390 4.206651 1.880790849211783e-38 1768976227
-12.391587 -20.261219 3.923209 1.880790849211783e-38 1768976227
-12.398992 -20.273325 3.716668 1.880790849211783e-38 1768976227
-12.524661 -20.340721 2.981438 1.880790849211783e-38 1768976227
-12.433757 -20.193089 2.838610 1.880790849211783e-38 1768976227
-12.338536 -20.038446 -0.136717 1.880790849211783e-38 1768976227
-12.525196 -20.341593 -0.275515 1.880790849211783e-38 1768976227
-12.503428 -20.306236 2.713150 1.880790849211783e-38 1768976227
-12.718019 -20.654747 2.591130 1.880790849211783e-38 1768976227
-12.480654 -20.269251 3.569457 1.880790849211783e-38 1768976227
-12.555044 -20.390064 3.434098 1.880790849211783e-38 1768976227
-12.453517 -20.225180 2.430427 1.880790849211783e-38 1768976227
-12.513307 -20.322283 2.285982 1.880790849211783e-38 1768976227
-12.517309 -20.328781 3.292015 1.880790849211783e-38 1768976227
-12.502274 -20.304365 3.151582 1.880790849211783e-38 1768976227
-12.518637 -20.330938 1.271786 1.880790849211783e-38 1768976227
-12.409401 -20.153532 1.144576 1.880790849211783e-38 1768976227
-12.375193 -20.097977 2.087061 1.880790849211783e-38 1768976227
-12.515171 -20.325312 2.003325 1.880790849211783e-38 1768976227
-12.444116 -20.209911 0.987676 1.880790849211783e-38 1768976227
-12.771528 -20.741648 0.899141 1.880790849211783e-38 1768976227
-12.305090 -19.984125 1.820979 1.880790849211783e-38 1768976227
-12.394825 -20.129864 1.684455 1.880790849211783e-38 1768976227
-12.542679 -20.369982 0.721659 1.880790849211783e-38 1768976227
