# .PCD v0.7 - Point Cloud Data file format
VERSION 0.7
FIELDS x y z rgb label
SIZE 4 4 4 4 4
TYPE F F F F U
COUNT 1 1 1 1 1
WIDTH 752
HEIGHT 1
VIEWPOINT 0 0 0 1 0 0 0
POINTS 752
DATA ascii
-29.561144 -9.179657 5.644634 1.880790849211783e-38 1768976227
-30.086815 -9.342896 5.461654 1.880790849211783e-38 1768976227
-37.678074 -11.700218 9.275257 1.880790849211783e-38 1768976227
-38.794537 -12.046915 9.300986 1.880790849211783e-38 1768976227
-30.128458 -9.355826 5.211260 1.880790849211783e-38 1768976227
-30.791952 -9.561863 5.042617 1.880790849211783e-38 1768976227
-26.435873 -8.209164 6.072051 1.880790849211783e-38 1768976227
-27.364777 -8.497617 6.074549 1.880790849211783e-38 1768976227
-39.324272 -12.081496 5.134542 1.880790849211783e-38 1768976227
-39.882530 -12.253008 4.994216 1.880790849211783e-38 1768976227
-40.075615 -12.312328 4.769865 1.880790849211783e-38 1768976227
-35.827507 -11.007195 4.003756 1.880790849211783e-38 1768976227
-30.843180 -9.475872 4.838439 1.880790849211783e-38 1768976227
-30.639305 -9.413236 4.596789 1.880790849211783e-38 1768976227
-37.351269 -11.475336 3.998316 1.880790849211783e-38 1768976227
-37.768417 -11.603496 3.784519 1.880790849211783e-38 1768976227
-30.672607 -9.423468 4.424689 1.880790849211783e-38 1768976227
-38.816654 -11.925544 5.367089 1.880790849211783e-38 1768976227
-39.844955 -12.241464 2.220299 1.880790849211783e-38 1768976227
-38.407906 -11.799963 3.552917 1.880790849211783e-38 1768976227
-38.415886 -11.802415 3.372924 1.880790849211783e-38 1768976227
-38.536617 -11.839507 3.128058 1.880790849211783e-38 1768976227
-38.594059 -11.857155 2.876873 1.880790849211783e-38 1768976227
-38.646942 -11.873403 2.674203 1.880790849211783e-38 1768976227
-39.236088 -12.054403 2.454865 1.880790849211783e-38 1768976227
-26.627695 -8.180758 11.605322 1.880790849211783e-38 1768976227
-26.817316 -8.239015 11.458574 1.880790849211783e-38 1768976227
-30.164589 -9.267390 6.335047 1.880790849211783e-38 1768976227
-40.103733 -12.320969 7.985051 1.880790849211783e-38 1768976227
-27.333437 -8.397581 11.404382 1.880790849211783e-38 1768976227
-27.765125 -8.530208 11.263876 1.880790849211783e-38 1768976227
-27.400351 -8.418139 13.301461 1.880790849211783e-38 1768976227
-27.433395 -8.428291 12.936179 1.880790849211783e-38 1768976227
-28.060947 -8.621092 11.071851 1.880790849211783e-38 1768976227
-27.983690 -8.597358 10.664364 1.880790849211783e-38 1768976227
-27.976826 -8.595249 12.875350 1.880790849211783e-38 1768976227
-25.423058 -7.810662 11.324943 1.880790849211783e-38 1768976227
-33.222626 -10.206902 10.238247 1.880790849211783e-38 1768976227
-39.211529 -12.046857 11.773603 1.880790849211783e-38 1768976227
-28.959778 -8.897240 10.683347 1.880790849211783e-38 1768976227
-28.832890 -8.858255 10.445398 1.880790849211783e-38 1768976227
-30.286236 -9.304763 8.782829 1.880790849211783e-38 1768976227
-29.916700 -9.191232 8.394175 1.880790849211783e-38 1768976227
-28.511215 -8.759428 10.066695 1.880790849211783e-38 1768976227
-29.015963 -8.914500 9.953279 1.880790849211783e-38 1768976227
-32.473534 -9.976762 8.764367 1.880790849211783e-38 1768976227
-36.604881 -11.246024 9.425379 1.880790849211783e-38 1768976227
-28.555872 -8.773148 9.471808 1.880790849211783e-38 1768976227
-29.317739 -9.007215 9.373425 1.880790849211783e-38 1768976227
-28.379948 -8.719099 5.414042 1.880790849211783e-38 1768976227
-29.944366 -9.199732 5.430734 1.880790849211783e-38 1768976227
-37.726276 -11.590549 9.278476 1.880790849211783e-38 1768976227
-39.096973 -12.011663 9.364767 1.880790849211783e-38 1768976227
-30.594097 -9.399347 5.286874 1.880790849211783e-38 1768976227
-30.711830 -9.435517 5.024813 1.880790849211783e-38 1768976227
-26.638063 -8.183945 6.112795 1.880790849211783e-38 1768976227
-27.334267 -8.397839 6.062126 1.880790849211783e-38 1768976227
-39.308681 -11.947082 5.127778 1.880790849211783e-38 1768976227
-39.663883 -12.055037 4.962261 1.880790849211783e-38 1768976227
-39.538494 -12.016929 4.701601 1.880790849211783e-38 1768976227
-35.945133 -10.924799 4.013201 1.880790849211783e-38 1768976227
-30.557283 -9.287271 4.789174 1.880790849211783e-38 1768976227
-29.935881 -9.098407 4.487118 1.880790849211783e-38 1768976227
-36.872375 -11.206614 3.943416 1.880790849211783e-38 1768976227
-37.383602 -11.361992 3.742508 1.880790849211783e-38 1768976227
-31.890230 -9.692392 4.596099 1.880790849211783e-38 1768976227
-39.213207 -11.918063 5.416925 1.880790849211783e-38 1768976227
-37.850235 -11.503816 3.498104 1.880790849211783e-38 1768976227
-38.103680 -11.580845 3.342431 1.880790849211783e-38 1768976227
-38.251213 -11.625686 3.102031 1.880790849211783e-38 1768976227
-38.401932 -11.671494 2.859914 1.880790849211783e-38 1768976227
-38.589958 -11.728639 2.667800 1.880790849211783e-38 1768976227
-39.507359 -12.007464 2.469561 1.880790849211783e-38 1768976227
-26.577225 -8.077611 11.572654 1.880790849211783e-38 1768976227
-26.801933 -8.145906 11.441452 1.880790849211783e-38 1768976227
-29.822412 -9.063921 6.257415 1.880790849211783e-38 1768976227
-39.949730 -12.141914 7.947060 1.880790849211783e-38 1768976227
-26.955811 -8.192675 11.236465 1.880790849211783e-38 1768976227
-28.094524 -8.538763 11.387009 1.880790849211783e-38 1768976227
-27.200951 -8.267179 13.192497 1.880790849211783e-38 1768976227
-27.446203 -8.341720 12.930297 1.880790849211783e-38 1768976227
-28.218710 -8.576508 11.123841 1.880790849211783e-38 1768976227
-28.837069 -8.764444 10.979456 1.880790849211783e-38 1768976227
-27.935781 -8.490517 12.844618 1.880790849211783e-38 1768976227
-26.015953 -7.907024 11.578378 1.880790849211783e-38 1768976227
-33.639149 -10.223941 10.357059 1.880790849211783e-38 1768976227
-39.675705 -12.058630 11.902002 1.880790849211783e-38 1768976227
-28.285301 -8.596746 10.424918 1.880790849211783e-38 1768976227
-28.709782 -8.725760 10.391218 1.880790849211783e-38 1768976227
-30.444012 -9.252843 8.820451 1.880790849211783e-38 1768976227
-29.695154 -9.025243 8.324336 1.880790849211783e-38 1768976227
-28.510372 -8.665152 10.057124 1.880790849211783e-38 1768976227
-28.586988 -8.688437 9.797094 1.880790849211783e-38 1768976227
-32.419006 -9.853103 8.741590 1.880790849211783e-38 1768976227
-38.450325 -11.686201 9.891441 1.880790849211783e-38 1768976227
-29.460508 -8.953927 9.762869 1.880790849211783e-38 1768976227
-29.261061 -8.893310 9.346686 1.880790849211783e-38 1768976227
-28.391552 -8.629039 5.411266 1.880790849211783e-38 1768976227
-30.533312 -9.279984 5.532444 1.880790849211783e-38 1768976227
-37.982834 -11.544117 9.332969 1.880790849211783e-38 1768976227
-29.322929 -8.912113 7.017153 1.880790849211783e-38 1768976227
-30.600183 -9.300307 5.283054 1.880790849211783e-38 1768976227
-31.075117 -9.444656 5.079568 1.880790849211783e-38 1768976227
-26.012819 -7.906070 5.963817 1.880790849211783e-38 1768976227
-27.153702 -8.252820 6.016533 1.880790849211783e-38 1768976227
-39.298145 -11.814527 5.121732 1.880790849211783e-38 1768976227
-39.554779 -11.891680 4.944101 1.880790849211783e-38 1768976227
-39.865608 -11.985126 4.736178 1.880790849211783e-38 1768976227
-35.996952 -10.822061 4.015323 1.880790849211783e-38 1768976227
-30.770678 -9.250843 4.818223 1.880790849211783e-38 1768976227
-30.496630 -9.168453 4.567004 1.880790849211783e-38 1768976227
-36.780529 -11.057634 3.930009 1.880790849211783e-38 1768976227
-37.243221 -11.196737 3.725057 1.880790849211783e-38 1768976227
-32.224148 -9.687811 4.639992 1.880790849211783e-38 1768976227
-38.888931 -11.691501 5.367234 1.880790849211783e-38 1768976227
-37.952801 -11.410064 3.504387 1.880790849211783e-38 1768976227
-38.705360 -11.636312 3.392116 1.880790849211783e-38 1768976227
-38.539284 -11.586382 3.122545 1.880790849211783e-38 1768976227
-38.953918 -11.711039 2.898379 1.880790849211783e-38 1768976227
-39.238747 -11.796667 2.710180 1.880790849211783e-38 1768976227
-26.399044 -7.936562 11.484592 1.880790849211783e-38 1768976227
-26.847738 -8.071457 11.450562 1.880790849211783e-38 1768976227
-30.394539 -9.137760 6.371648 1.880790849211783e-38 1768976227
-40.313541 -12.119793 8.012124 1.880790849211783e-38 1768976227
-27.438904 -8.249184 11.427418 1.880790849211783e-38 1768976227
-27.937120 -8.398967 11.312893 1.880790849211783e-38 1768976227
-27.032856 -8.127110 13.099024 1.880790849211783e-38 1768976227
-26.949627 -8.102088 12.684782 1.880790849211783e-38 1768976227
-27.909164 -8.390562 10.991793 1.880790849211783e-38 1768976227
-28.501308 -8.568584 10.841729 1.880790849211783e-38 1768976227
-27.430056 -8.246523 12.600595 1.880790849211783e-38 1768976227
-26.069527 -7.837496 11.591647 1.880790849211783e-38 1768976227
-34.071198 -10.243105 10.480522 1.880790849211783e-38 1768976227
-40.093300 -12.053579 12.016314 1.880790849211783e-38 1768976227
-28.634857 -8.608732 10.544133 1.880790849211783e-38 1768976227
-28.504591 -8.569571 10.307550 1.880790849211783e-38 1768976227
-30.610615 -9.202721 8.860638 1.880790849211783e-38 1768976227
-29.817440 -8.964263 8.351000 1.880790849211783e-38 1768976227
-28.827572 -8.666671 10.159751 1.880790849211783e-38 1768976227
-28.733500 -8.638390 9.838333 1.880790849211783e-38 1768976227
-32.459679 -9.758619 8.744581 1.880790849211783e-38 1768976227
-38.276230 -11.507299 9.837682 1.880790849211783e-38 1768976227
-29.128363 -8.757100 9.644003 1.880790849211783e-38 1768976227
-29.197617 -8.777920 9.317922 1.880790849211783e-38 1768976227
-28.335966 -8.518875 5.395750 1.880790849211783e-38 1768976227
-30.173435 -9.071289 5.462255 1.880790849211783e-38 1768976227
-30.191717 -9.076784 7.411810 1.880790849211783e-38 1768976227
-29.033407 -8.728553 6.941537 1.880790849211783e-38 1768976227
-30.586004 -9.195324 5.275794 1.880790849211783e-38 1768976227
-30.540253 -9.181568 4.987589 1.880790849211783e-38 1768976227
-26.406715 -7.938868 6.048607 1.880790849211783e-38 1768976227
-27.029951 -8.126237 5.983656 1.880790849211783e-38 1768976227
-39.346363 -11.699766 5.123395 1.880790849211783e-38 1768976227
-39.518799 -11.751040 4.935153 1.880790849211783e-38 1768976227
-40.047539 -11.908261 4.753505 1.880790849211783e-38 1768976227
-36.139935 -10.746322 4.027639 1.880790849211783e-38 1768976227
-30.665388 -9.118450 4.797410 1.880790849211783e-38 1768976227
-30.511003 -9.072543 4.565038 1.880790849211783e-38 1768976227
-36.707874 -10.915202 3.918711 1.880790849211783e-38 1768976227
-37.112423 -11.035497 3.708630 1.880790849211783e-38 1768976227
-33.041584 -9.825020 4.753408 1.880790849211783e-38 1768976227
-39.552868 -11.761170 5.453948 1.880790849211783e-38 1768976227
-37.565643 -11.170261 3.465512 1.880790849211783e-38 1768976227
-38.103039 -11.330059 3.336319 1.880790849211783e-38 1768976227
-38.590816 -11.475100 3.123902 1.880790849211783e-38 1768976227
-38.738941 -11.519147 2.879786 1.880790849211783e-38 1768976227
-38.691738 -11.505109 2.669991 1.880790849211783e-38 1768976227
-27.088034 -8.054711 11.773709 1.880790849211783e-38 1768976227
-27.629938 -8.215848 11.773550 1.880790849211783e-38 1768976227
-30.279671 -9.003757 6.341848 1.880790849211783e-38 1768976227
-40.322037 -11.989885 8.006591 1.880790849211783e-38 1768976227
-27.686882 -8.232780 11.520301 1.880790849211783e-38 1768976227
-27.791449 -8.263874 11.243762 1.880790849211783e-38 1768976227
-26.847481 -7.983183 12.997475 1.880790849211783e-38 1768976227
-27.536434 -8.188045 12.949303 1.880790849211783e-38 1768976227
-28.180452 -8.379544 11.088634 1.880790849211783e-38 1768976227
-28.278988 -8.408847 10.747465 1.880790849211783e-38 1768976227
-27.593010 -8.204867 12.664029 1.880790849211783e-38 1768976227
-26.503345 -7.880852 11.773922 1.880790849211783e-38 1768976227
-39.311672 -11.689448 12.081629 1.880790849211783e-38 1768976227
-40.132404 -11.933496 12.017194 1.880790849211783e-38 1768976227
-28.898333 -8.593010 10.631563 1.880790849211783e-38 1768976227
-28.935705 -8.604124 10.454016 1.880790849211783e-38 1768976227
-30.049322 -8.935260 8.690326 1.880790849211783e-38 1768976227
-29.603432 -8.802674 8.283590 1.880790849211783e-38 1768976227
-29.321770 -8.718921 10.324609 1.880790849211783e-38 1768976227
-28.968569 -8.613895 9.909881 1.880790849211783e-38 1768976227
-29.284533 -8.707848 7.882093 1.880790849211783e-38 1768976227
-30.712749 -9.132534 7.886617 1.880790849211783e-38 1768976227
-29.031174 -8.632510 9.603163 1.880790849211783e-38 1768976227
-29.224487 -8.689993 9.318091 1.880790849211783e-38 1768976227
-27.886148 -8.292034 5.305310 1.880790849211783e-38 1768976227
-30.385277 -9.035158 5.495647 1.880790849211783e-38 1768976227
-30.466145 -9.059204 7.472439 1.880790849211783e-38 1768976227
-29.042484 -8.635875 6.937450 1.880790849211783e-38 1768976227
-30.083647 -8.945469 5.184466 1.880790849211783e-38 1768976227
-30.912947 -9.192062 5.043905 1.880790849211783e-38 1768976227
-30.319550 -9.015613 6.938605 1.880790849211783e-38 1768976227
-27.314476 -8.122045 6.041192 1.880790849211783e-38 1768976227
-39.214111 -11.531828 5.101622 1.880790849211783e-38 1768976227
-39.154919 -11.514421 4.885352 1.880790849211783e-38 1768976227
-39.643978 -11.658239 4.701409 1.880790849211783e-38 1768976227
-36.399632 -10.704163 4.052966 1.880790849211783e-38 1768976227
-30.552809 -8.984768 4.775536 1.880790849211783e-38 1768976227
-30.661739 -9.016802 4.583501 1.880790849211783e-38 1768976227
-36.430569 -10.713262 3.885640 1.880790849211783e-38 1768976227
-37.400288 -10.998430 3.734064 1.880790849211783e-38 1768976227
-33.309814 -9.795530 4.787724 1.880790849211783e-38 1768976227
-38.784763 -11.405566 5.343266 1.880790849211783e-38 1768976227
-37.217823 -10.944773 3.430364 1.880790849211783e-38 1768976227
-37.772335 -11.107839 3.304414 1.880790849211783e-38 1768976227
-38.630932 -11.360329 3.124361 1.880790849211783e-38 1768976227
-38.816708 -11.414963 2.882994 1.880790849211783e-38 1768976227
-27.410608 -8.060730 11.903295 1.880790849211783e-38 1768976227
-27.466980 -8.077308 11.693677 1.880790849211783e-38 1768976227
-29.788979 -8.760147 6.233514 1.880790849211783e-38 1768976227
-40.141476 -11.804540 7.963631 1.880790849211783e-38 1768976227
-27.694889 -8.144329 11.513359 1.880790849211783e-38 1768976227
-28.237070 -8.303771 11.413866 1.880790849211783e-38 1768976227
-26.730345 -7.860684 12.929231 1.880790849211783e-38 1768976227
-27.584923 -8.111991 12.960541 1.880790849211783e-38 1768976227
-27.753157 -8.161464 10.910764 1.880790849211783e-38 1768976227
-28.130650 -8.272475 10.681558 1.880790849211783e-38 1768976227
-27.850006 -8.189945 12.770584 1.880790849211783e-38 1768976227
-26.693106 -7.849732 11.847651 1.880790849211783e-38 1768976227
-29.804367 -8.764672 9.151589 1.880790849211783e-38 1768976227
-29.549900 -8.689840 8.840494 1.880790849211783e-38 1768976227
-29.098074 -8.556971 10.695503 1.880790849211783e-38 1768976227
-28.590033 -8.407568 10.319921 1.880790849211783e-38 1768976227
-29.061728 -8.546281 8.397219 1.880790849211783e-38 1768976227
-29.389509 -8.642673 8.216399 1.880790849211783e-38 1768976227
-28.707783 -8.442196 10.099403 1.880790849211783e-38 1768976227
-29.357100 -8.633142 10.033840 1.880790849211783e-38 1768976227
-30.834887 -9.067720 8.291981 1.880790849211783e-38 1768976227
-30.098841 -8.851269 7.722083 1.880790849211783e-38 1768976227
-28.890856 -8.496032 9.548227 1.880790849211783e-38 1768976227
-29.653933 -8.720434 9.446589 1.880790849211783e-38 1768976227
-28.374435 -8.344168 5.393394 1.880790849211783e-38 1768976227
-30.804192 -9.058695 5.566447 1.880790849211783e-38 1768976227
-39.824696 -11.711385 9.759107 1.880790849211783e-38 1768976227
-28.554268 -8.397052 6.814748 1.880790849211783e-38 1768976227
-30.263533 -8.899700 5.210817 1.880790849211783e-38 1768976227
-31.080727 -9.140016 5.066760 1.880790849211783e-38 1768976227
-29.954603 -8.808852 6.848976 1.880790849211783e-38 1768976227
-29.836506 -8.774123 6.593111 1.880790849211783e-38 1768976227
-38.924133 -11.319118 5.059432 1.880790849211783e-38 1768976227
-39.484653 -11.482117 4.922150 1.880790849211783e-38 1768976227
-39.612286 -11.519233 4.693509 1.880790849211783e-38 1768976227
-35.981709 -10.463463 4.002899 1.880790849211783e-38 1768976227
-30.688745 -8.924272 4.792554 1.880790849211783e-38 1768976227
-30.220306 -8.788050 4.513531 1.880790849211783e-38 1768976227
-37.102379 -10.789352 3.953806 1.880790849211783e-38 1768976227
-37.801785 -10.992741 3.770823 1.880790849211783e-38 1768976227
-33.047153 -9.610095 4.745784 1.880790849211783e-38 1768976227
-39.367962 -11.448183 5.418830 1.880790849211783e-38 1768976227
-37.587669 -10.930474 3.461399 1.880790849211783e-38 1768976227
-38.127502 -11.087459 3.332545 1.880790849211783e-38 1768976227
-37.955124 -11.037331 3.066998 1.880790849211783e-38 1768976227
-27.182232 -7.904579 11.793713 1.880790849211783e-38 1768976227
-27.246992 -7.923410 11.589793 1.880790849211783e-38 1768976227
-30.055655 -8.740169 6.283773 1.880790849211783e-38 1768976227
-39.838734 -11.585083 7.896602 1.880790849211783e-38 1768976227
-27.607918 -8.028367 11.467085 1.880790849211783e-38 1768976227
-28.329969 -8.238339 11.441321 1.880790849211783e-38 1768976227
-27.086025 -7.876602 13.089720 1.880790849211783e-38 1768976227
-27.458979 -7.985055 12.889992 1.880790849211783e-38 1768976227
-27.599882 -8.026031 10.840940 1.880790849211783e-38 1768976227
-28.712528 -8.349588 10.892894 1.880790849211783e-38 1768976227
-27.839354 -8.095670 12.754446 1.880790849211783e-38 1768976227
-26.703293 -7.765303 11.841722 1.880790849211783e-38 1768976227
-29.251539 -8.506333 8.973922 1.880790849211783e-38 1768976227
-28.750254 -8.360559 8.593679 1.880790849211783e-38 1768976227
-29.527039 -8.586448 10.843609 1.880790849211783e-38 1768976227
-28.478321 -8.281482 10.270535 1.880790849211783e-38 1768976227
-30.796938 -8.955735 8.890754 1.880790849211783e-38 1768976227
-30.218197 -8.787436 8.440627 1.880790849211783e-38 1768976227
-28.998579 -8.432772 10.192712 1.880790849211783e-38 1768976227
-29.014454 -8.437388 9.907987 1.880790849211783e-38 1768976227
-30.273605 -8.803550 8.133866 1.880790849211783e-38 1768976227
-30.642193 -8.910734 7.854553 1.880790849211783e-38 1768976227
-28.421894 -8.265072 9.384958 1.880790849211783e-38 1768976227
-29.582434 -8.602556 9.415505 1.880790849211783e-38 1768976227
-28.277420 -8.223059 5.370214 1.880790849211783e-38 1768976227
-30.552372 -8.884613 5.516075 1.880790849211783e-38 1768976227
-40.170212 -11.681478 9.835097 1.880790849211783e-38 1768976227
-28.439548 -8.270205 6.781385 1.880790849211783e-38 1768976227
-30.264288 -8.800839 5.206353 1.880790849211783e-38 1768976227
-30.403778 -8.841403 4.952034 1.880790849211783e-38 1768976227
-30.085022 -8.748710 6.872732 1.880790849211783e-38 1768976227
-28.629616 -8.325479 6.320842 1.880790849211783e-38 1768976227
-39.275227 -11.292858 5.100618 1.880790849211783e-38 1768976227
-39.432980 -11.338217 4.911423 1.880790849211783e-38 1768976227
-39.792610 -11.441622 4.710765 1.880790849211783e-38 1768976227
-35.943882 -10.334991 3.995205 1.880790849211783e-38 1768976227
-30.922674 -8.891236 4.824876 1.880790849211783e-38 1768976227
-30.407726 -8.743173 4.537564 1.880790849211783e-38 1768976227
-36.087009 -10.376144 3.842251 1.880790849211783e-38 1768976227
-36.520031 -10.500652 3.639788 1.880790849211783e-38 1768976227
-33.296436 -9.573768 4.777414 1.880790849211783e-38 1768976227
-38.575191 -11.091575 5.305079 1.880790849211783e-38 1768976227
-37.282753 -10.719960 3.430327 1.880790849211783e-38 1768976227
-37.758213 -10.856668 3.297390 1.880790849211783e-38 1768976227
-38.559395 -11.087034 3.113110 1.880790849211783e-38 1768976227
-26.868052 -7.725406 11.647236 1.880790849211783e-38 1768976227
-27.568512 -7.926810 11.716333 1.880790849211783e-38 1768976227
-30.144747 -8.667558 6.296906 1.880790849211783e-38 1768976227
-39.830299 -11.452458 7.888049 1.880790849211783e-38 1768976227
-27.408449 -7.880787 11.374311 1.880790849211783e-38 1768976227
-28.369413 -8.157093 11.447263 1.880790849211783e-38 1768976227
-26.565899 -7.638527 12.827169 1.880790849211783e-38 1768976227
-27.525496 -7.914441 12.909953 1.880790849211783e-38 1768976227
-28.265564 -8.127234 11.092734 1.880790849211783e-38 1768976227
-28.438482 -8.176954 10.779521 1.880790849211783e-38 1768976227
-27.678011 -7.958294 12.669474 1.880790849211783e-38 1768976227
-27.168655 -7.811839 12.037587 1.880790849211783e-38 1768976227
-30.275023 -8.705017 9.279815 1.880790849211783e-38 1768976227
-30.257238 -8.699903 9.036244 1.880790849211783e-38 1768976227
-28.173214 -8.100681 10.337407 1.880790849211783e-38 1768976227
-28.276735 -8.130446 10.188945 1.880790849211783e-38 1768976227
-30.006565 -8.627828 8.655028 1.880790849211783e-38 1768976227
-29.375830 -8.446470 8.198182 1.880790849211783e-38 1768976227
-28.411684 -8.169248 9.977719 1.880790849211783e-38 1768976227
-28.036900 -8.061486 9.565821 1.880790849211783e-38 1768976227
-30.925505 -8.892052 8.301774 1.880790849211783e-38 1768976227
-31.113176 -8.946012 7.968329 1.880790849211783e-38 1768976227
-28.240347 -8.119985 9.316882 1.880790849211783e-38 1768976227
-29.710653 -8.542744 9.448071 1.880790849211783e-38 1768976227
-28.147350 -8.093245 5.340853 1.880790849211783e-38 1768976227
-30.793484 -8.854091 5.554760 1.880790849211783e-38 1768976227
-29.186409 -8.392006 7.139642 1.880790849211783e-38 1768976227
-28.455832 -8.181942 6.779353 1.880790849211783e-38 1768976227
-30.467726 -8.760425 5.236781 1.880790849211783e-38 1768976227
-30.773809 -8.848433 5.007934 1.880790849211783e-38 1768976227
-29.639923 -8.522406 6.765148 1.880790849211783e-38 1768976227
-28.573902 -8.215892 6.303042 1.880790849211783e-38 1768976227
-39.228432 -11.151418 5.090150 1.880790849211783e-38 1768976227
-39.435654 -11.210325 4.907522 1.880790849211783e-38 1768976227
-39.553795 -11.243909 4.678457 1.880790849211783e-38 1768976227
-36.143620 -10.274502 4.013944 1.880790849211783e-38 1768976227
-30.303747 -8.614409 4.724230 1.880790849211783e-38 1768976227
-30.708582 -8.729491 4.578509 1.880790849211783e-38 1768976227
-36.942646 -10.501640 3.929962 1.880790849211783e-38 1768976227
-37.152180 -10.561205 3.699600 1.880790849211783e-38 1768976227
-33.841087 -9.619965 4.851376 1.880790849211783e-38 1768976227
-38.261292 -10.876491 5.257375 1.880790849211783e-38 1768976227
-37.632626 -10.697782 3.459534 1.880790849211783e-38 1768976227
-37.462158 -10.649322 3.268716 1.880790849211783e-38 1768976227
-26.807913 -7.620652 11.611149 1.880790849211783e-38 1768976227
-27.261557 -7.749609 11.575894 1.880790849211783e-38 1768976227
-30.952478 -8.798823 6.460060 1.880790849211783e-38 1768976227
-29.680079 -8.437119 5.872818 1.880790849211783e-38 1768976227
-27.780407 -7.897102 11.518734 1.880790849211783e-38 1768976227
-28.105356 -7.989474 11.330939 1.880790849211783e-38 1768976227
-26.290806 -7.473655 12.683400 1.880790849211783e-38 1768976227
-28.141462 -7.999739 13.187477 1.880790849211783e-38 1768976227
-28.103380 -7.988913 11.019580 1.880790849211783e-38 1768976227
-28.669079 -8.149725 10.857562 1.880790849211783e-38 1768976227
-27.702267 -7.874889 12.669647 1.880790849211783e-38 1768976227
-27.175184 -7.725056 12.030103 1.880790849211783e-38 1768976227
-30.543322 -8.682513 9.353983 1.880790849211783e-38 1768976227
-30.542408 -8.682254 9.113548 1.880790849211783e-38 1768976227
-27.943161 -7.943368 10.244158 1.880790849211783e-38 1768976227
-27.647602 -7.859350 9.953663 1.880790849211783e-38 1768976227
-29.959639 -8.516590 8.634046 1.880790849211783e-38 1768976227
-30.253613 -8.600158 8.435876 1.880790849211783e-38 1768976227
-27.475481 -7.810421 9.640624 1.880790849211783e-38 1768976227
-28.734856 -8.168423 9.795505 1.880790849211783e-38 1768976227
-30.639776 -8.709931 8.217983 1.880790849211783e-38 1768976227
-37.720734 -10.722827 9.652249 1.880790849211783e-38 1768976227
-29.151600 -8.286890 9.609228 1.880790849211783e-38 1768976227
-30.812754 -8.759104 9.790096 1.880790849211783e-38 1768976227
-28.071066 -7.979728 5.321788 1.880790849211783e-38 1768976227
-30.362226 -8.631034 5.472246 1.880790849211783e-38 1768976227
-28.912729 -8.218987 7.066598 1.880790849211783e-38 1768976227
-27.756294 -7.890247 6.606995 1.880790849211783e-38 1768976227
-30.641430 -8.710402 5.262098 1.880790849211783e-38 1768976227
-31.091021 -8.838206 5.055194 1.880790849211783e-38 1768976227
-30.103827 -8.557578 6.865109 1.880790849211783e-38 1768976227
-29.261259 -8.318063 6.449100 1.880790849211783e-38 1768976227
-39.241642 -11.027366 5.087525 1.880790849211783e-38 1768976227
-38.998692 -10.959095 4.849010 1.880790849211783e-38 1768976227
-30.918983 -8.688601 4.816036 1.880790849211783e-38 1768976227
-29.732738 -8.355252 4.429238 1.880790849211783e-38 1768976227
-36.983410 -10.392777 3.930946 1.880790849211783e-38 1768976227
-36.988091 -10.394092 3.680122 1.880790849211783e-38 1768976227
-33.722836 -9.476516 4.830305 1.880790849211783e-38 1768976227
-38.814560 -10.907351 5.328854 1.880790849211783e-38 1768976227
-37.692158 -10.591944 3.462054 1.880790849211783e-38 1768976227
-37.759529 -10.610876 3.291855 1.880790849211783e-38 1768976227
-27.058973 -7.603891 11.709904 1.880790849211783e-38 1768976227
-27.163607 -7.633295 11.524474 1.880790849211783e-38 1768976227
-30.407263 -8.544802 6.340860 1.880790849211783e-38 1768976227
-29.587954 -8.314565 5.849601 1.880790849211783e-38 1768976227
-27.891207 -7.837759 11.554822 1.880790849211783e-38 1768976227
-28.379524 -7.974983 11.431725 1.880790849211783e-38 1768976227
-27.473312 -7.720326 13.242581 1.880790849211783e-38 1768976227
-27.908865 -7.842721 13.067335 1.880790849211783e-38 1768976227
-28.349199 -7.966461 11.106497 1.880790849211783e-38 1768976227
-28.659254 -8.053591 10.844593 1.880790849211783e-38 1768976227
-25.869381 -7.269603 11.821295 1.880790849211783e-38 1768976227
-27.341562 -7.683303 12.093443 1.880790849211783e-38 1768976227
-30.669514 -8.618498 9.384627 1.880790849211783e-38 1768976227
-30.720381 -8.632792 9.158843 1.880790849211783e-38 1768976227
-28.434031 -7.990299 10.415233 1.880790849211783e-38 1768976227
-28.791599 -8.090780 10.356690 1.880790849211783e-38 1768976227
-30.116028 -8.462960 8.671720 1.880790849211783e-38 1768976227
-29.977383 -8.424000 8.351729 1.880790849211783e-38 1768976227
-29.219925 -8.211145 10.243979 1.880790849211783e-38 1768976227
-29.362112 -8.251101 10.000803 1.880790849211783e-38 1768976227
-29.994761 -8.428883 8.038126 1.880790849211783e-38 1768976227
-38.278553 -10.756727 9.786642 1.880790849211783e-38 1768976227
-29.783697 -8.369572 9.809220 1.880790849211783e-38 1768976227
-30.134541 -8.468163 9.566451 1.880790849211783e-38 1768976227
-28.230785 -7.933185 5.347507 1.880790849211783e-38 1768976227
-30.743677 -8.639338 5.536274 1.880790849211783e-38 1768976227
-28.752438 -8.079776 7.021433 1.880790849211783e-38 1768976227
-27.882965 -7.835443 6.631492 1.880790849211783e-38 1768976227
-30.322266 -8.520917 5.202850 1.880790849211783e-38 1768976227
-30.697149 -8.626263 4.986900 1.880790849211783e-38 1768976227
-29.911102 -8.405374 6.815347 1.880790849211783e-38 1768976227
-28.812050 -8.096528 6.344686 1.880790849211783e-38 1768976227
-39.115185 -10.864651 5.066859 1.880790849211783e-38 1768976227
-30.548401 -8.485138 4.754305 1.880790849211783e-38 1768976227
-29.765751 -8.267748 4.430421 1.880790849211783e-38 1768976227
-36.171761 -10.047085 3.841438 1.880790849211783e-38 1768976227
-37.147514 -10.318110 3.692871 1.880790849211783e-38 1768976227
-33.854591 -9.403466 4.845092 1.880790849211783e-38 1768976227
-38.955070 -10.820178 5.343640 1.880790849211783e-38 1768976227
-37.211098 -10.335771 3.414989 1.880790849211783e-38 1768976227
-26.688940 -7.413131 11.540042 1.880790849211783e-38 1768976227
-27.493099 -7.636495 11.654441 1.880790849211783e-38 1768976227
-29.650745 -8.235805 6.177895 1.880790849211783e-38 1768976227
-29.217834 -8.115559 5.771562 1.880790849211783e-38 1768976227
-28.157709 -7.821097 11.655403 1.880790849211783e-38 1768976227
-28.269264 -7.852083 11.377719 1.880790849211783e-38 1768976227
-27.099543 -7.527180 13.051415 1.880790849211783e-38 1768976227
-28.095715 -7.803877 13.143741 1.880790849211783e-38 1768976227
-28.424873 -7.895305 11.126763 1.880790849211783e-38 1768976227
-28.448759 -7.901940 10.755875 1.880790849211783e-38 1768976227
-25.329882 -7.035639 11.565016 1.880790849211783e-38 1768976227
-27.014740 -7.503626 11.938822 1.880790849211783e-38 1768976227
-30.566576 -8.490186 9.345250 1.880790849211783e-38 1768976227
-30.633490 -8.508772 9.125245 1.880790849211783e-38 1768976227
-29.019794 -8.060552 10.620841 1.880790849211783e-38 1768976227
-29.002390 -8.055717 10.423728 1.880790849211783e-38 1768976227
-30.119734 -8.366072 8.665483 1.880790849211783e-38 1768976227
-30.071987 -8.352808 8.371030 1.880790849211783e-38 1768976227
-29.356825 -8.154165 10.283306 1.880790849211783e-38 1768976227
-29.046118 -8.067863 9.884842 1.880790849211783e-38 1768976227
-31.094110 -8.636714 8.325717 1.880790849211783e-38 1768976227
-37.485897 -10.412100 9.575912 1.880790849211783e-38 1768976227
-29.246943 -8.123644 9.624328 1.880790849211783e-38 1768976227
-30.841585 -8.566572 9.782660 1.880790849211783e-38 1768976227
-30.404791 -8.445248 5.754458 1.880790849211783e-38 1768976227
-30.126930 -8.368070 5.420642 1.880790849211783e-38 1768976227
-28.619791 -7.949445 6.983153 1.880790849211783e-38 1768976227
-28.072298 -7.797373 6.670897 1.880790849211783e-38 1768976227
-30.370876 -8.435827 5.206802 1.880790849211783e-38 1768976227
-30.995985 -8.609458 5.031206 1.880790849211783e-38 1768976227
-29.664043 -8.239497 6.753361 1.880790849211783e-38 1768976227
-28.761280 -7.988745 6.328170 1.880790849211783e-38 1768976227
-39.144745 -10.745820 5.066468 1.880790849211783e-38 1768976227
-30.186762 -8.286717 4.694111 1.880790849211783e-38 1768976227
-29.451031 -8.084749 4.379929 1.880790849211783e-38 1768976227
-36.889278 -10.126659 3.664147 1.880790849211783e-38 1768976227
-33.027962 -9.066669 4.722855 1.880790849211783e-38 1768976227
-38.430809 -10.549832 5.267337 1.880790849211783e-38 1768976227
-37.113384 -10.188180 3.403187 1.880790849211783e-38 1768976227
-27.003851 -7.412961 11.666488 1.880790849211783e-38 1768976227
-27.533428 -7.558338 11.661822 1.880790849211783e-38 1768976227
-30.796024 -8.453970 6.411180 1.880790849211783e-38 1768976227
-29.284990 -8.039168 5.780013 1.880790849211783e-38 1768976227
-28.123461 -7.720311 11.631537 1.880790849211783e-38 1768976227
-27.848610 -7.644860 11.199085 1.880790849211783e-38 1768976227
-27.256920 -7.482432 13.116285 1.880790849211783e-38 1768976227
-27.855022 -7.646620 13.020293 1.880790849211783e-38 1768976227
-28.132605 -7.722821 11.003191 1.880790849211783e-38 1768976227
-28.930431 -7.941836 10.928881 1.880790849211783e-38 1768976227
-25.851854 -7.096721 11.793511 1.880790849211783e-38 1768976227
-26.916012 -7.388848 11.885289 1.880790849211783e-38 1768976227
-30.421865 -8.351257 9.293266 1.880790849211783e-38 1768976227
-31.141897 -8.548918 9.268970 1.880790849211783e-38 1768976227
-29.012556 -7.964381 10.609354 1.880790849211783e-38 1768976227
-29.192078 -8.013663 10.483171 1.880790849211783e-38 1768976227
-30.567764 -8.391309 8.787061 1.880790849211783e-38 1768976227
-30.513071 -8.376296 8.486743 1.880790849211783e-38 1768976227
-29.302568 -8.043994 10.255756 1.880790849211783e-38 1768976227
-28.931931 -7.942247 9.837787 1.880790849211783e-38 1768976227
-33.531796 -9.204980 8.970954 1.880790849211783e-38 1768976227
-37.888287 -10.400902 9.670648 1.880790849211783e-38 1768976227
-29.718254 -8.158106 9.771283 1.880790849211783e-38 1768976227
-30.376732 -8.338868 9.627194 1.880790849211783e-38 1768976227
-29.912689 -8.211481 5.656611 1.880790849211783e-38 1768976227
-30.400307 -8.345340 5.465277 1.880790849211783e-38 1768976227
-27.688593 -7.600934 6.750320 1.880790849211783e-38 1768976227
-28.225794 -7.748403 6.701790 1.880790849211783e-38 1768976227
-30.327702 -8.325409 5.195073 1.880790849211783e-38 1768976227
-30.423618 -8.351739 4.934190 1.880790849211783e-38 1768976227
-29.731342 -8.161699 6.763049 1.880790849211783e-38 1768976227
-30.464161 -8.362869 6.697267 1.880790849211783e-38 1768976227
-30.519941 -8.279278 4.742017 1.880790849211783e-38 1768976227
-29.743149 -8.068554 4.419733 1.880790849211783e-38 1768976227
-33.259586 -9.022472 4.752063 1.880790849211783e-38 1768976227
-38.806946 -10.527328 5.314514 1.880790849211783e-38 1768976227
-26.331936 -7.143179 11.366840 1.880790849211783e-38 1768976227
-27.278469 -7.399950 11.544328 1.880790849211783e-38 1768976227
-30.394508 -8.245252 6.322385 1.880790849211783e-38 1768976227
-29.409203 -7.977963 5.799754 1.880790849211783e-38 1768976227
-27.347366 -7.418638 11.301248 1.880790849211783e-38 1768976227
-27.851131 -7.555298 11.190886 1.880790849211783e-38 1768976227
-27.555418 -7.475078 13.249015 1.880790849211783e-38 1768976227
-27.880733 -7.563328 13.021590 1.880790849211783e-38 1768976227
-28.030190 -7.603872 10.954115 1.880790849211783e-38 1768976227
-28.392944 -7.702278 10.717013 1.880790849211783e-38 1768976227
-25.647055 -6.957388 11.690456 1.880790849211783e-38 1768976227
-26.863779 -7.287454 11.852466 1.880790849211783e-38 1768976227
-30.589771 -8.298222 9.336870 1.880790849211783e-38 1768976227
-31.011396 -8.412596 9.222534 1.880790849211783e-38 1768976227
-28.492769 -7.729358 10.410705 1.880790849211783e-38 1768976227
-28.867493 -7.831011 10.358081 1.880790849211783e-38 1768976227
-30.032627 -8.147082 8.626127 1.880790849211783e-38 1768976227
-30.449751 -8.260238 8.462164 1.880790849211783e-38 1768976227
-28.930145 -7.848006 10.117081 1.880790849211783e-38 1768976227
-29.510170 -8.005353 10.026152 1.880790849211783e-38 1768976227
-33.167828 -8.997581 8.866280 1.880790849211783e-38 1768976227
-38.061024 -10.324981 9.706745 1.880790849211783e-38 1768976227
-29.821110 -8.089703 9.797035 1.880790849211783e-38 1768976227
-30.797812 -8.354657 9.752615 1.880790849211783e-38 1768976227
-30.127764 -8.172890 5.692595 1.880790849211783e-38 1768976227
-30.577768 -8.294966 5.492658 1.880790849211783e-38 1768976227
-27.698664 -7.513938 6.747221 1.880790849211783e-38 1768976227
-29.867365 -8.102251 7.085722 1.880790849211783e-38 1768976227
-30.964096 -8.399766 5.299722 1.880790849211783e-38 1768976227
-30.654806 -8.315863 4.967595 1.880790849211783e-38 1768976227
-29.405460 -7.976947 6.683417 1.880790849211783e-38 1768976227
-30.115698 -8.169618 6.615213 1.880790849211783e-38 1768976227
-30.379791 -8.142971 4.716404 1.880790849211783e-38 1768976227
-29.763298 -7.977727 4.419132 1.880790849211783e-38 1768976227
-33.491871 -8.977130 4.781362 1.880790849211783e-38 1768976227
-38.371723 -10.285122 5.250640 1.880790849211783e-38 1768976227
-27.061531 -7.253547 11.672293 1.880790849211783e-38 1768976227
-26.905159 -7.211633 11.377085 1.880790849211783e-38 1768976227
-30.041817 -8.052381 6.243941 1.880790849211783e-38 1768976227
-29.454414 -7.894933 5.803947 1.880790849211783e-38 1768976227
-27.295425 -7.316240 11.270614 1.880790849211783e-38 1768976227
-28.177965 -7.552794 11.313005 1.880790849211783e-38 1768976227
-27.456079 -7.359302 13.190520 1.880790849211783e-38 1768976227
-27.672819 -7.417396 12.913978 1.880790849211783e-38 1768976227
-28.115307 -7.536000 10.978446 1.880790849211783e-38 1768976227
-28.487684 -7.635812 10.744032 1.880790849211783e-38 1768976227
-25.880253 -6.936919 11.787164 1.880790849211783e-38 1768976227
-27.207827 -7.292760 11.994502 1.880790849211783e-38 1768976227
-31.263775 -8.379913 9.534838 1.880790849211783e-38 1768976227
-31.147644 -8.348785 9.255523 1.880790849211783e-38 1768976227
-28.874392 -7.739465 10.541565 1.880790849211783e-38 1768976227
-28.664577 -7.683227 10.276911 1.880790849211783e-38 1768976227
-30.029837 -8.049170 8.618314 1.880790849211783e-38 1768976227
-30.606070 -8.203623 8.498691 1.880790849211783e-38 1768976227
-29.550854 -7.920783 10.325745 1.880790849211783e-38 1768976227
-29.333954 -7.862645 9.958179 1.880790849211783e-38 1768976227
-33.298622 -8.925332 8.894008 1.880790849211783e-38 1768976227
-38.535175 -10.328932 9.819679 1.880790849211783e-38 1768976227
-29.683266 -7.956274 9.743821 1.880790849211783e-38 1768976227
-30.832737 -8.264379 9.755737 1.880790849211783e-38 1768976227
-29.543209 -7.918734 5.577606 1.880790849211783e-38 1768976227
-30.538784 -8.185588 5.481195 1.880790849211783e-38 1768976227
-27.924992 -7.484988 6.796823 1.880790849211783e-38 1768976227
-29.979288 -8.035621 7.106493 1.880790849211783e-38 1768976227
-30.296280 -8.120587 5.181205 1.880790849211783e-38 1768976227
-30.455978 -8.163392 4.931363 1.880790849211783e-38 1768976227
-28.579243 -7.660353 6.490349 1.880790849211783e-38 1768976227
-30.874187 -8.275489 6.776309 1.880790849211783e-38 1768976227
-30.307240 -8.025630 4.701362 1.880790849211783e-38 1768976227
-30.479187 -8.071162 4.521789 1.880790849211783e-38 1768976227
-33.833698 -8.959468 4.826282 1.880790849211783e-38 1768976227
-26.666580 -7.061550 11.492702 1.880790849211783e-38 1768976227
-27.481783 -7.277423 11.611582 1.880790849211783e-38 1768976227
-30.487129 -8.073266 6.331407 1.880790849211783e-38 1768976227
-29.179417 -7.726972 5.745142 1.880790849211783e-38 1768976227
-27.925066 -7.394809 11.521338 1.880790849211783e-38 1768976227
-28.115845 -7.445328 11.278999 1.880790849211783e-38 1768976227
-28.055420 -7.429327 13.467630 1.880790849211783e-38 1768976227
-27.958441 -7.403646 13.036788 1.880790849211783e-38 1768976227
-28.562670 -7.563651 11.144174 1.880790849211783e-38 1768976227
-28.363586 -7.510932 10.688636 1.880790849211783e-38 1768976227
-26.207619 -6.940012 11.926675 1.880790849211783e-38 1768976227
-26.939388 -7.133792 11.866623 1.880790849211783e-38 1768976227
-31.246204 -8.274276 9.521825 1.880790849211783e-38 1768976227
-30.350765 -8.037155 9.011486 1.880790849211783e-38 1768976227
-29.314951 -7.762862 10.693810 1.880790849211783e-38 1768976227
-29.251453 -7.746047 10.478895 1.880790849211783e-38 1768976227
-30.696781 -8.128783 8.802645 1.880790849211783e-38 1768976227
-30.851463 -8.169745 8.559951 1.880790849211783e-38 1768976227
-29.150311 -7.719264 10.177605 1.880790849211783e-38 1768976227
-28.897036 -7.652195 9.801977 1.880790849211783e-38 1768976227
-33.193829 -8.790025 8.858896 1.880790849211783e-38 1768976227
-38.337048 -10.151995 9.761344 1.880790849211783e-38 1768976227
-29.114302 -7.709729 9.549377 1.880790849211783e-38 1768976227
-29.949638 -7.930933 9.468706 1.880790849211783e-38 1768976227
-30.028400 -7.951790 5.664654 1.880790849211783e-38 1768976227
-29.916750 -7.922225 5.365238 1.880790849211783e-38 1768976227
-27.956818 -7.403216 6.799103 1.880790849211783e-38 1768976227
-30.242807 -8.008567 7.163201 1.880790849211783e-38 1768976227
-30.593006 -8.101303 5.227748 1.880790849211783e-38 1768976227
-30.353220 -8.037806 4.910777 1.880790849211783e-38 1768976227
-29.224297 -7.738855 6.631510 1.880790849211783e-38 1768976227
-30.454386 -8.064595 6.678802 1.880790849211783e-38 1768976227
-30.021503 -7.853148 4.653342 1.880790849211783e-38 1768976227
-30.228907 -7.907401 4.481100 1.880790849211783e-38 1768976227
-33.845444 -8.853428 4.824126 1.880790849211783e-38 1768976227
-26.875883 -7.030302 11.573715 1.880790849211783e-38 1768976227
-27.313145 -7.144683 11.531172 1.880790849211783e-38 1768976227
-30.532652 -7.986855 6.335829 1.880790849211783e-38 1768976227
-29.057043 -7.600859 5.716507 1.880790849211783e-38 1768976227
-26.965963 -7.053866 11.116804 1.880790849211783e-38 1768976227
-28.308178 -7.404968 11.347145 1.880790849211783e-38 1768976227
-27.841995 -7.283021 13.354573 1.880790849211783e-38 1768976227
-27.570303 -7.211952 12.845602 1.880790849211783e-38 1768976227
-28.378866 -7.423459 11.063674 1.880790849211783e-38 1768976227
-28.532961 -7.463767 10.743932 1.880790849211783e-38 1768976227
-26.037315 -6.810947 11.839770 1.880790849211783e-38 1768976227
-27.028175 -7.070140 11.896287 1.880790849211783e-38 1768976227
-31.430689 -8.221767 9.570444 1.880790849211783e-38 1768976227
-30.077986 -7.867922 8.923409 1.880790849211783e-38 1768976227
-29.155281 -7.626556 10.627125 1.880790849211783e-38 1768976227
-28.790709 -7.531191 10.305656 1.880790849211783e-38 1768976227
-30.466347 -7.969511 8.729632 1.880790849211783e-38 1768976227
-30.855291 -8.071253 8.554219 1.880790849211783e-38 1768976227
-29.338766 -7.674553 10.235275 1.880790849211783e-38 1768976227
-29.603552 -7.743817 10.033662 1.880790849211783e-38 1768976227
-32.918133 -8.610859 8.778346 1.880790849211783e-38 1768976227
-38.297508 -10.018018 9.743540 1.880790849211783e-38 1768976227
-29.509871 -7.719312 9.671442 1.880790849211783e-38 1768976227
-30.583212 -8.000081 9.661341 1.880790849211783e-38 1768976227
-30.168934 -7.891712 5.686649 1.880790849211783e-38 1768976227
-30.006895 -7.849326 5.377135 1.880790849211783e-38 1768976227
-27.864868 -7.289005 6.771364 1.880790849211783e-38 1768976227
-30.251324 -7.913264 7.159533 1.880790849211783e-38 1768976227
-30.897038 -8.082173 5.275512 1.880790849211783e-38 1768976227
-31.044353 -8.120708 5.018608 1.880790849211783e-38 1768976227
-29.063360 -7.602511 6.589758 1.880790849211783e-38 1768976227
-31.118938 -8.140219 6.819127 1.880790849211783e-38 1768976227
-30.867521 -7.975064 4.780725 1.880790849211783e-38 1768976227
-30.353786 -7.842333 4.496085 1.880790849211783e-38 1768976227
-32.706467 -8.450182 4.658130 1.880790849211783e-38 1768976227
-45.954826 -11.873083 6.273325 1.880790849211783e-38 1768976227
-26.883993 -6.945862 11.568134 1.880790849211783e-38 1768976227
-27.246061 -7.039407 11.493835 1.880790849211783e-38 1768976227
-30.852989 -7.971309 6.397285 1.880790849211783e-38 1768976227
-29.014620 -7.496339 5.703688 1.880790849211783e-38 1768976227
-27.582977 -7.126454 11.362257 1.880790849211783e-38 1768976227
-27.872496 -7.201255 11.163748 1.880790849211783e-38 1768976227
-27.582363 -7.126296 13.219670 1.880790849211783e-38 1768976227
-27.946537 -7.220385 13.010693 1.880790849211783e-38 1768976227
-29.093531 -7.516728 11.333402 1.880790849211783e-38 1768976227
-28.769812 -7.433090 10.824626 1.880790849211783e-38 1768976227
-25.843269 -6.676976 11.742322 1.880790849211783e-38 1768976227
-26.892462 -6.948050 11.827276 1.880790849211783e-38 1768976227
-30.199076 -7.802361 9.188218 1.880790849211783e-38 1768976227
-32.166260 -8.310611 9.535470 1.880790849211783e-38 1768976227
-29.060484 -7.508189 10.584269 1.880790849211783e-38 1768976227
-29.288040 -7.566981 10.475459 1.880790849211783e-38 1768976227
-29.440666 -7.606415 8.429130 1.880790849211783e-38 1768976227
-30.534761 -7.889090 8.458723 1.880790849211783e-38 1768976227
-29.485144 -7.617906 10.278278 1.880790849211783e-38 1768976227
-29.032337 -7.500917 9.832345 1.880790849211783e-38 1768976227
-37.389370 -9.660076 9.962885 1.880790849211783e-38 1768976227
-38.879856 -10.045165 9.883946 1.880790849211783e-38 1768976227
-29.966660 -7.742312 9.813451 1.880790849211783e-38 1768976227
-30.603422 -7.906830 9.660149 1.880790849211783e-38 1768976227
-29.528851 -7.629199 5.561635 1.880790849211783e-38 1768976227
-30.229641 -7.810258 5.412805 1.880790849211783e-38 1768976227
-28.254351 -7.299912 6.860629 1.880790849211783e-38 1768976227
-30.333364 -7.837056 7.173323 1.880790849211783e-38 1768976227
-30.607132 -7.907788 5.221916 1.880790849211783e-38 1768976227
-30.701097 -7.932065 4.959228 1.880790849211783e-38 1768976227
-28.816805 -7.445231 6.528734 1.880790849211783e-38 1768976227
-30.783825 -7.953439 6.740406 1.880790849211783e-38 1768976227
-30.654058 -7.821365 4.743989 1.880790849211783e-38 1768976227
-30.289854 -7.728439 4.483142 1.880790849211783e-38 1768976227
-33.043114 -8.430931 4.702433 1.880790849211783e-38 1768976227
-45.732456 -11.668610 6.238137 1.880790849211783e-38 1768976227
-26.084373 -6.655412 11.215371 1.880790849211783e-38 1768976227
-26.946831 -6.875467 11.358804 1.880790849211783e-38 1768976227
-30.717438 -7.837535 6.364248 1.880790849211783e-38 1768976227
-28.796391 -7.347382 5.656406 1.880790849211783e-38 1768976227
-27.674524 -7.061138 11.391144 1.880790849211783e-38 1768976227
-28.837721 -7.357927 11.541409 1.880790849211783e-38 1768976227
-27.848209 -7.105454 13.336754 1.880790849211783e-38 1768976227
-28.017906 -7.148752 13.033821 1.880790849211783e-38 1768976227
-28.437834 -7.255896 11.069399 1.880790849211783e-38 1768976227
-28.638527 -7.307103 10.766890 1.880790849211783e-38 1768976227
-26.042816 -6.644809 11.823830 1.880790849211783e-38 1768976227
-26.945744 -6.875190 11.841535 1.880790849211783e-38 1768976227
-29.936558 -7.638295 9.101295 1.880790849211783e-38 1768976227
-31.575407 -8.056446 9.353069 1.880790849211783e-38 1768976227
-29.319374 -7.480821 10.670295 1.880790849211783e-38 1768976227
-29.432936 -7.509796 10.519135 1.880790849211783e-38 1768976227
-29.985882 -7.650880 8.578584 1.880790849211783e-38 1768976227
-31.181822 -7.956022 8.631284 1.880790849211783e-38 1768976227
-29.610348 -7.555062 10.313933 1.880790849211783e-38 1768976227
-29.958788 -7.643967 10.138251 1.880790849211783e-38 1768976227
-37.742863 -9.630069 10.049293 1.880790849211783e-38 1768976227
-38.360764 -9.787726 9.744434 1.880790849211783e-38 1768976227
-29.205660 -7.451807 9.556836 1.880790849211783e-38 1768976227
-30.121166 -7.685397 9.500562 1.880790849211783e-38 1768976227
-29.562056 -7.542740 5.563579 1.880790849211783e-38 1768976227
-30.234930 -7.714425 5.409561 1.880790849211783e-38 1768976227
-29.671782 -7.570737 7.199228 1.880790849211783e-38 1768976227
-29.852169 -7.616763 7.054063 1.880790849211783e-38 1768976227
-30.088522 -7.677069 5.129462 1.880790849211783e-38 1768976227
-31.229750 -7.968253 5.040718 1.880790849211783e-38 1768976227
-28.627127 -7.304193 6.480739 1.880790849211783e-38 1768976227
-30.491449 -7.779875 6.671219 1.880790849211783e-38 1768976227
-45.542404 -11.473932 5.861847 1.880790849211783e-38 1768976227
-30.149141 -7.595760 4.662282 1.880790849211783e-38 1768976227
-32.872372 -8.281850 4.861657 1.880790849211783e-38 1768976227
-33.614391 -8.468794 4.780076 1.880790849211783e-38 1768976227
-46.011063 -11.592006 6.271343 1.880790849211783e-38 1768976227
-26.815536 -6.755893 11.520933 1.880790849211783e-38 1768976227
-27.046797 -6.814157 11.392228 1.880790849211783e-38 1768976227
-30.246578 -7.620308 6.261902 1.880790849211783e-38 1768976227
-29.543758 -7.443240 5.798774 1.880790849211783e-38 1768976227
-27.376057 -6.897110 11.259678 1.880790849211783e-38 1768976227
-28.313086 -7.133185 11.322777 1.880790849211783e-38 1768976227
-28.026718 -7.061038 13.411984 1.880790849211783e-38 1768976227
-28.480177 -7.175282 13.238740 1.880790849211783e-38 1768976227
-28.109116 -7.081797 10.933082 1.880790849211783e-38 1768976227
-28.777473 -7.250183 10.810858 1.880790849211783e-38 1768976227
-25.950274 -6.537899 11.772809 1.880790849211783e-38 1768976227
-27.236780 -6.862022 11.960285 1.880790849211783e-38 1768976227
-31.343636 -7.896700 9.521791 1.880790849211783e-38 1768976227
-31.434973 -7.919711 9.304354 1.880790849211783e-38 1768976227
-29.108833 -7.333666 10.585575 1.880790849211783e-38 1768976227
-27.220072 -6.857812 9.720837 1.880790849211783e-38 1768976227
-29.848833 -7.520101 8.532848 1.880790849211783e-38 1768976227
-31.057625 -7.824643 8.590335 1.880790849211783e-38 1768976227
-28.035980 -7.063371 9.758082 1.880790849211783e-38 1768976227
-29.891218 -7.530779 10.107653 1.880790849211783e-38 1768976227
-38.207855 -9.626070 10.165324 1.880790849211783e-38 1768976227
-38.973122 -9.818870 9.892419 1.880790849211783e-38 1768976227
-29.583462 -7.453244 9.673063 1.880790849211783e-38 1768976227
-29.654520 -7.471146 9.346227 1.880790849211783e-38 1768976227
-27.583796 -6.949448 5.187303 1.880790849211783e-38 1768976227
-30.339251 -7.643656 5.424076 1.880790849211783e-38 1768976227
-29.817356 -7.512170 7.229018 1.880790849211783e-38 1768976227
-30.075928 -7.577315 7.101505 1.880790849211783e-38 1768976227
-30.871006 -7.777627 5.258836 1.880790849211783e-38 1768976227
-30.564262 -7.700346 4.929532 1.880790849211783e-38 1768976227
-28.231438 -7.112614 6.386276 1.880790849211783e-38 1768976227
-30.231361 -7.616475 6.609259 1.880790849211783e-38 1768976227
-45.733906 -11.375625 5.882053 1.880790849211783e-38 1768976227
