# .PCD v0.7 - Point Cloud Data file format
VERSION 0.7
FIELDS x y z rgb label
SIZE 4 4 4 4 4
TYPE F F F F U
COUNT 1 1 1 1 1
WIDTH 753
HEIGHT 1
VIEWPOINT 0 0 0 1 0 0 0
POINTS 753
DATA ascii
-42.583607 -5.401307 7.090611 1.880790849211783e-38 1768976227
-42.687260 -5.414454 6.729649 1.880790849211783e-38 1768976227
-40.082851 -5.084111 8.862897 1.880790849211783e-38 1768976227
-39.597401 -5.022536 8.461826 1.880790849211783e-38 1768976227
-42.486351 -5.258821 5.343258 1.880790849211783e-38 1768976227
-42.762638 -5.293018 5.157804 1.880790849211783e-38 1768976227
-43.067471 -5.330750 4.937317 1.880790849211783e-38 1768976227
-43.430443 -5.375678 4.674779 1.880790849211783e-38 1768976227
-42.889458 -5.308715 6.480558 1.880790849211783e-38 1768976227
-43.232143 -5.351132 6.247385 1.880790849211783e-38 1768976227
-43.667332 -5.404998 4.502401 1.880790849211783e-38 1768976227
-43.924076 -5.436777 4.239360 1.880790849211783e-38 1768976227
-43.339832 -5.364461 6.021920 1.880790849211783e-38 1768976227
-43.452076 -5.378355 5.786914 1.880790849211783e-38 1768976227
-44.192635 -5.470018 3.937586 1.880790849211783e-38 1768976227
-45.744354 -5.662086 3.868557 1.880790849211783e-38 1768976227
-46.198330 -5.718277 3.611963 1.880790849211783e-38 1768976227
-29.624834 -3.666864 12.436419 1.880790849211783e-38 1768976227
-29.754906 -3.682964 12.245872 1.880790849211783e-38 1768976227
-39.797302 -4.925979 8.050483 1.880790849211783e-38 1768976227
-40.974873 -5.071734 7.858258 1.880790849211783e-38 1768976227
-30.357550 -3.757557 12.200006 1.880790849211783e-38 1768976227
-30.451813 -3.769224 11.899183 1.880790849211783e-38 1768976227
-26.210152 -3.244206 12.255430 1.880790849211783e-38 1768976227
-27.897810 -3.453099 12.671043 1.880790849211783e-38 1768976227
-30.096167 -3.725204 11.437862 1.880790849211783e-38 1768976227
-30.637308 -3.792185 11.245956 1.880790849211783e-38 1768976227
-28.819675 -3.567204 12.775135 1.880790849211783e-38 1768976227
-29.144138 -3.607365 12.504757 1.880790849211783e-38 1768976227
-34.026112 -4.211640 10.099965 1.880790849211783e-38 1768976227
-34.240383 -4.238162 9.902618 1.880790849211783e-38 1768976227
-31.029404 -3.840717 11.025577 1.880790849211783e-38 1768976227
-30.900970 -3.824820 10.782632 1.880790849211783e-38 1768976227
-38.424919 -4.756109 10.732921 1.880790849211783e-38 1768976227
-41.778927 -5.171257 11.291130 1.880790849211783e-38 1768976227
-31.468441 -3.895060 10.701934 1.880790849211783e-38 1768976227
-31.662163 -3.919038 10.461298 1.880790849211783e-38 1768976227
-37.231937 -4.608446 9.678821 1.880790849211783e-38 1768976227
-36.925915 -4.570568 9.158131 1.880790849211783e-38 1768976227
-31.849945 -3.942281 10.175646 1.880790849211783e-38 1768976227
-33.718166 -4.173523 10.383593 1.880790849211783e-38 1768976227
-41.654301 -5.155832 7.653950 1.880790849211783e-38 1768976227
-42.058163 -5.205820 7.346990 1.880790849211783e-38 1768976227
-39.429600 -4.880466 9.340515 1.880790849211783e-38 1768976227
-39.064335 -4.835254 9.012599 1.880790849211783e-38 1768976227
-42.612007 -5.274374 7.092659 1.880790849211783e-38 1768976227
-42.585365 -5.271076 6.711049 1.880790849211783e-38 1768976227
-39.552105 -4.895628 8.742237 1.880790849211783e-38 1768976227
-39.529266 -4.892802 8.444075 1.880790849211783e-38 1768976227
-43.514191 -5.252843 5.470507 1.880790849211783e-38 1768976227
-43.615150 -5.265030 5.258691 1.880790849211783e-38 1768976227
-44.816856 -5.410095 5.135975 1.880790849211783e-38 1768976227
-44.896385 -5.419695 4.830788 1.880790849211783e-38 1768976227
-42.786495 -5.164998 6.462617 1.880790849211783e-38 1768976227
-43.150593 -5.208951 6.233301 1.880790849211783e-38 1768976227
-44.791012 -5.406975 4.616557 1.880790849211783e-38 1768976227
-44.638615 -5.388579 4.306736 1.880790849211783e-38 1768976227
-43.257832 -5.221896 6.008311 1.880790849211783e-38 1768976227
-43.369614 -5.235390 5.773803 1.880790849211783e-38 1768976227
-44.479633 -5.369387 3.961697 1.880790849211783e-38 1768976227
-44.374252 -5.356666 3.751305 1.880790849211783e-38 1768976227
-45.883270 -5.538828 3.586008 1.880790849211783e-38 1768976227
-29.632990 -3.577165 12.435256 1.880790849211783e-38 1768976227
-29.761429 -3.592669 12.244040 1.880790849211783e-38 1768976227
-39.767471 -4.800555 8.041482 1.880790849211783e-38 1768976227
-41.011627 -4.950744 7.862408 1.880790849211783e-38 1768976227
-30.382311 -3.667619 12.205458 1.880790849211783e-38 1768976227
-30.481958 -3.679649 11.906572 1.880790849211783e-38 1768976227
-26.167992 -3.158885 12.231207 1.880790849211783e-38 1768976227
-28.025446 -3.383109 12.724322 1.880790849211783e-38 1768976227
-30.102125 -3.633797 11.435910 1.880790849211783e-38 1768976227
-30.629366 -3.697443 11.238896 1.880790849211783e-38 1768976227
-28.810492 -3.477877 12.766357 1.880790849211783e-38 1768976227
-29.138966 -3.517528 12.497928 1.880790849211783e-38 1768976227
-34.007591 -4.105247 10.090747 1.880790849211783e-38 1768976227
-34.221554 -4.131076 9.893523 1.880790849211783e-38 1768976227
-31.021120 -3.744734 11.018571 1.880790849211783e-38 1768976227
-31.033848 -3.746270 10.825006 1.880790849211783e-38 1768976227
-38.431667 -4.639303 10.730848 1.880790849211783e-38 1768976227
-41.690456 -5.032689 11.263066 1.880790849211783e-38 1768976227
-31.472324 -3.799201 10.699308 1.880790849211783e-38 1768976227
-31.678642 -3.824107 10.462884 1.880790849211783e-38 1768976227
-37.230762 -4.494335 9.674948 1.880790849211783e-38 1768976227
-36.888996 -4.453078 9.145602 1.880790849211783e-38 1768976227
-31.866550 -3.846790 10.177197 1.880790849211783e-38 1768976227
-33.674374 -4.065023 10.366284 1.880790849211783e-38 1768976227
-41.658611 -5.028845 7.651920 1.880790849211783e-38 1768976227
-41.899498 -5.057924 7.316576 1.880790849211783e-38 1768976227
-39.567841 -4.776456 9.369808 1.880790849211783e-38 1768976227
-39.188648 -4.730682 9.037947 1.880790849211783e-38 1768976227
-42.529919 -5.134026 7.076385 1.880790849211783e-38 1768976227
-42.682552 -5.152452 6.723885 1.880790849211783e-38 1768976227
-40.797470 -4.924892 9.014177 1.880790849211783e-38 1768976227
-39.461338 -4.763600 8.426456 1.880790849211783e-38 1768976227
-43.639107 -5.134437 5.484239 1.880790849211783e-38 1768976227
-43.760880 -5.148765 5.274365 1.880790849211783e-38 1768976227
-44.767033 -5.267146 5.128422 1.880790849211783e-38 1768976227
-44.900192 -5.282813 4.829462 1.880790849211783e-38 1768976227
-42.684032 -5.022066 6.444824 1.880790849211783e-38 1768976227
-43.069386 -5.067405 6.219335 1.880790849211783e-38 1768976227
-44.986771 -5.292999 4.635067 1.880790849211783e-38 1768976227
-44.916191 -5.284695 4.331959 1.880790849211783e-38 1768976227
-43.176182 -5.079971 5.994815 1.880790849211783e-38 1768976227
-43.287506 -5.093069 5.760800 1.880790849211783e-38 1768976227
-44.743927 -5.264427 3.983805 1.880790849211783e-38 1768976227
-44.639305 -5.252118 3.772356 1.880790849211783e-38 1768976227
-44.492710 -5.234869 3.476079 1.880790849211783e-38 1768976227
-46.321083 -5.449991 3.323368 1.880790849211783e-38 1768976227
-29.447330 -3.464678 12.352905 1.880790849211783e-38 1768976227
-29.768026 -3.502410 12.242352 1.880790849211783e-38 1768976227
-39.737595 -4.675398 8.032553 1.880790849211783e-38 1768976227
-41.048382 -4.829621 7.866626 1.880790849211783e-38 1768976227
-30.407064 -3.577597 12.211010 1.880790849211783e-38 1768976227
-30.512125 -3.589958 11.914073 1.880790849211783e-38 1768976227
-26.261713 -3.089869 12.270601 1.880790849211783e-38 1768976227
-28.059227 -3.301358 12.735082 1.880790849211783e-38 1768976227
-30.563692 -3.596026 11.607088 1.880790849211783e-38 1768976227
-30.621330 -3.602807 11.231909 1.880790849211783e-38 1768976227
-28.801226 -3.388659 12.757664 1.880790849211783e-38 1768976227
-29.129368 -3.427268 12.489323 1.880790849211783e-38 1768976227
-33.989029 -3.999040 10.081614 1.880790849211783e-38 1768976227
-34.202679 -4.024177 9.884512 1.880790849211783e-38 1768976227
-31.012726 -3.648857 11.011630 1.880790849211783e-38 1768976227
-31.008780 -3.648393 10.812375 1.880790849211783e-38 1768976227
-38.438496 -4.522549 10.728897 1.880790849211783e-38 1768976227
-41.602287 -4.894792 11.235208 1.880790849211783e-38 1768976227
-31.476130 -3.703380 10.696756 1.880790849211783e-38 1768976227
-31.695068 -3.729140 10.464547 1.880790849211783e-38 1768976227
-37.252213 -4.382975 9.677043 1.880790849211783e-38 1768976227
-36.852806 -4.335982 9.133346 1.880790849211783e-38 1768976227
-31.883110 -3.751264 10.178826 1.880790849211783e-38 1768976227
-33.625202 -3.956233 10.347426 1.880790849211783e-38 1768976227
-41.200123 -4.847474 7.564985 1.880790849211783e-38 1768976227
-41.423218 -4.873723 7.230807 1.880790849211783e-38 1768976227
-39.232037 -4.615915 9.286949 1.880790849211783e-38 1768976227
-39.313782 -4.625533 9.063548 1.880790849211783e-38 1768976227
-42.367447 -4.984818 7.046819 1.880790849211783e-38 1768976227
-42.649132 -5.017960 6.716205 1.880790849211783e-38 1768976227
-40.823383 -4.803148 9.016662 1.880790849211783e-38 1768976227
-39.137272 -4.604765 8.354253 1.880790849211783e-38 1768976227
-43.621998 -4.999107 5.480170 1.880790849211783e-38 1768976227
-43.743633 -5.013047 5.270441 1.880790849211783e-38 1768976227
-43.885574 -5.029314 5.025683 1.880790849211783e-38 1768976227
-44.850166 -5.139856 4.822392 1.880790849211783e-38 1768976227
-42.582092 -4.879933 6.427181 1.880790849211783e-38 1768976227
-42.988525 -4.926510 6.205484 1.880790849211783e-38 1768976227
-44.936520 -5.149753 4.628269 1.880790849211783e-38 1768976227
-45.062717 -5.164215 4.344569 1.880790849211783e-38 1768976227
-43.094891 -4.938701 5.981433 1.880790849211783e-38 1768976227
-43.448025 -4.979170 5.780138 1.880790849211783e-38 1768976227
-45.032883 -5.160795 4.008128 1.880790849211783e-38 1768976227
-44.930183 -5.149026 3.795609 1.880790849211783e-38 1768976227
-44.786293 -5.132536 3.497790 1.880790849211783e-38 1768976227
-46.305218 -5.306606 3.321066 1.880790849211783e-38 1768976227
-29.390942 -3.368219 12.324933 1.880790849211783e-38 1768976227
-29.774691 -3.412197 12.240808 1.880790849211783e-38 1768976227
-39.707687 -4.550525 8.023697 1.880790849211783e-38 1768976227
-41.085140 -4.708381 7.870913 1.880790849211783e-38 1768976227
-30.425383 -3.486766 12.214088 1.880790849211783e-38 1768976227
-30.542311 -3.500167 11.921683 1.880790849211783e-38 1768976227
-26.291414 -3.013012 12.280178 1.880790849211783e-38 1768976227
-28.092455 -3.219412 12.745698 1.880790849211783e-38 1768976227
-30.593962 -3.506086 11.614514 1.880790849211783e-38 1768976227
-30.613194 -3.508290 11.224993 1.880790849211783e-38 1768976227
-28.791887 -3.299567 12.749062 1.880790849211783e-38 1768976227
-29.119694 -3.337134 12.480803 1.880790849211783e-38 1768976227
-33.963509 -3.892238 10.070517 1.880790849211783e-38 1768976227
-34.183765 -3.917480 9.875588 1.880790849211783e-38 1768976227
-31.004251 -3.553105 11.004766 1.880790849211783e-38 1768976227
-30.911352 -3.542459 10.774629 1.880790849211783e-38 1768976227
-38.445374 -4.405862 10.727059 1.880790849211783e-38 1768976227
-41.430027 -4.747905 11.184769 1.880790849211783e-38 1768976227
-31.479866 -3.607611 10.694280 1.880790849211783e-38 1768976227
-31.704226 -3.633323 10.463905 1.880790849211783e-38 1768976227
-37.274551 -4.271686 9.679456 1.880790849211783e-38 1768976227
-36.845028 -4.222462 9.128222 1.880790849211783e-38 1768976227
-33.100620 -3.793351 10.563822 1.880790849211783e-38 1768976227
-33.576118 -3.847843 10.328704 1.880790849211783e-38 1768976227
-41.221622 -4.724022 7.566282 1.880790849211783e-38 1768976227
-41.273525 -4.729971 7.202155 1.880790849211783e-38 1768976227
-39.370884 -4.511926 9.316553 1.880790849211783e-38 1768976227
-39.480564 -4.524496 9.098810 1.880790849211783e-38 1768976227
-42.206238 -4.836860 7.017548 1.880790849211783e-38 1768976227
-42.615734 -4.883788 6.708596 1.880790849211783e-38 1768976227
-39.010036 -4.470574 8.613130 1.880790849211783e-38 1768976227
-39.326073 -4.506791 8.391615 1.880790849211783e-38 1768976227
-43.604889 -4.863952 5.476152 1.880790849211783e-38 1768976227
-43.726383 -4.877505 5.266566 1.880790849211783e-38 1768976227
-43.868164 -4.893320 5.021977 1.880790849211783e-38 1768976227
-44.800262 -4.997292 4.815384 1.880790849211783e-38 1768976227
-42.480625 -4.738545 6.409679 1.880790849211783e-38 1768976227
-42.787457 -4.772772 6.174354 1.880790849211783e-38 1768976227
-44.886391 -5.006899 4.621530 1.880790849211783e-38 1768976227
-45.012268 -5.020941 4.338226 1.880790849211783e-38 1768976227
-43.296909 -4.829599 6.007423 1.880790849211783e-38 1768976227
-43.431110 -4.844568 5.775918 1.880790849211783e-38 1768976227
-45.334900 -5.056929 4.033633 1.880790849211783e-38 1768976227
-45.230873 -5.045325 3.819707 1.880790849211783e-38 1768976227
-45.085094 -5.029064 3.519926 1.880790849211783e-38 1768976227
-46.177113 -5.150875 3.310749 1.880790849211783e-38 1768976227
-29.334383 -3.272134 12.297022 1.880790849211783e-38 1768976227
-29.781418 -3.321999 12.239397 1.880790849211783e-38 1768976227
-39.677746 -4.425895 8.014913 1.880790849211783e-38 1768976227
-41.121925 -4.586987 7.875274 1.880790849211783e-38 1768976227
-30.410194 -3.392137 12.203829 1.880790849211783e-38 1768976227
-30.572517 -3.410243 11.929406 1.880790849211783e-38 1768976227
-28.887278 -3.222261 13.488052 1.880790849211783e-38 1768976227
-28.125166 -3.137251 12.756187 1.880790849211783e-38 1768976227
-30.624254 -3.416014 11.622051 1.880790849211783e-38 1768976227
-30.604950 -3.413861 11.218144 1.880790849211783e-38 1768976227
-28.782459 -3.210569 12.740541 1.880790849211783e-38 1768976227
-29.109947 -3.247099 12.472370 1.880790849211783e-38 1768976227
-33.913231 -3.782886 10.052179 1.880790849211783e-38 1768976227
-34.164810 -3.810949 9.866747 1.880790849211783e-38 1768976227
-30.995663 -3.457443 10.997967 1.880790849211783e-38 1768976227
-31.212364 -3.481615 10.875841 1.880790849211783e-38 1768976227
-38.452301 -4.289202 10.725334 1.880790849211783e-38 1768976227
-41.180557 -4.593528 11.113629 1.880790849211783e-38 1768976227
-31.483526 -3.511862 10.691876 1.880790849211783e-38 1768976227
-31.707863 -3.536886 10.461537 1.880790849211783e-38 1768976227
-37.297024 -4.160335 9.681989 1.880790849211783e-38 1768976227
-41.067184 -4.580881 10.170775 1.880790849211783e-38 1768976227
-33.024574 -3.683760 10.535960 1.880790849211783e-38 1768976227
-33.527096 -3.739815 10.310107 1.880790849211783e-38 1768976227
-41.258598 -4.602233 7.570487 1.880790849211783e-38 1768976227
-41.216381 -4.597524 7.189730 1.880790849211783e-38 1768976227
-39.510807 -4.407274 9.346477 1.880790849211783e-38 1768976227
-39.050591 -4.355938 8.996649 1.880790849211783e-38 1768976227
-42.046230 -4.690090 6.988560 1.880790849211783e-38 1768976227
-42.582340 -4.749891 6.701054 1.880790849211783e-38 1768976227
-38.943878 -4.344035 8.595591 1.880790849211783e-38 1768976227
-39.258724 -4.379155 8.374387 1.880790849211783e-38 1768976227
-43.587765 -4.728991 5.472186 1.880790849211783e-38 1768976227
-43.709129 -4.742158 5.262741 1.880790849211783e-38 1768976227
-43.850761 -4.757524 5.018319 1.880790849211783e-38 1768976227
-44.750484 -4.855138 4.808437 1.880790849211783e-38 1768976227
-42.379639 -4.597917 6.392321 1.880790849211783e-38 1768976227
-42.684914 -4.631037 6.157514 1.880790849211783e-38 1768976227
-44.836388 -4.864459 4.614850 1.880790849211783e-38 1768976227
-44.961941 -4.878080 4.331937 1.880790849211783e-38 1768976227
-43.232258 -4.690420 5.996463 1.880790849211783e-38 1768976227
-43.414192 -4.710159 5.771753 1.880790849211783e-38 1768976227
-45.104034 -4.893497 4.011761 1.880790849211783e-38 1768976227
-45.535419 -4.940299 3.844150 1.880790849211783e-38 1768976227
-45.387722 -4.924275 3.542377 1.880790849211783e-38 1768976227
-46.254520 -5.018317 3.315199 1.880790849211783e-38 1768976227
-29.317513 -3.180760 12.285872 1.880790849211783e-38 1768976227
-29.788223 -3.231829 12.238132 1.880790849211783e-38 1768976227
-39.647755 -4.301525 8.006197 1.880790849211783e-38 1768976227
-41.158703 -4.465453 7.879703 1.880790849211783e-38 1768976227
-30.394888 -3.297649 12.193641 1.880790849211783e-38 1768976227
-30.599781 -3.319878 11.936083 1.880790849211783e-38 1768976227
-28.908447 -3.136379 13.493458 1.880790849211783e-38 1768976227
-28.157322 -3.054887 12.766537 1.880790849211783e-38 1768976227
-30.654577 -3.325823 11.629699 1.880790849211783e-38 1768976227
-30.596617 -3.319535 11.211370 1.880790849211783e-38 1768976227
-28.752707 -3.119483 12.723149 1.880790849211783e-38 1768976227
-29.100115 -3.157174 12.464022 1.880790849211783e-38 1768976227
-33.863026 -3.673919 10.033969 1.880790849211783e-38 1768976227
-34.131878 -3.703088 9.853966 1.880790849211783e-38 1768976227
-30.986975 -3.361886 10.991237 1.880790849211783e-38 1768976227
-31.203489 -3.385377 10.869142 1.880790849211783e-38 1768976227
-38.459290 -4.172584 10.723725 1.880790849211783e-38 1768976227
-38.405315 -4.166728 10.361220 1.880790849211783e-38 1768976227
-31.413769 -3.408191 10.664648 1.880790849211783e-38 1768976227
-31.711428 -3.440484 10.459242 1.880790849211783e-38 1768976227
-37.319622 -4.048938 9.684642 1.880790849211783e-38 1768976227
-41.128380 -4.462163 10.182552 1.880790849211783e-38 1768976227
-32.948799 -3.574732 10.508297 1.880790849211783e-38 1768976227
-33.478165 -3.632164 10.291644 1.880790849211783e-38 1768976227
-41.295586 -4.480304 7.574760 1.880790849211783e-38 1768976227
-41.159359 -4.465525 7.177402 1.880790849211783e-38 1768976227
-39.651764 -4.301960 9.376709 1.880790849211783e-38 1768976227
-38.906597 -4.221114 8.960502 1.880790849211783e-38 1768976227
-41.887413 -4.544513 6.959853 1.880790849211783e-38 1768976227
-42.516369 -4.612751 6.688453 1.880790849211783e-38 1768976227
-38.877903 -4.218001 8.578182 1.880790849211783e-38 1768976227
-39.191578 -4.252033 8.357291 1.880790849211783e-38 1768976227
-43.570648 -4.594221 5.468272 1.880790849211783e-38 1768976227
-43.691875 -4.607004 5.258967 1.880790849211783e-38 1768976227
-43.833344 -4.621921 5.014708 1.880790849211783e-38 1768976227
-44.599903 -4.702749 4.790712 1.880790849211783e-38 1768976227
-42.698399 -4.502248 6.438323 1.880790849211783e-38 1768976227
-42.582863 -4.490066 6.140810 1.880790849211783e-38 1768976227
-44.770042 -4.720689 4.606534 1.880790849211783e-38 1768976227
-44.911762 -4.735632 4.325707 1.880790849211783e-38 1768976227
-43.004398 -4.534514 5.962934 1.880790849211783e-38 1768976227
-43.343716 -4.570292 5.760524 1.880790849211783e-38 1768976227
-45.053490 -4.750577 4.005973 1.880790849211783e-38 1768976227
-45.860416 -4.835662 3.870338 1.880790849211783e-38 1768976227
-45.701111 -4.818864 3.565686 1.880790849211783e-38 1768976227
-46.257683 -4.877551 3.314356 1.880790849211783e-38 1768976227
-46.347660 -4.887038 3.082636 1.880790849211783e-38 1768976227
-29.307386 -3.090260 12.277667 1.880790849211783e-38 1768976227
-29.795095 -3.141685 12.237007 1.880790849211783e-38 1768976227
-39.617737 -4.177414 7.997556 1.880790849211783e-38 1768976227
-41.166256 -4.340695 7.878607 1.880790849211783e-38 1768976227
-29.614796 -3.122674 11.876855 1.880790849211783e-38 1768976227
-30.624617 -3.229152 11.941917 1.880790849211783e-38 1768976227
-28.929480 -3.050411 13.498919 1.880790849211783e-38 1768976227
-28.188942 -2.972327 12.776750 1.880790849211783e-38 1768976227
-30.684919 -3.235511 11.637456 1.880790849211783e-38 1768976227
-31.390362 -3.309895 11.498507 1.880790849211783e-38 1768976227
-28.718098 -3.028123 12.703735 1.880790849211783e-38 1768976227
-29.090204 -3.067359 12.455757 1.880790849211783e-38 1768976227
-33.812920 -3.565336 10.015890 1.880790849211783e-38 1768976227
-34.080883 -3.593591 9.836069 1.880790849211783e-38 1768976227
-30.978193 -3.266434 10.984577 1.880790849211783e-38 1768976227
-31.194508 -3.289243 10.862509 1.880790849211783e-38 1768976227
-38.466335 -4.056007 10.722230 1.880790849211783e-38 1768976227
-38.355316 -4.044300 10.344393 1.880790849211783e-38 1768976227
-31.490629 -3.320467 10.687293 1.880790849211783e-38 1768976227
-31.714918 -3.344117 10.457020 1.880790849211783e-38 1768976227
-37.365585 -3.939940 9.693441 1.880790849211783e-38 1768976227
-41.160557 -4.340094 10.187232 1.880790849211783e-38 1768976227
-32.873283 -3.466258 10.480831 1.880790849211783e-38 1768976227
-33.400486 -3.521848 10.264453 1.880790849211783e-38 1768976227
-41.332584 -4.358232 7.579101 1.880790849211783e-38 1768976227
-41.495506 -4.375412 7.233685 1.880790849211783e-38 1768976227
-39.622169 -4.177882 9.366689 1.880790849211783e-38 1768976227
-39.362225 -4.150472 9.062512 1.880790849211783e-38 1768976227
-41.477844 -4.373549 6.889577 1.880790849211783e-38 1768976227
-42.401546 -4.470948 6.668238 1.880790849211783e-38 1768976227
-39.323673 -4.146407 8.673739 1.880790849211783e-38 1768976227
-39.124611 -4.125417 8.340320 1.880790849211783e-38 1768976227
-43.497978 -4.453952 5.457441 1.880790849211783e-38 1768976227
-43.670948 -4.471663 5.254801 1.880790849211783e-38 1768976227
-43.815933 -4.486509 5.011145 1.880790849211783e-38 1768976227
-44.430012 -4.549387 4.770967 1.880790849211783e-38 1768976227
-42.565105 -4.358431 6.416214 1.880790849211783e-38 1768976227
-42.481308 -4.349851 6.124245 1.880790849211783e-38 1768976227
-44.598808 -4.566671 4.587478 1.880790849211783e-38 1768976227
-44.846619 -4.592046 4.318079 1.880790849211783e-38 1768976227
-42.739651 -4.376304 5.924367 1.880790849211783e-38 1768976227
-43.245640 -4.428114 5.745688 1.880790849211783e-38 1768976227
-45.003052 -4.608064 4.000234 1.880790849211783e-38 1768976227
-46.000725 -4.710220 3.880962 1.880790849211783e-38 1768976227
-46.034065 -4.713634 3.590538 1.880790849211783e-38 1768976227
-45.873608 -4.697204 3.285807 1.880790849211783e-38 1768976227
-46.331753 -4.744115 3.080612 1.880790849211783e-38 1768976227
-29.297184 -2.999869 12.269547 1.880790849211783e-38 1768976227
-29.802032 -3.051563 12.236021 1.880790849211783e-38 1768976227
-39.587681 -4.053559 7.988984 1.880790849211783e-38 1768976227
-41.040936 -4.202364 7.852161 1.880790849211783e-38 1768976227
-29.621698 -3.033098 11.875901 1.880790849211783e-38 1768976227
-30.649448 -3.138333 11.947854 1.880790849211783e-38 1768976227
-28.950392 -2.964360 13.504444 1.880790849211783e-38 1768976227
-28.220003 -2.889572 12.786819 1.880790849211783e-38 1768976227
-30.715282 -3.145075 11.645320 1.880790849211783e-38 1768976227
-31.394247 -3.214597 11.496326 1.880790849211783e-38 1768976227
-28.683432 -2.937024 12.684423 1.880790849211783e-38 1768976227
-29.080221 -2.977654 12.447580 1.880790849211783e-38 1768976227
-33.762894 -3.457133 9.997938 1.880790849211783e-38 1768976227
-34.029976 -3.484481 9.818300 1.880790849211783e-38 1768976227
-30.969316 -3.171086 10.977988 1.880790849211783e-38 1768976227
-31.185442 -3.193217 10.855948 1.880790849211783e-38 1768976227
-38.473438 -3.939467 10.720849 1.880790849211783e-38 1768976227
-38.305256 -3.922246 10.327654 1.880790849211783e-38 1768976227
-31.490271 -3.224429 10.683822 1.880790849211783e-38 1768976227
-31.718336 -3.247782 10.454869 1.880790849211783e-38 1768976227
-37.476112 -3.837346 9.719069 1.880790849211783e-38 1768976227
-41.192684 -4.217903 10.191988 1.880790849211783e-38 1768976227
-32.798035 -3.358337 10.453563 1.880790849211783e-38 1768976227
-33.322643 -3.412054 10.237322 1.880790849211783e-38 1768976227
-41.369598 -4.236018 7.583511 1.880790849211783e-38 1768976227
-41.525593 -4.251991 7.236661 1.880790849211783e-38 1768976227
-39.531677 -4.047824 9.342367 1.880790849211783e-38 1768976227
-39.502377 -4.044824 9.091929 1.880790849211783e-38 1768976227
-41.419910 -4.241169 6.877799 1.880790849211783e-38 1768976227
-42.239807 -4.325122 6.640720 1.880790849211783e-38 1768976227
-39.491791 -4.043740 8.708092 1.880790849211783e-38 1768976227
-39.057842 -3.999307 8.323478 1.880790849211783e-38 1768976227
-43.404846 -4.312176 5.444100 1.880790849211783e-38 1768976227
-43.577023 -4.329280 5.241904 1.880790849211783e-38 1768976227
-43.778465 -4.349294 5.005337 1.880790849211783e-38 1768976227
-43.965187 -4.367844 4.719618 1.880790849211783e-38 1768976227
-42.432671 -4.215591 6.394305 1.880790849211783e-38 1768976227
-42.729904 -4.245121 6.158211 1.880790849211783e-38 1768976227
-44.428936 -4.413917 4.568615 1.880790849211783e-38 1768976227
-44.674789 -4.438341 4.300226 1.880790849211783e-38 1768976227
-42.637276 -4.235919 5.908379 1.880790849211783e-38 1768976227
-43.036362 -4.275567 5.716144 1.880790849211783e-38 1768976227
-44.952759 -4.465957 3.994548 1.880790849211783e-38 1768976227
-45.039375 -4.474562 3.798700 1.880790849211783e-38 1768976227
-46.115166 -4.581439 3.595770 1.880790849211783e-38 1768976227
-46.208942 -4.590756 3.308819 1.880790849211783e-38 1768976227
-46.315849 -4.601377 3.078618 1.880790849211783e-38 1768976227
-29.286903 -2.909588 12.261510 1.880790849211783e-38 1768976227
-29.809032 -2.961461 12.235172 1.880790849211783e-38 1768976227
-40.906609 -4.063981 8.252639 1.880790849211783e-38 1768976227
-41.169735 -4.090121 7.874407 1.880790849211783e-38 1768976227
-29.628677 -2.943543 11.875085 1.880790849211783e-38 1768976227
-30.674257 -3.047419 11.953889 1.880790849211783e-38 1768976227
-28.971184 -2.878223 13.510033 1.880790849211783e-38 1768976227
-28.223001 -2.803892 12.784288 1.880790849211783e-38 1768976227
-30.745672 -3.054514 11.653297 1.880790849211783e-38 1768976227
-31.398058 -3.119327 11.494225 1.880790849211783e-38 1768976227
-28.648705 -2.846185 12.665214 1.880790849211783e-38 1768976227
-29.070160 -2.888056 12.439489 1.880790849211783e-38 1768976227
-33.712952 -3.349306 9.980112 1.880790849211783e-38 1768976227
-33.979164 -3.375755 9.800658 1.880790849211783e-38 1768976227
-30.960339 -3.075840 10.971468 1.880790849211783e-38 1768976227
-31.176271 -3.097293 10.849455 1.880790849211783e-38 1768976227
-38.482151 -3.823116 10.720015 1.880790849211783e-38 1768976227
-38.255127 -3.800562 10.311003 1.880790849211783e-38 1768976227
-31.480822 -3.127549 10.677368 1.880790849211783e-38 1768976227
-31.721689 -3.151479 10.452794 1.880790849211783e-38 1768976227
-37.587574 -3.734242 9.745009 1.880790849211783e-38 1768976227
-41.224743 -4.095586 10.196817 1.880790849211783e-38 1768976227
-32.723049 -3.250962 10.426491 1.880790849211783e-38 1768976227
-33.245075 -3.302824 10.210385 1.880790849211783e-38 1768976227
-41.373249 -4.110340 7.581873 1.880790849211783e-38 1768976227
-41.562851 -4.129177 7.240951 1.880790849211783e-38 1768976227
-39.441444 -3.918420 9.318208 1.880790849211783e-38 1768976227
-40.012417 -3.975144 9.206520 1.880790849211783e-38 1768976227
-41.362106 -4.109233 6.866111 1.880790849211783e-38 1768976227
-42.079292 -4.180484 6.613472 1.880790849211783e-38 1768976227
-39.661366 -3.940269 8.742825 1.880790849211783e-38 1768976227
-38.991261 -3.873695 8.306760 1.880790849211783e-38 1768976227
-43.202549 -4.160532 5.417128 1.880790849211783e-38 1768976227
-43.465691 -4.185873 5.226970 1.880790849211783e-38 1768976227
-43.684036 -4.206901 4.993067 1.880790849211783e-38 1768976227
-44.094296 -4.246409 4.732080 1.880790849211783e-38 1768976227
-42.301083 -4.073717 6.372594 1.880790849211783e-38 1768976227
-42.596378 -4.102155 6.137155 1.880790849211783e-38 1768976227
-44.260437 -4.262410 4.549945 1.880790849211783e-38 1768976227
-44.504349 -4.285899 4.282557 1.880790849211783e-38 1768976227
-42.848759 -4.126461 5.935933 1.880790849211783e-38 1768976227
-42.829159 -4.124573 5.686945 1.880790849211783e-38 1768976227
-44.781979 -4.312635 3.978199 1.880790849211783e-38 1768976227
-44.953362 -4.329140 3.790327 1.880790849211783e-38 1768976227
-46.099464 -4.439513 3.593485 1.880790849211783e-38 1768976227
-46.210228 -4.450180 3.307935 1.880790849211783e-38 1768976227
-46.299194 -4.458748 3.076603 1.880790849211783e-38 1768976227
-29.276546 -2.819417 12.253558 1.880790849211783e-38 1768976227
-29.816118 -2.871379 12.234470 1.880790849211783e-38 1768976227
-39.246048 -3.779509 7.915296 1.880790849211783e-38 1768976227
-41.128685 -3.960813 7.864235 1.880790849211783e-38 1768976227
-29.635725 -2.854007 11.874405 1.880790849211783e-38 1768976227
-30.699060 -2.956409 11.960025 1.880790849211783e-38 1768976227
-28.991844 -2.791999 13.515677 1.880790849211783e-38 1768976227
-28.189369 -2.714718 12.765286 1.880790849211783e-38 1768976227
-30.776087 -2.963827 11.661384 1.880790849211783e-38 1768976227
-31.401772 -3.024082 11.492193 1.880790849211783e-38 1768976227
-28.613932 -2.755605 12.646110 1.880790849211783e-38 1768976227
-29.060015 -2.798564 12.431480 1.880790849211783e-38 1768976227
-33.663101 -3.241855 9.962416 1.880790849211783e-38 1768976227
-33.928440 -3.267408 9.783141 1.880790849211783e-38 1768976227
-31.686390 -3.051491 11.225448 1.880790849211783e-38 1768976227
-31.167004 -3.001473 10.843030 1.880790849211783e-38 1768976227
-38.510319 -3.708656 10.724698 1.880790849211783e-38 1768976227
-38.204941 -3.679247 10.294437 1.880790849211783e-38 1768976227
-31.471285 -3.030777 10.670984 1.880790849211783e-38 1768976227
-31.724970 -3.055207 10.450792 1.880790849211783e-38 1768976227
-37.699970 -3.630617 9.771265 1.880790849211783e-38 1768976227
-41.246868 -3.972193 10.199281 1.880790849211783e-38 1768976227
-32.648323 -3.144128 10.399611 1.880790849211783e-38 1768976227
-33.167793 -3.194155 10.183644 1.880790849211783e-38 1768976227
-41.374882 -3.984522 7.579936 1.880790849211783e-38 1768976227
-41.600132 -4.006214 7.245307 1.880790849211783e-38 1768976227
-41.096077 -3.957672 9.706258 1.880790849211783e-38 1768976227
-41.352768 -3.982392 9.512117 1.880790849211783e-38 1768976227
-41.304424 -3.977736 6.854513 1.880790849211783e-38 1768976227
-41.919968 -4.037015 6.586489 1.880790849211783e-38 1768976227
-38.925163 -3.748607 8.578007 1.880790849211783e-38 1768976227
-38.924850 -3.748577 8.290167 1.880790849211783e-38 1768976227
-43.219837 -4.030695 5.417747 1.880790849211783e-38 1768976227
-43.390446 -4.046607 5.216430 1.880790849211783e-38 1768976227
-44.513115 -4.151307 5.086377 1.880790849211783e-38 1768976227
-43.925022 -4.096461 4.712568 1.880790849211783e-38 1768976227
-42.170334 -3.932818 6.351082 1.880790849211783e-38 1768976227
-42.463715 -3.960180 6.116294 1.880790849211783e-38 1768976227
-44.093296 -4.112154 4.531468 1.880790849211783e-38 1768976227
-45.718636 -4.263734 4.398147 1.880790849211783e-38 1768976227
-42.714447 -3.983563 5.915636 1.880790849211783e-38 1768976227
-42.976505 -4.008002 5.704879 1.880790849211783e-38 1768976227
-45.889233 -4.279644 4.075397 1.880790849211783e-38 1768976227
-45.965954 -4.286799 3.874598 1.880790849211783e-38 1768976227
-46.074474 -4.296920 3.590511 1.880790849211783e-38 1768976227
-46.183517 -4.307090 3.305079 1.880790849211783e-38 1768976227
-46.271832 -4.315325 3.073906 1.880790849211783e-38 1768976227
-29.266121 -2.729367 12.245694 1.880790849211783e-38 1768976227
-29.823259 -2.781326 12.233903 1.880790849211783e-38 1768976227
-39.103748 -3.646827 7.884342 1.880790849211783e-38 1768976227
-40.902512 -3.814581 7.818753 1.880790849211783e-38 1768976227
-29.642834 -2.764500 11.873860 1.880790849211783e-38 1768976227
-30.723843 -2.865314 11.966259 1.880790849211783e-38 1768976227
-29.012379 -2.705703 13.521387 1.880790849211783e-38 1768976227
-28.155689 -2.625808 12.746392 1.880790849211783e-38 1768976227
-30.806524 -2.873025 11.669580 1.880790849211783e-38 1768976227
-31.405413 -2.928878 11.490241 1.880790849211783e-38 1768976227
-28.579109 -2.665296 12.627110 1.880790849211783e-38 1768976227
-29.049801 -2.709193 12.423559 1.880790849211783e-38 1768976227
-33.605049 -3.134017 9.942392 1.880790849211783e-38 1768976227
-33.877819 -3.159455 9.765752 1.880790849211783e-38 1768976227
-31.690010 -2.955420 11.223522 1.880790849211783e-38 1768976227
-34.447426 -3.212578 11.980868 1.880790849211783e-38 1768976227
-38.538643 -3.594126 10.729519 1.880790849211783e-38 1768976227
-38.440941 -3.585014 10.355068 1.880790849211783e-38 1768976227
-31.461651 -2.934123 10.664668 1.880790849211783e-38 1768976227
-35.528400 -3.313389 11.700367 1.880790849211783e-38 1768976227
-37.813297 -3.526479 9.797838 1.880790849211783e-38 1768976227
-41.248074 -3.846807 10.196664 1.880790849211783e-38 1768976227
-32.573853 -3.037847 10.372926 1.880790849211783e-38 1768976227
-33.090790 -3.086057 10.157099 1.880790849211783e-38 1768976227
-41.376465 -3.858782 7.578059 1.880790849211783e-38 1768976227
-41.608398 -3.880412 7.244677 1.880790849211783e-38 1768976227
-41.205711 -3.842857 9.729371 1.880790849211783e-38 1768976227
-41.463699 -3.866917 9.534908 1.880790849211783e-38 1768976227
-41.780903 -3.896500 6.931604 1.880790849211783e-38 1768976227
-41.653061 -3.884577 6.542681 1.880790849211783e-38 1768976227
-39.253513 -3.660794 8.647894 1.880790849211783e-38 1768976227
-38.858646 -3.623969 8.273701 1.880790849211783e-38 1768976227
-43.980949 -3.967914 5.511630 1.880790849211783e-38 1768976227
-43.935963 -3.963856 5.280551 1.880790849211783e-38 1768976227
-44.514450 -4.016046 5.085122 1.880790849211783e-38 1768976227
-44.690102 -4.031893 4.793324 1.880790849211783e-38 1768976227
-42.040379 -3.792838 6.329759 1.880790849211783e-38 1768976227
-42.331863 -3.819136 6.095616 1.880790849211783e-38 1768976227
-45.264023 -4.083672 4.650497 1.880790849211783e-38 1768976227
-45.613640 -4.115214 4.386833 1.880790849211783e-38 1768976227
-42.580982 -3.841611 5.895520 1.880790849211783e-38 1768976227
-42.842426 -3.865198 5.685508 1.880790849211783e-38 1768976227
-45.862465 -4.137662 4.071892 1.880790849211783e-38 1768976227
-45.939060 -4.144573 3.871260 1.880790849211783e-38 1768976227
-46.047432 -4.154351 3.587411 1.880790849211783e-38 1768976227
-46.156322 -4.164174 3.302218 1.880790849211783e-38 1768976227
-46.244503 -4.172130 3.071240 1.880790849211783e-38 1768976227
-29.255602 -2.639409 12.237907 1.880790849211783e-38 1768976227
-29.830477 -2.691273 12.233479 1.880790849211783e-38 1768976227
-38.962475 -3.515153 7.853684 1.880790849211783e-38 1768976227
-40.678623 -3.669982 7.773805 1.880790849211783e-38 1768976227
-29.650017 -2.674993 11.873451 1.880790849211783e-38 1768976227
-30.725344 -2.772007 11.963534 1.880790849211783e-38 1768976227
-29.032785 -2.619307 13.527155 1.880790849211783e-38 1768976227
-28.121943 -2.537131 12.727593 1.880790849211783e-38 1768976227
-30.836996 -2.782080 11.677892 1.880790849211783e-38 1768976227
-31.408970 -2.833683 11.488363 1.880790849211783e-38 1768976227
-28.544224 -2.575229 12.608208 1.880790849211783e-38 1768976227
-29.039509 -2.619913 12.415722 1.880790849211783e-38 1768976227
-33.525768 -3.024658 9.916192 1.880790849211783e-38 1768976227
-33.827271 -3.051860 9.748483 1.880790849211783e-38 1768976227
-31.693552 -2.859358 11.221671 1.880790849211783e-38 1768976227
-34.413666 -3.104764 11.965815 1.880790849211783e-38 1768976227
-38.670341 -3.488797 10.763206 1.880790849211783e-38 1768976227
-38.494576 -3.472939 10.366648 1.880790849211783e-38 1768976227
-31.451925 -2.837559 10.658422 1.880790849211783e-38 1768976227
-35.505913 -3.203305 11.689727 1.880790849211783e-38 1768976227
-39.686535 -3.580477 10.280370 1.880790849211783e-38 1768976227
-41.249168 -3.721456 10.194114 1.880790849211783e-38 1768976227
-35.963787 -3.244614 11.449259 1.880790849211783e-38 1768976227
-33.014053 -2.978492 10.130741 1.880790849211783e-38 1768976227
-41.378002 -3.733079 7.576245 1.880790849211783e-38 1768976227
-41.609890 -3.754000 7.242932 1.880790849211783e-38 1768976227
-41.315800 -3.727467 9.752666 1.880790849211783e-38 1768976227
-41.575104 -3.750861 9.557881 1.880790849211783e-38 1768976227
-41.818432 -3.772814 6.935910 1.880790849211783e-38 1768976227
-41.594372 -3.752600 6.531655 1.880790849211783e-38 1768976227
-39.636784 -3.575988 8.729916 1.880790849211783e-38 1768976227
-38.792610 -3.499828 8.257357 1.880790849211783e-38 1768976227
-43.883430 -3.825722 5.497938 1.880790849211783e-38 1768976227
-44.074135 -3.842348 5.295741 1.880790849211783e-38 1768976227
-44.116123 -3.846009 5.038271 1.880790849211783e-38 1768976227
-44.688736 -3.895928 4.791896 1.880790849211783e-38 1768976227
-41.911240 -3.653789 6.308628 1.880790849211783e-38 1768976227
-42.200859 -3.679037 6.075126 1.880790849211783e-38 1768976227
-44.971066 -3.920542 4.619162 1.880790849211783e-38 1768976227
-45.362263 -3.954646 4.361490 1.880790849211783e-38 1768976227
-43.250572 -3.770550 5.986626 1.880790849211783e-38 1768976227
-44.057472 -3.840895 5.845190 1.880790849211783e-38 1768976227
-45.752811 -3.988694 4.061070 1.880790849211783e-38 1768976227
-45.912209 -4.002591 3.867962 1.880790849211783e-38 1768976227
-46.020432 -4.012024 3.584348 1.880790849211783e-38 1768976227
-46.129150 -4.021502 3.299392 1.880790849211783e-38 1768976227
-46.217209 -4.029180 3.068607 1.880790849211783e-38 1768976227
-46.326862 -4.038739 2.781206 1.880790849211783e-38 1768976227
-29.245020 -2.549557 12.230207 1.880790849211783e-38 1768976227
-29.837763 -2.601232 12.233193 1.880790849211783e-38 1768976227
-38.822227 -3.384491 7.823321 1.880790849211783e-38 1768976227
-40.457054 -3.527014 7.729394 1.880790849211783e-38 1768976227
-29.657261 -2.585496 11.873176 1.880790849211783e-38 1768976227
-30.714060 -2.677627 11.955941 1.880790849211783e-38 1768976227
-29.053074 -2.532824 13.532986 1.880790849211783e-38 1768976227
-28.088142 -2.448701 12.708895 1.880790849211783e-38 1768976227
-30.867485 -2.691002 11.686311 1.880790849211783e-38 1768976227
-31.412445 -2.738512 11.486561 1.880790849211783e-38 1768976227
-28.509283 -2.485416 12.589406 1.880790849211783e-38 1768976227
-29.029133 -2.530736 12.407967 1.880790849211783e-38 1768976227
-33.446774 -2.915863 9.890182 1.880790849211783e-38 1768976227
-33.776814 -2.944635 9.731339 1.880790849211783e-38 1768976227
-33.789223 -2.945717 11.960481 1.880790849211783e-38 1768976227
-34.379772 -2.997200 11.950831 1.880790849211783e-38 1768976227
-38.970524 -3.397419 10.843855 1.880790849211783e-38 1768976227
-38.548149 -3.360596 10.378298 1.880790849211783e-38 1768976227
-34.980427 -3.049565 11.850990 1.880790849211783e-38 1768976227
-35.483330 -3.093408 11.679167 1.880790849211783e-38 1768976227
-39.718235 -3.462604 10.285830 1.880790849211783e-38 1768976227
-41.250160 -3.596156 10.191632 1.880790849211783e-38 1768976227
-35.970539 -3.135883 11.448346 1.880790849211783e-38 1768976227
-34.209126 -2.982324 10.494655 1.880790849211783e-38 1768976227
-41.379509 -3.607433 7.574494 1.880790849211783e-38 1768976227
-41.611343 -3.627644 7.241248 1.880790849211783e-38 1768976227
-41.399334 -3.609161 9.769771 1.880790849211783e-38 1768976227
-41.649193 -3.630943 9.572353 1.880790849211783e-38 1768976227
-41.824375 -3.646215 6.935040 1.880790849211783e-38 1768976227
-42.915234 -3.741316 6.737270 1.880790849211783e-38 1768976227
-42.046757 -3.665602 9.258230 1.880790849211783e-38 1768976227
-38.726757 -3.376167 8.241133 1.880790849211783e-38 1768976227
-44.231064 -3.721649 5.540060 1.880790849211783e-38 1768976227
-43.976162 -3.700202 5.282604 1.880790849211783e-38 1768976227
-44.423767 -3.737864 5.072095 1.880790849211783e-38 1768976227
-44.403313 -3.736143 4.760061 1.880790849211783e-38 1768976227
-43.142715 -3.630075 6.492315 1.880790849211783e-38 1768976227
-43.237911 -3.638084 6.222809 1.880790849211783e-38 1768976227
-44.681961 -3.759588 4.588281 1.880790849211783e-38 1768976227
-45.093567 -3.794221 4.334535 1.880790849211783e-38 1768976227
-43.309280 -3.644089 5.993204 1.880790849211783e-38 1768976227
-43.379402 -3.649990 5.753742 1.880790849211783e-38 1768976227
-45.499901 -3.828411 4.037578 1.880790849211783e-38 1768976227
-45.739147 -3.848541 3.852387 1.880790849211783e-38 1768976227
-45.993450 -3.869938 3.581321 1.880790849211783e-38 1768976227
-46.102024 -3.879074 3.296600 1.880790849211783e-38 1768976227
-46.189953 -3.886472 3.066005 1.880790849211783e-38 1768976227
-46.299450 -3.895685 2.778842 1.880790849211783e-38 1768976227
-29.234358 -2.459810 12.222590 1.880790849211783e-38 1768976227
-29.683342 -2.497588 12.166739 1.880790849211783e-38 1768976227
-38.682983 -3.254828 7.793248 1.880790849211783e-38 1768976227
-40.237724 -3.385645 7.685504 1.880790849211783e-38 1768976227
-29.664576 -2.496009 11.873035 1.880790849211783e-38 1768976227
-30.697542 -2.582924 11.946424 1.880790849211783e-38 1768976227
-29.073229 -2.446252 13.538876 1.880790849211783e-38 1768976227
-28.054277 -2.360517 12.690293 1.880790849211783e-38 1768976227
-30.898008 -2.599792 11.694846 1.880790849211783e-38 1768976227
-31.415844 -2.643363 11.484837 1.880790849211783e-38 1768976227
-28.474291 -2.395857 12.570705 1.880790849211783e-38 1768976227
-29.018682 -2.441663 12.400295 1.880790849211783e-38 1768976227
-33.368069 -2.807625 9.864360 1.880790849211783e-38 1768976227
-33.724358 -2.837604 9.713716 1.880790849211783e-38 1768976227
-33.798435 -2.843836 11.960650 1.880790849211783e-38 1768976227
-34.345753 -2.889888 11.935922 1.880790849211783e-38 1768976227
-37.208126 -3.130731 10.350780 1.880790849211783e-38 1768976227
-38.601646 -3.247984 10.390018 1.880790849211783e-38 1768976227
-34.945049 -2.940314 11.835946 1.880790849211783e-38 1768976227
-35.460644 -2.983696 11.668685 1.880790849211783e-38 1768976227
-39.749889 -3.344598 10.291367 1.880790849211783e-38 1768976227
-41.251041 -3.470906 10.189217 1.880790849211783e-38 1768976227
-35.977188 -3.027159 11.447504 1.880790849211783e-38 1768976227
-33.913864 -2.853549 10.401386 1.880790849211783e-38 1768976227
-41.339668 -3.478364 7.565247 1.880790849211783e-38 1768976227
-41.585236 -3.499027 7.234835 1.880790849211783e-38 1768976227
-41.440506 -3.486849 9.776959 1.880790849211783e-38 1768976227
-41.701412 -3.508801 9.581880 1.880790849211783e-38 1768976227
-41.811020 -3.518024 6.931036 1.880790849211783e-38 1768976227
-42.742012 -3.596359 6.708343 1.880790849211783e-38 1768976227
-42.099884 -3.542329 9.267533 1.880790849211783e-38 1768976227
-38.803410 -3.264960 8.255313 1.880790849211783e-38 1768976227
-43.529118 -3.530407 5.450781 1.880790849211783e-38 1768976227
-43.878635 -3.558754 5.269575 1.880790849211783e-38 1768976227
-44.133381 -3.579416 5.037685 1.880790849211783e-38 1768976227
-44.663689 -3.622426 4.786780 1.880790849211783e-38 1768976227
-43.076153 -3.493670 6.480684 1.880790849211783e-38 1768976227
-43.267761 -3.509210 6.225554 1.880790849211783e-38 1768976227
-44.930584 -3.644072 4.612662 1.880790849211783e-38 1768976227
-45.225857 -3.668020 4.346168 1.880790849211783e-38 1768976227
-43.348503 -3.515759 5.997137 1.880790849211783e-38 1768976227
-43.432552 -3.522575 5.759356 1.880790849211783e-38 1768976227
-45.542137 -3.693672 4.040319 1.880790849211783e-38 1768976227
-45.698723 -3.706372 3.848023 1.880790849211783e-38 1768976227
-45.921207 -3.724416 3.574805 1.880790849211783e-38 1768976227
-46.074924 -3.736883 3.293841 1.880790849211783e-38 1768976227
-46.162731 -3.744005 3.063435 1.880790849211783e-38 1768976227
-46.272072 -3.752873 2.776507 1.880790849211783e-38 1768976227
-29.223623 -2.370167 12.215058 1.880790849211783e-38 1768976227
-29.621675 -2.402451 12.138438 1.880790849211783e-38 1768976227
-39.691879 -3.219189 7.994512 1.880790849211783e-38 1768976227
-40.978714 -3.323557 7.825085 1.880790849211783e-38 1768976227
-29.671951 -2.406528 11.873029 1.880790849211783e-38 1768976227
-30.680635 -2.488337 11.936871 1.880790849211783e-38 1768976227
-29.076174 -2.358208 13.536874 1.880790849211783e-38 1768976227
-28.020367 -2.272577 12.671796 1.880790849211783e-38 1768976227
-30.928553 -2.508444 11.703489 1.880790849211783e-38 1768976227
-35.983398 -2.918415 13.151340 1.880790849211783e-38 1768976227
-28.439240 -2.306550 12.552103 1.880790849211783e-38 1768976227
-29.003721 -2.352332 12.390814 1.880790849211783e-38 1768976227
-34.708000 -2.814974 10.257916 1.880790849211783e-38 1768976227
-33.644165 -2.728693 9.688204 1.880790849211783e-38 1768976227
-33.807289 -2.741922 11.960803 1.880790849211783e-38 1768976227
-34.311607 -2.782825 11.921084 1.880790849211783e-38 1768976227
-37.159916 -3.013835 10.334792 1.880790849211783e-38 1768976227
-38.655087 -3.135101 10.401808 1.880790849211783e-38 1768976227
-34.909557 -2.831321 11.820978 1.880790849211783e-38 1768976227
-35.437859 -2.874169 11.658281 1.880790849211783e-38 1768976227
-39.781506 -3.226458 10.296986 1.880790849211783e-38 1768976227
-41.219002 -3.343046 10.178766 1.880790849211783e-38 1768976227
-35.960751 -2.916578 11.439423 1.880790849211783e-38 1768976227
-36.398258 -2.952062 11.160569 1.880790849211783e-38 1768976227
-41.226585 -3.343661 7.542672 1.880790849211783e-38 1768976227
-41.544460 -3.369442 7.225940 1.880790849211783e-38 1768976227
-41.369595 -3.355260 9.757798 1.880790849211783e-38 1768976227
-41.753651 -3.386408 9.591492 1.880790849211783e-38 1768976227
-41.769753 -3.387715 6.922469 1.880790849211783e-38 1768976227
-42.471493 -3.444629 6.664225 1.880790849211783e-38 1768976227
-42.153027 -3.418799 9.276919 1.880790849211783e-38 1768976227
-39.965061 -3.241345 8.500332 1.880790849211783e-38 1768976227
-43.571259 -3.401582 5.454748 1.880790849211783e-38 1768976227
-43.781551 -3.417999 5.256654 1.880790849211783e-38 1768976227
-44.002537 -3.435251 5.021543 1.880790849211783e-38 1768976227
-44.511852 -3.475013 4.769362 1.880790849211783e-38 1768976227
-42.901463 -3.349291 6.452853 1.880790849211783e-38 1768976227
-43.297611 -3.380219 6.228354 1.880790849211783e-38 1768976227
-44.761993 -3.494541 4.594251 1.880790849211783e-38 1768976227
-45.062359 -3.517991 4.329417 1.880790849211783e-38 1768976227
-43.378448 -3.386529 5.999840 1.880790849211783e-38 1768976227
-43.462597 -3.393098 5.761957 1.880790849211783e-38 1768976227
-45.396694 -3.544092 4.026450 1.880790849211783e-38 1768976227
-45.561558 -3.556963 3.835552 1.880790849211783e-38 1768976227
-45.782646 -3.574223 3.563163 1.880790849211783e-38 1768976227
-46.005898 -3.591652 3.288117 1.880790849211783e-38 1768976227
-46.135544 -3.601774 3.060896 1.880790849211783e-38 1768976227
-46.244736 -3.610298 2.774201 1.880790849211783e-38 1768976227
-29.212809 -2.280626 12.207608 1.880790849211783e-38 1768976227
-29.559889 -2.307722 12.110211 1.880790849211783e-38 1768976227
-39.917793 -3.116358 8.038085 1.880790849211783e-38 1768976227
-41.013458 -3.201896 7.829841 1.880790849211783e-38 1768976227
-29.679405 -2.317053 11.873162 1.880790849211783e-38 1768976227
-30.663620 -2.393890 11.927387 1.880790849211783e-38 1768976227
-27.986387 -2.184880 12.653392 1.880790849211783e-38 1768976227
-30.959129 -2.416960 11.712249 1.880790849211783e-38 1768976227
-36.007122 -2.811054 13.156854 1.880790849211783e-38 1768976227
-28.404144 -2.217494 12.533605 1.880790849211783e-38 1768976227
-28.967077 -2.261441 12.372189 1.880790849211783e-38 1768976227
-34.553886 -2.697601 10.209919 1.880790849211783e-38 1768976227
-35.115833 -2.741472 10.109560 1.880790849211783e-38 1768976227
-33.815784 -2.639977 11.960938 1.880790849211783e-38 1768976227
-34.277336 -2.676011 11.906321 1.880790849211783e-38 1768976227
-37.111641 -2.897283 10.318889 1.880790849211783e-38 1768976227
-38.708454 -3.021945 10.413670 1.880790849211783e-38 1768976227
-34.873936 -2.722586 11.806083 1.880790849211783e-38 1768976227
-35.414967 -2.764825 11.647954 1.880790849211783e-38 1768976227
-39.813068 -3.108182 10.302683 1.880790849211783e-38 1768976227
-41.176174 -3.214598 10.165751 1.880790849211783e-38 1768976227
-35.937061 -2.805584 11.429143 1.880790849211783e-38 1768976227
-36.404743 -2.842096 11.159879 1.880790849211783e-38 1768976227
-40.998257 -3.200709 7.499098 1.880790849211783e-38 1768976227
-41.503754 -3.240173 7.217128 1.880790849211783e-38 1768976227
-41.298756 -3.224168 9.738751 1.880790849211783e-38 1768976227
-41.805908 -3.263761 9.601191 1.880790849211783e-38 1768976227
-41.728539 -3.257722 6.913979 1.880790849211783e-38 1768976227
-42.178860 -3.292878 6.616719 1.880790849211783e-38 1768976227
-42.206188 -3.295011 9.286390 1.880790849211783e-38 1768976227
-42.517998 -3.319354 9.041156 1.880790849211783e-38 1768976227
-43.579964 -3.270054 5.454578 1.880790849211783e-38 1768976227
-43.684891 -3.277927 5.243838 1.880790849211783e-38 1768976227
