# .PCD v0.7 - Point Cloud Data file format
VERSION 0.7
FIELDS x y z rgb label
SIZE 4 4 4 4 4
TYPE F F F F U
COUNT 1 1 1 1 1
WIDTH 765
HEIGHT 1
VIEWPOINT 0 0 0 1 0 0 0
POINTS 765
DATA ascii
20.348522 41.130169 6.065107 1.880790849211783e-38 1768976227
21.635592 43.731701 9.795038 1.880790849211783e-38 1768976227
21.378893 43.212837 9.176203 1.880790849211783e-38 1768976227
19.654518 39.727390 13.056870 1.880790849211783e-38 1768976227
19.404234 39.221497 12.559638 1.880790849211783e-38 1768976227
19.560301 39.536945 12.227838 1.880790849211783e-38 1768976227
19.797115 40.015617 11.974329 1.880790849211783e-38 1768976227
21.054348 42.556843 12.249484 1.880790849211783e-38 1768976227
22.078939 44.627838 12.255272 1.880790849211783e-38 1768976227
22.681374 45.845528 9.327479 1.880790849211783e-38 1768976227
22.974243 46.437496 8.981926 1.880790849211783e-38 1768976227
21.666014 43.793194 11.486736 1.880790849211783e-38 1768976227
21.292141 43.037487 10.994060 1.880790849211783e-38 1768976227
22.194118 44.860641 8.267688 1.880790849211783e-38 1768976227
20.394125 41.222347 7.192903 1.880790849211783e-38 1768976227
22.467422 45.413071 11.114127 1.880790849211783e-38 1768976227
21.107750 42.664783 10.091237 1.880790849211783e-38 1768976227
19.842585 39.805023 5.551196 1.880790849211783e-38 1768976227
20.403498 40.930237 5.474401 1.880790849211783e-38 1768976227
20.306713 40.736084 5.178606 1.880790849211783e-38 1768976227
20.194407 40.510796 4.835367 1.880790849211783e-38 1768976227
20.869257 41.864567 7.014560 1.880790849211783e-38 1768976227
20.747084 41.619488 6.669299 1.880790849211783e-38 1768976227
20.122398 40.366341 4.615288 1.880790849211783e-38 1768976227
20.586491 41.297333 4.419891 1.880790849211783e-38 1768976227
20.671534 41.467930 6.389282 1.880790849211783e-38 1768976227
20.228519 40.579231 5.992834 1.880790849211783e-38 1768976227
21.593683 43.317799 9.716875 1.880790849211783e-38 1768976227
21.426804 42.983032 9.141085 1.880790849211783e-38 1768976227
19.781866 39.683220 13.061904 1.880790849211783e-38 1768976227
19.583122 39.284531 12.598679 1.880790849211783e-38 1768976227
19.664696 39.448177 12.218668 1.880790849211783e-38 1768976227
19.958221 40.036999 11.998685 1.880790849211783e-38 1768976227
19.378754 38.874561 14.243034 1.880790849211783e-38 1768976227
21.137978 42.403637 12.223680 1.880790849211783e-38 1768976227
22.208740 44.551632 12.252683 1.880790849211783e-38 1768976227
22.865557 45.869232 9.346290 1.880790849211783e-38 1768976227
22.082550 44.298489 8.581042 1.880790849211783e-38 1768976227
21.691059 43.513138 11.430386 1.880790849211783e-38 1768976227
21.351906 42.832787 10.958168 1.880790849211783e-38 1768976227
20.393888 40.910961 7.551074 1.880790849211783e-38 1768976227
20.575554 41.275391 7.212954 1.880790849211783e-38 1768976227
21.587273 43.304939 10.614080 1.880790849211783e-38 1768976227
21.036860 42.200790 9.996452 1.880790849211783e-38 1768976227
20.571150 40.956726 5.720438 1.880790849211783e-38 1768976227
20.486795 40.788776 5.463720 1.880790849211783e-38 1768976227
20.922462 41.656178 5.303571 1.880790849211783e-38 1768976227
20.789057 41.390572 4.947839 1.880790849211783e-38 1768976227
21.088505 41.986763 7.045659 1.880790849211783e-38 1768976227
20.872885 41.557468 6.669418 1.880790849211783e-38 1768976227
20.703640 41.220509 4.720067 1.880790849211783e-38 1768976227
22.431868 44.661373 4.787150 1.880790849211783e-38 1768976227
20.560287 40.935093 6.316710 1.880790849211783e-38 1768976227
20.111401 40.041374 5.922333 1.880790849211783e-38 1768976227
22.667765 45.131035 4.465836 1.880790849211783e-38 1768976227
22.814379 45.422943 4.266129 1.880790849211783e-38 1768976227
21.777174 43.357891 9.740557 1.880790849211783e-38 1768976227
22.827484 45.449032 9.680120 1.880790849211783e-38 1768976227
19.781214 39.383976 12.982984 1.880790849211783e-38 1768976227
19.623816 39.070602 12.548994 1.880790849211783e-38 1768976227
19.769009 39.359680 12.209669 1.880790849211783e-38 1768976227
20.119648 40.057793 12.023046 1.880790849211783e-38 1768976227
19.561518 38.946568 14.290966 1.880790849211783e-38 1768976227
21.228649 42.265789 12.202343 1.880790849211783e-38 1768976227
22.338425 44.475330 12.250172 1.880790849211783e-38 1768976227
20.110617 40.039806 14.206683 1.880790849211783e-38 1768976227
22.009836 43.821114 8.942451 1.880790849211783e-38 1768976227
22.444235 44.685993 8.669179 1.880790849211783e-38 1768976227
21.750374 43.304531 11.392768 1.880790849211783e-38 1768976227
21.434465 42.675568 10.934435 1.880790849211783e-38 1768976227
20.574183 40.962761 7.572053 1.880790849211783e-38 1768976227
20.757973 41.328682 7.233174 1.880790849211783e-38 1768976227
21.489906 42.785950 10.502714 1.880790849211783e-38 1768976227
21.578865 42.963062 10.192388 1.880790849211783e-38 1768976227
21.183159 41.859978 5.855492 1.880790849211783e-38 1768976227
21.083040 41.662132 5.589200 1.880790849211783e-38 1768976227
20.968084 41.434971 5.283435 1.880790849211783e-38 1768976227
20.838409 41.178715 4.930004 1.880790849211783e-38 1768976227
21.309660 42.109951 7.077084 1.880790849211783e-38 1768976227
20.972015 41.442738 6.661125 1.880790849211783e-38 1768976227
20.760792 41.025337 4.704866 1.880790849211783e-38 1768976227
22.776127 45.007839 4.831627 1.880790849211783e-38 1768976227
20.355803 40.225037 6.216586 1.880790849211783e-38 1768976227
19.997068 39.516151 5.853543 1.880790849211783e-38 1768976227
22.985781 45.422131 4.501480 1.880790849211783e-38 1768976227
23.057152 45.563168 4.285811 1.880790849211783e-38 1768976227
21.941874 43.359272 9.755689 1.880790849211783e-38 1768976227
23.010830 45.471630 9.699670 1.880790849211783e-38 1768976227
19.780704 39.088589 12.905215 1.880790849211783e-38 1768976227
19.664316 38.858593 12.499892 1.880790849211783e-38 1768976227
19.873232 39.271431 12.200831 1.880790849211783e-38 1768976227
20.274540 40.064457 12.043344 1.880790849211783e-38 1768976227
19.745348 39.018719 14.339229 1.880790849211783e-38 1768976227
21.319035 42.128479 12.181209 1.880790849211783e-38 1768976227
22.467989 44.398922 12.247735 1.880790849211783e-38 1768976227
20.277103 40.069519 14.238860 1.880790849211783e-38 1768976227
20.325794 40.165741 13.757744 1.880790849211783e-38 1768976227
22.282597 44.032570 8.999276 1.880790849211783e-38 1768976227
21.428625 42.345043 8.227530 1.880790849211783e-38 1768976227
21.809427 43.097538 11.355563 1.880790849211783e-38 1768976227
21.405931 42.300198 10.854749 1.880790849211783e-38 1768976227
20.755455 41.014793 7.593208 1.880790849211783e-38 1768976227
20.941391 41.382217 7.253564 1.880790849211783e-38 1768976227
21.415277 42.318665 10.403816 1.880790849211783e-38 1768976227
22.212744 43.894535 10.429213 1.880790849211783e-38 1768976227
21.239511 41.659000 5.836313 1.880790849211783e-38 1768976227
21.148476 41.480442 5.573356 1.880790849211783e-38 1768976227
21.043848 41.275230 5.271135 1.880790849211783e-38 1768976227
21.419590 42.012203 5.037502 1.880790849211783e-38 1768976227
21.532734 42.234123 7.108834 1.880790849211783e-38 1768976227
20.758245 40.715050 6.554196 1.880790849211783e-38 1768976227
21.347015 41.869858 4.809079 1.880790849211783e-38 1768976227
23.071980 45.253193 4.865414 1.880790849211783e-38 1768976227
20.180195 39.581264 6.126472 1.880790849211783e-38 1768976227
21.373697 41.922192 6.219471 1.880790849211783e-38 1768976227
23.189192 45.483086 4.514431 1.880790849211783e-38 1768976227
23.261410 45.624729 4.298182 1.880790849211783e-38 1768976227
22.062813 43.273819 9.751390 1.880790849211783e-38 1768976227
21.953653 43.059715 9.199259 1.880790849211783e-38 1768976227
19.780331 38.796978 12.828576 1.880790849211783e-38 1768976227
20.107367 39.438423 12.705858 1.880790849211783e-38 1768976227
19.977371 39.183453 12.192161 1.880790849211783e-38 1768976227
20.429928 40.071095 12.063807 1.880790849211783e-38 1768976227
19.930248 39.091022 14.387824 1.880790849211783e-38 1768976227
21.409140 41.991707 12.160275 1.880790849211783e-38 1768976227
22.569405 44.267445 12.230187 1.880790849211783e-38 1768976227
20.444237 40.099155 14.271235 1.880790849211783e-38 1768976227
20.181089 39.583019 13.578934 1.880790849211783e-38 1768976227
21.489794 42.149902 8.627707 1.880790849211783e-38 1768976227
21.703859 42.569767 8.283874 1.880790849211783e-38 1768976227
21.868206 42.892117 11.318765 1.880790849211783e-38 1768976227
21.613546 42.392632 10.895146 1.880790849211783e-38 1768976227
20.937706 41.067043 7.614537 1.880790849211783e-38 1768976227
21.159267 41.501610 7.285644 1.880790849211783e-38 1768976227
21.443272 42.058655 10.355745 1.880790849211783e-38 1768976227
22.304092 43.747066 10.410109 1.880790849211783e-38 1768976227
21.323952 41.514732 5.825085 1.880790849211783e-38 1768976227
21.232733 41.337143 5.562680 1.880790849211783e-38 1768976227
21.579187 42.011642 5.373467 1.880790849211783e-38 1768976227
21.466232 41.791729 5.018806 1.880790849211783e-38 1768976227
21.291138 41.450844 6.987769 1.880790849211783e-38 1768976227
20.551384 40.010651 6.450752 1.880790849211783e-38 1768976227
21.929350 42.693356 4.911239 1.880790849211783e-38 1768976227
23.275183 45.313507 4.879424 1.880790849211783e-38 1768976227
21.541359 41.937992 6.501277 1.880790849211783e-38 1768976227
21.456692 41.773159 6.206933 1.880790849211783e-38 1768976227
23.393766 45.544373 4.527496 1.880790849211783e-38 1768976227
22.183681 43.188503 9.747196 1.880790849211783e-38 1768976227
22.025209 42.879982 9.175012 1.880790849211783e-38 1768976227
19.780096 38.509064 12.753042 1.880790849211783e-38 1768976227
20.301430 39.524025 12.753105 1.880790849211783e-38 1768976227
20.081440 39.095737 12.183658 1.880790849211783e-38 1768976227
20.585827 40.077709 12.084435 1.880790849211783e-38 1768976227
20.116240 39.163486 14.436758 1.880790849211783e-38 1768976227
20.686529 40.273758 11.680793 1.880790849211783e-38 1768976227
22.228888 43.276520 11.974882 1.880790849211783e-38 1768976227
20.612017 40.128693 14.303808 1.880790849211783e-38 1768976227
20.128292 39.186951 13.463827 1.880790849211783e-38 1768976227
21.764557 42.372528 8.686673 1.880790849211783e-38 1768976227
22.203545 43.227177 8.424794 1.880790849211783e-38 1768976227
21.974684 42.781612 11.307041 1.880790849211783e-38 1768976227
22.093266 43.012478 11.071525 1.880790849211783e-38 1768976227
21.120970 41.119553 7.636050 1.880790849211783e-38 1768976227
21.420815 41.703312 7.332361 1.880790849211783e-38 1768976227
21.501097 41.859604 10.322655 1.880790849211783e-38 1768976227
22.408932 43.627033 10.397582 1.880790849211783e-38 1768976227
21.408087 41.371052 5.813957 1.880790849211783e-38 1768976227
21.722462 41.978577 5.657788 1.880790849211783e-38 1768976227
21.625322 41.790859 5.353546 1.880790849211783e-38 1768976227
21.515297 41.578236 5.000937 1.880790849211783e-38 1768976227
21.120911 40.816086 6.891468 1.880790849211783e-38 1768976227
20.413643 39.449295 6.370144 1.880790849211783e-38 1768976227
21.997522 42.510132 4.897771 1.880790849211783e-38 1768976227
23.479546 45.374134 4.893556 1.880790849211783e-38 1768976227
21.645702 41.830238 6.494664 1.880790849211783e-38 1768976227
21.541098 41.628094 6.195004 1.880790849211783e-38 1768976227
22.044731 42.601364 9.629646 1.880790849211783e-38 1768976227
22.049433 42.610447 9.131526 1.880790849211783e-38 1768976227
19.540915 37.762749 12.525346 1.880790849211783e-38 1768976227
20.457237 39.533535 12.776024 1.880790849211783e-38 1768976227
20.196522 39.029705 12.182007 1.880790849211783e-38 1768976227
20.742237 40.084297 12.105229 1.880790849211783e-38 1768976227
20.303324 39.236099 14.486032 1.880790849211783e-38 1768976227
20.840187 40.273590 11.698920 1.880790849211783e-38 1768976227
22.390682 43.269913 11.991686 1.880790849211783e-38 1768976227
20.780449 40.158142 14.336579 1.880790849211783e-38 1768976227
20.076687 38.798122 13.350977 1.880790849211783e-38 1768976227
22.043058 42.598129 8.746512 1.880790849211783e-38 1768976227
22.623831 43.720467 8.534195 1.880790849211783e-38 1768976227
22.101816 42.711678 11.306124 1.880790849211783e-38 1768976227
21.482943 41.515709 10.702881 1.880790849211783e-38 1768976227
21.305229 41.172276 7.657738 1.880790849211783e-38 1768976227
21.556881 41.658596 7.335896 1.880790849211783e-38 1768976227
21.519417 41.586193 10.271190 1.880790849211783e-38 1768976227
22.530867 43.540817 10.393181 1.880790849211783e-38 1768976227
21.853544 41.921654 5.900570 1.880790849211783e-38 1768976227
21.773821 41.768719 5.638329 1.880790849211783e-38 1768976227
21.682058 41.592690 5.336513 1.880790849211783e-38 1768976227
21.575457 41.388199 4.985883 1.880790849211783e-38 1768976227
21.078588 40.435055 6.837837 1.880790849211783e-38 1768976227
21.832043 41.880409 6.773314 1.880790849211783e-38 1768976227
23.578230 45.230118 5.219321 1.880790849211783e-38 1768976227
23.685087 45.435101 4.907813 1.880790849211783e-38 1768976227
21.730011 41.684677 6.482210 1.880790849211783e-38 1768976227
21.625204 41.483627 6.183183 1.880790849211783e-38 1768976227
22.109001 42.411694 9.601802 1.880790849211783e-38 1768976227
22.073509 42.343609 9.088568 1.880790849211783e-38 1768976227
19.595858 37.590736 12.487838 1.880790849211783e-38 1768976227
20.562365 39.444786 12.767325 1.880790849211783e-38 1768976227
20.313068 38.966560 12.181364 1.880790849211783e-38 1768976227
20.899160 40.090862 12.126190 1.880790849211783e-38 1768976227
20.491512 39.308868 14.535649 1.880790849211783e-38 1768976227
20.979206 40.244411 11.708771 1.880790849211783e-38 1768976227
22.552889 43.263203 12.008622 1.880790849211783e-38 1768976227
20.949549 40.187515 14.369556 1.880790849211783e-38 1768976227
20.065449 38.491550 13.266245 1.880790849211783e-38 1768976227
22.577311 43.310055 8.906630 1.880790849211783e-38 1768976227
22.930130 43.986870 8.599656 1.880790849211783e-38 1768976227
22.228998 42.641888 11.305344 1.880790849211783e-38 1768976227
21.856642 41.927593 10.826011 1.880790849211783e-38 1768976227
21.490505 41.225239 7.679609 1.880790849211783e-38 1768976227
21.951157 42.108906 7.426818 1.880790849211783e-38 1768976227
21.728531 41.681839 10.310951 1.880790849211783e-38 1768976227
22.195137 42.576931 10.179033 1.880790849211783e-38 1768976227
21.913290 41.728756 5.882695 1.880790849211783e-38 1768976227
21.833578 41.576965 5.621307 1.880790849211783e-38 1768976227
21.741844 41.402279 5.320470 1.880790849211783e-38 1768976227
22.174803 42.226742 5.094934 1.880790849211783e-38 1768976227
20.961611 39.916504 6.760807 1.880790849211783e-38 1768976227
21.916254 41.734398 6.760360 1.880790849211783e-38 1768976227
23.781988 45.287254 5.234167 1.880790849211783e-38 1768976227
23.891808 45.496384 4.922193 1.880790849211783e-38 1768976227
22.122503 42.127155 6.561363 1.880790849211783e-38 1768976227
22.029091 41.949272 6.262462 1.880790849211783e-38 1768976227
22.615038 43.065075 9.765121 1.880790849211783e-38 1768976227
22.097431 42.079411 9.046124 1.880790849211783e-38 1768976227
19.670704 37.458275 12.463486 1.880790849211783e-38 1768976227
20.667431 39.356308 12.758803 1.880790849211783e-38 1768976227
20.429665 38.903534 12.180867 1.880790849211783e-38 1768976227
21.047359 40.079792 12.141988 1.880790849211783e-38 1768976227
20.680813 39.381790 14.585612 1.880790849211783e-38 1768976227
21.127869 40.233105 11.723967 1.880790849211783e-38 1768976227
21.631508 41.192169 11.451818 1.880790849211783e-38 1768976227
21.091002 40.162895 14.383432 1.880790849211783e-38 1768976227
20.120056 38.313957 13.225891 1.880790849211783e-38 1768976227
23.004452 43.806618 9.022974 1.880790849211783e-38 1768976227
23.107393 44.002647 8.616326 1.880790849211783e-38 1768976227
21.875978 41.657707 11.061856 1.880790849211783e-38 1768976227
22.000006 41.893887 10.834390 1.880790849211783e-38 1768976227
21.676815 41.278446 7.701664 1.880790849211783e-38 1768976227
21.768394 41.452835 7.322652 1.880790849211783e-38 1768976227
22.251091 42.372021 10.498237 1.880790849211783e-38 1768976227
22.393658 42.643505 10.211050 1.880790849211783e-38 1768976227
21.972683 41.537033 5.864983 1.880790849211783e-38 1768976227
21.893000 41.386402 5.604444 1.880790849211783e-38 1768976227
21.801291 41.213036 5.304577 1.880790849211783e-38 1768976227
22.244352 42.050594 5.081751 1.880790849211783e-38 1768976227
22.122810 41.820835 7.094619 1.880790849211783e-38 1768976227
22.443184 42.426472 6.883398 1.880790849211783e-38 1768976227
23.973335 45.319054 5.246175 1.880790849211783e-38 1768976227
22.199827 41.966427 6.546728 1.880790849211783e-38 1768976227
22.088821 41.756580 6.243612 1.880790849211783e-38 1768976227
22.597637 42.718441 9.701931 1.880790849211783e-38 1768976227
22.124350 41.823742 9.005465 1.880790849211783e-38 1768976227
19.785959 37.403263 12.464980 1.880790849211783e-38 1768976227
20.775515 39.273911 12.752347 1.880790849211783e-38 1768976227
20.546309 38.840622 12.180516 1.880790849211783e-38 1768976227
21.190937 40.059227 12.155064 1.880790849211783e-38 1768976227
20.854736 39.423672 14.624352 1.880790849211783e-38 1768976227
21.276890 40.221710 11.739292 1.880790849211783e-38 1768976227
21.833738 41.274372 11.492927 1.880790849211783e-38 1768976227
21.228065 40.129414 14.394303 1.880790849211783e-38 1768976227
20.174446 38.137657 13.185975 1.880790849211783e-38 1768976227
23.201077 43.859180 9.048172 1.880790849211783e-38 1768976227
23.285343 44.018482 8.633139 1.880790849211783e-38 1768976227
21.006603 39.710762 10.561637 1.880790849211783e-38 1768976227
22.147707 41.867901 10.844894 1.880790849211783e-38 1768976227
21.864168 41.331898 7.723906 1.880790849211783e-38 1768976227
21.111710 39.909458 7.061229 1.880790849211783e-38 1768976227
22.449104 42.437656 10.531226 1.880790849211783e-38 1768976227
22.239950 42.042271 10.083099 1.880790849211783e-38 1768976227
22.031740 41.346500 5.847435 1.880790849211783e-38 1768976227
21.952084 41.197010 5.587737 1.880790849211783e-38 1768976227
21.860399 41.024948 5.288830 1.880790849211783e-38 1768976227
22.313559 41.875378 5.068686 1.880790849211783e-38 1768976227
22.528959 42.279621 7.183943 1.880790849211783e-38 1768976227
22.385067 42.009583 6.826683 1.880790849211783e-38 1768976227
24.165554 45.350986 5.258285 1.880790849211783e-38 1768976227
22.276831 41.806454 6.532223 1.880790849211783e-38 1768976227
22.165682 41.597866 6.229848 1.880790849211783e-38 1768976227
22.619543 42.449615 9.656326 1.880790849211783e-38 1768976227
23.303993 43.734108 9.431893 1.880790849211783e-38 1768976227
19.901308 37.348362 12.466630 1.880790849211783e-38 1768976227
20.893509 39.210403 12.752129 1.880790849211783e-38 1768976227
20.663000 38.777813 12.180307 1.880790849211783e-38 1768976227
21.334812 40.038589 12.168270 1.880790849211783e-38 1768976227
21.021343 39.450310 14.657683 1.880790849211783e-38 1768976227
21.426260 40.210205 11.754742 1.880790849211783e-38 1768976227
22.037363 41.357052 11.534403 1.880790849211783e-38 1768976227
21.365253 40.095718 14.405266 1.880790849211783e-38 1768976227
20.228634 37.962650 13.146501 1.880790849211783e-38 1768976227
23.378891 43.874668 9.065872 1.880790849211783e-38 1768976227
23.143299 43.432537 8.531872 1.880790849211783e-38 1768976227
21.868856 41.040821 10.932877 1.880790849211783e-38 1768976227
22.295540 41.841568 10.855442 1.880790849211783e-38 1768976227
22.052568 41.385590 7.746332 1.880790849211783e-38 1768976227
22.222593 41.704670 7.390684 1.880790849211783e-38 1768976227
22.557940 42.334011 10.522339 1.880790849211783e-38 1768976227
22.050306 41.381340 9.940491 1.880790849211783e-38 1768976227
22.100767 41.176331 5.832768 1.880790849211783e-38 1768976227
22.010832 41.008766 5.571184 1.880790849211783e-38 1768976227
21.919172 40.837997 5.273227 1.880790849211783e-38 1768976227
22.382412 41.701065 5.055735 1.880790849211783e-38 1768976227
22.660378 42.218952 7.185214 1.880790849211783e-38 1768976227
22.461884 41.849133 6.811587 1.880790849211783e-38 1768976227
24.358641 45.383011 5.270492 1.880790849211783e-38 1768976227
22.353516 41.647232 6.517848 1.880790849211783e-38 1768976227
22.242229 41.439892 6.216207 1.880790849211783e-38 1768976227
22.664284 42.226223 9.621016 1.880790849211783e-38 1768976227
23.468563 43.724697 9.445086 1.880790849211783e-38 1768976227
20.016752 37.293564 12.468432 1.880790849211783e-38 1768976227
21.011560 39.147011 12.752063 1.880790849211783e-38 1768976227
20.781151 38.717728 12.181066 1.880790849211783e-38 1768976227
21.478802 40.017532 12.181502 1.880790849211783e-38 1768976227
21.188593 39.476841 14.691218 1.880790849211783e-38 1768976227
21.857426 40.722958 11.923852 1.880790849211783e-38 1768976227
21.544275 40.139519 11.212906 1.880790849211783e-38 1768976227
21.502577 40.061829 14.416323 1.880790849211783e-38 1768976227
20.284792 37.792957 13.108862 1.880790849211783e-38 1768976227
23.309608 43.428543 8.988174 1.880790849211783e-38 1768976227
23.416822 43.628296 8.584160 1.880790849211783e-38 1768976227
21.884769 40.773899 10.879305 1.880790849211783e-38 1768976227
22.443508 41.814896 10.866035 1.880790849211783e-38 1768976227
22.242037 41.439529 7.768949 1.880790849211783e-38 1768976227
22.615105 42.134598 7.478926 1.880790849211783e-38 1768976227
22.363861 41.666504 10.373145 1.880790849211783e-38 1768976227
22.645082 42.190453 10.151212 1.880790849211783e-38 1768976227
22.176828 41.020660 5.820165 1.880790849211783e-38 1768976227
22.079525 40.840679 5.557369 1.880790849211783e-38 1768976227
49.000004 90.635696 -0.598602 1.880790849211783e-38 1768976227
49.000000 90.635696 -1.188327 1.880790849211783e-38 1768976227
21.977619 40.652176 5.257768 1.880790849211783e-38 1768976227
24.472977 45.267860 5.497088 1.880790849211783e-38 1768976227
22.210083 41.082172 7.003114 1.880790849211783e-38 1768976227
22.538391 41.689442 6.796628 1.880790849211783e-38 1768976227
22.429897 41.488758 6.503605 1.880790849211783e-38 1768976227
22.318472 41.282654 6.202690 1.880790849211783e-38 1768976227
49.000004 90.635696 4.982710 1.880790849211783e-38 1768976227
49.000000 90.635696 4.287680 1.880790849211783e-38 1768976227
49.000000 90.635696 3.803263 1.880790849211783e-38 1768976227
49.000000 90.635696 3.108232 1.880790849211783e-38 1768976227
48.999996 90.635689 2.602754 1.880790849211783e-38 1768976227
49.000000 90.635696 -1.841234 1.880790849211783e-38 1768976227
48.999996 90.635696 -2.409897 1.880790849211783e-38 1768976227
49.000000 90.635696 1.781354 1.880790849211783e-38 1768976227
49.000000 90.635696 1.254815 1.880790849211783e-38 1768976227
49.000000 90.635704 -3.041744 1.880790849211783e-38 1768976227
48.999992 90.635681 -3.547221 1.880790849211783e-38 1768976227
49.000008 90.635712 0.622969 1.880790849211783e-38 1768976227
49.000000 90.635704 0.075367 1.880790849211783e-38 1768976227
22.765661 42.109825 9.610094 1.880790849211783e-38 1768976227
23.451174 43.377827 9.385393 1.880790849211783e-38 1768976227
20.132294 37.238865 12.470388 1.880790849211783e-38 1768976227
21.147018 39.115810 12.762618 1.880790849211783e-38 1768976227
20.892345 38.644737 12.177870 1.880790849211783e-38 1768976227
21.617332 39.985756 12.191620 1.880790849211783e-38 1768976227
21.345467 39.482883 14.717358 1.880790849211783e-38 1768976227
22.020628 40.731735 11.945814 1.880790849211783e-38 1768976227
21.416477 39.614231 11.084161 1.880790849211783e-38 1768976227
21.640030 40.027740 14.427476 1.880790849211783e-38 1768976227
20.401928 37.737610 13.110948 1.880790849211783e-38 1768976227
23.255739 43.016335 8.917336 1.880790849211783e-38 1768976227
23.465775 43.404831 8.554078 1.880790849211783e-38 1768976227
21.944168 40.590305 10.847928 1.880790849211783e-38 1768976227
22.591604 41.787872 10.876668 1.880790849211783e-38 1768976227
22.432581 41.493729 7.791759 1.880790849211783e-38 1768976227
22.746284 42.073986 7.480310 1.880790849211783e-38 1768976227
22.259140 41.172913 10.266928 1.880790849211783e-38 1768976227
22.874235 42.310654 10.196686 1.880790849211783e-38 1768976227
22.252586 40.865704 5.807675 1.880790849211783e-38 1768976227
22.160912 40.697350 5.546936 1.880790849211783e-38 1768976227
49.000004 89.985931 -0.595284 1.880790849211783e-38 1768976227
49.000004 89.985931 -1.181740 1.880790849211783e-38 1768976227
24.543694 45.073208 5.839111 1.880790849211783e-38 1768976227
24.667019 45.299686 5.509961 1.880790849211783e-38 1768976227
22.255888 40.871765 6.978657 1.880790849211783e-38 1768976227
22.614588 41.530502 6.781805 1.880790849211783e-38 1768976227
22.505960 41.331013 6.489488 1.880790849211783e-38 1768976227
22.394400 41.126141 6.189293 1.880790849211783e-38 1768976227
49.000000 89.985924 4.955091 1.880790849211783e-38 1768976227
49.000008 89.985931 4.263913 1.880790849211783e-38 1768976227
49.000000 89.985924 3.782182 1.880790849211783e-38 1768976227
49.000000 89.985924 3.091002 1.880790849211783e-38 1768976227
49.000000 89.985924 2.588327 1.880790849211783e-38 1768976227
49.000000 89.985916 -1.831028 1.880790849211783e-38 1768976227
49.000004 89.985924 -2.396539 1.880790849211783e-38 1768976227
48.999996 89.985924 1.771480 1.880790849211783e-38 1768976227
48.999996 89.985916 1.247860 1.880790849211783e-38 1768976227
49.000004 89.985931 -3.024883 1.880790849211783e-38 1768976227
48.999992 89.985916 -3.527558 1.880790849211783e-38 1768976227
49.000000 89.985924 0.619515 1.880790849211783e-38 1768976227
49.000008 89.985939 0.074949 1.880790849211783e-38 1768976227
22.777493 41.829670 9.561792 1.880790849211783e-38 1768976227
23.401634 42.975872 9.313652 1.880790849211783e-38 1768976227
21.470881 39.430145 13.225820 1.880790849211783e-38 1768976227
21.301430 39.118958 12.784548 1.880790849211783e-38 1768976227
21.006794 38.577873 12.176708 1.880790849211783e-38 1768976227
21.756083 39.953899 12.201859 1.880790849211783e-38 1768976227
21.480949 39.448639 14.728674 1.880790849211783e-38 1768976227
22.184383 40.740459 11.967939 1.880790849211783e-38 1768976227
21.428947 39.353130 11.029138 1.880790849211783e-38 1768976227
21.777620 39.993454 14.438726 1.880790849211783e-38 1768976227
20.519163 37.682365 13.113194 1.880790849211783e-38 1768976227
23.224615 42.650787 8.856038 1.880790849211783e-38 1768976227
23.514416 43.182983 8.524295 1.880790849211783e-38 1768976227
22.015100 40.429573 10.822667 1.880790849211783e-38 1768976227
22.739828 41.760502 10.887345 1.880790849211783e-38 1768976227
22.624216 41.548183 7.814761 1.880790849211783e-38 1768976227
22.877508 42.013340 7.481761 1.880790849211783e-38 1768976227
23.183805 42.575836 10.634151 1.880790849211783e-38 1768976227
23.105383 42.431824 10.242634 1.880790849211783e-38 1768976227
22.352486 40.756016 5.801641 1.880790849211783e-38 1768976227
22.747965 41.477108 5.662539 1.880790849211783e-38 1768976227
49.000000 89.343300 -0.592008 1.880790849211783e-38 1768976227
48.999996 89.343300 -1.175236 1.880790849211783e-38 1768976227
24.737377 45.104465 5.852799 1.880790849211783e-38 1768976227
22.820749 41.609818 7.116396 1.880790849211783e-38 1768976227
22.690483 41.372299 6.767114 1.880790849211783e-38 1768976227
22.584885 41.179756 6.476404 1.880790849211783e-38 1768976227
22.482622 40.993294 6.179477 1.880790849211783e-38 1768976227
49.000000 89.343307 4.927819 1.880790849211783e-38 1768976227
48.999996 89.343292 4.240445 1.880790849211783e-38 1768976227
49.000000 89.343300 3.761366 1.880790849211783e-38 1768976227
49.000004 89.343300 3.073991 1.880790849211783e-38 1768976227
49.000004 89.343307 2.574082 1.880790849211783e-38 1768976227
49.000000 89.343300 -1.820951 1.880790849211783e-38 1768976227
49.000000 89.343300 -2.383349 1.880790849211783e-38 1768976227
49.000000 89.343300 1.761730 1.880790849211783e-38 1768976227
49.000000 89.343300 1.240992 1.880790849211783e-38 1768976227
49.000000 89.343307 -3.008235 1.880790849211783e-38 1768976227
49.000004 89.343307 -3.508145 1.880790849211783e-38 1768976227
49.000008 89.343307 0.616106 1.880790849211783e-38 1768976227
49.000004 89.343300 0.074537 1.880790849211783e-38 1768976227
22.960505 41.864635 9.585571 1.880790849211783e-38 1768976227
23.381447 42.632153 9.254402 1.880790849211783e-38 1768976227
22.793106 41.559414 17.877451 1.880790849211783e-38 1768976227
23.596077 43.023495 17.875324 1.880790849211783e-38 1768976227
21.627415 39.433971 13.248921 1.880790849211783e-38 1768976227
21.379896 38.982662 12.761019 1.880790849211783e-38 1768976227
21.121307 38.511169 12.175705 1.880790849211783e-38 1768976227
21.895056 39.921970 12.212217 1.880790849211783e-38 1768976227
21.616570 39.414196 14.740089 1.880790849211783e-38 1768976227
21.994209 40.102760 11.800042 1.880790849211783e-38 1768976227
21.441366 39.094742 10.974794 1.880790849211783e-38 1768976227
20.791971 37.910679 13.709364 1.880790849211783e-38 1768976227
20.636517 37.627235 13.115609 1.880790849211783e-38 1768976227
23.738842 43.283806 9.002304 1.880790849211783e-38 1768976227
23.332169 42.542305 8.411677 1.880790849211783e-38 1768976227
22.085773 40.269707 10.797654 1.880790849211783e-38 1768976227
22.724970 41.435181 10.820350 1.880790849211783e-38 1768976227
22.831083 41.628658 7.842814 1.880790849211783e-38 1768976227
22.950516 41.846420 7.464329 1.880790849211783e-38 1768976227
23.331617 42.541298 10.643051 1.880790849211783e-38 1768976227
23.338566 42.553967 10.289062 1.880790849211783e-38 1768976227
22.378727 40.513588 5.776712 1.880790849211783e-38 1768976227
24.802559 44.901600 6.140243 1.880790849211783e-38 1768976227
49.000000 88.707718 -0.588772 1.880790849211783e-38 1768976227
49.000000 88.707718 -1.168814 1.880790849211783e-38 1768976227
24.931938 45.135826 5.866599 1.880790849211783e-38 1768976227
22.907326 41.470543 7.104359 1.880790849211783e-38 1768976227
22.787836 41.254223 6.759012 1.880790849211783e-38 1768976227
22.687977 41.073441 6.470416 1.880790849211783e-38 1768976227
22.585339 40.887630 6.173789 1.880790849211783e-38 1768976227
49.000004 88.707718 4.900892 1.880790849211783e-38 1768976227
49.000000 88.707718 4.217274 1.880790849211783e-38 1768976227
49.000004 88.707733 3.740813 1.880790849211783e-38 1768976227
49.000004 88.707726 3.057194 1.880790849211783e-38 1768976227
49.000000 88.707726 2.560016 1.880790849211783e-38 1768976227
49.000004 88.707726 -1.811000 1.880790849211783e-38 1768976227
49.000004 88.707726 -2.370326 1.880790849211783e-38 1768976227
49.000004 88.707726 1.752104 1.880790849211783e-38 1768976227
49.000000 88.707718 1.234211 1.880790849211783e-38 1768976227
49.000000 88.707718 -2.991796 1.880790849211783e-38 1768976227
49.000004 88.707718 -3.488975 1.880790849211783e-38 1768976227
49.000004 88.707726 0.612739 1.880790849211783e-38 1768976227
49.000004 88.707718 0.074129 1.880790849211783e-38 1768976227
23.082808 41.788227 9.583972 1.880790849211783e-38 1768976227
23.361553 42.292858 9.196003 1.880790849211783e-38 1768976227
22.920599 41.494572 17.879213 1.880790849211783e-38 1768976227
23.719105 42.940159 17.870340 1.880790849211783e-38 1768976227
21.785883 39.440323 13.273070 1.880790849211783e-38 1768976227
21.422316 38.782135 12.716468 1.880790849211783e-38 1768976227
21.235884 38.444626 12.174860 1.880790849211783e-38 1768976227
22.034252 39.889965 12.222699 1.880790849211783e-38 1768976227
21.752310 39.379551 14.751599 1.880790849211783e-38 1768976227
21.857384 39.569771 11.662556 1.880790849211783e-38 1768976227
22.529194 40.785988 11.468588 1.880790849211783e-38 1768976227
20.963995 37.952412 13.747256 1.880790849211783e-38 1768976227
20.753983 37.572212 13.118187 1.880790849211783e-38 1768976227
23.810667 43.105915 8.980201 1.880790849211783e-38 1768976227
23.639776 42.796543 8.476005 1.880790849211783e-38 1768976227
22.156176 40.110691 10.772883 1.880790849211783e-38 1768976227
22.729107 41.147900 10.763183 1.880790849211783e-38 1768976227
23.077122 41.777935 7.884014 1.880790849211783e-38 1768976227
22.678158 41.055664 7.335444 1.880790849211783e-38 1768976227
23.478270 42.504162 10.651426 1.880790849211783e-38 1768976227
23.451033 42.454853 10.282151 1.880790849211783e-38 1768976227
23.243765 41.781395 5.967454 1.880790849211783e-38 1768976227
24.989710 44.919788 6.153008 1.880790849211783e-38 1768976227
49.000004 88.079033 -0.585578 1.880790849211783e-38 1768976227
49.000000 88.079041 -1.162472 1.880790849211783e-38 1768976227
25.127409 45.167301 5.880513 1.880790849211783e-38 1768976227
23.011051 41.363079 7.097806 1.880790849211783e-38 1768976227
22.891121 41.147503 6.752808 1.880790849211783e-38 1768976227
22.790905 40.967365 6.464504 1.880790849211783e-38 1768976227
22.645685 40.706326 6.156697 1.880790849211783e-38 1768976227
49.000004 88.079033 4.874300 1.880790849211783e-38 1768976227
49.000004 88.079033 4.194392 1.880790849211783e-38 1768976227
49.000011 88.079056 3.720516 1.880790849211783e-38 1768976227
49.000008 88.079041 3.040606 1.880790849211783e-38 1768976227
49.000004 88.079041 2.546126 1.880790849211783e-38 1768976227
49.000000 88.079033 -1.801174 1.880790849211783e-38 1768976227
49.000004 88.079041 -2.357465 1.880790849211783e-38 1768976227
49.000004 88.079041 1.742597 1.880790849211783e-38 1768976227
49.000000 88.079041 1.227514 1.880790849211783e-38 1768976227
48.999996 88.079025 -2.975564 1.880790849211783e-38 1768976227
49.000004 88.079033 -3.470044 1.880790849211783e-38 1768976227
49.000004 88.079041 0.609415 1.880790849211783e-38 1768976227
49.000004 88.079041 0.073727 1.880790849211783e-38 1768976227
23.216196 41.731838 9.587054 1.880790849211783e-38 1768976227
23.341944 41.957874 9.138430 1.880790849211783e-38 1768976227
23.047808 41.429153 17.880894 1.880790849211783e-38 1768976227
23.841927 42.856609 17.865412 1.880790849211783e-38 1768976227
21.919550 39.401077 13.282049 1.880790849211783e-38 1768976227
21.464607 38.583302 12.672441 1.880790849211783e-38 1768976227
21.350527 38.378239 12.174172 1.880790849211783e-38 1768976227
22.173677 39.857876 12.233303 1.880790849211783e-38 1768976227
21.888189 39.344704 14.763208 1.880790849211783e-38 1768976227
21.867950 39.308319 11.604884 1.880790849211783e-38 1768976227
22.556528 40.546062 11.420200 1.880790849211783e-38 1768976227
21.092085 37.913681 13.756207 1.880790849211783e-38 1768976227
20.887785 37.546448 13.131127 1.880790849211783e-38 1768976227
23.891499 42.945713 8.961796 1.880790849211783e-38 1768976227
23.711447 42.622066 8.455574 1.880790849211783e-38 1768976227
22.233484 39.965385 10.751819 1.880790849211783e-38 1768976227
23.185287 41.676277 10.919632 1.880790849211783e-38 1768976227
23.208109 41.717300 7.885744 1.880790849211783e-38 1768976227
22.701393 40.806465 7.303119 1.880790849211783e-38 1768976227
23.619452 42.456699 10.657336 1.880790849211783e-38 1768976227
23.553011 42.337273 10.270832 1.880790849211783e-38 1768976227
23.365606 41.703854 5.966417 1.880790849211783e-38 1768976227
25.160732 44.907856 6.161741 1.880790849211783e-38 1768976227
48.999996 87.457115 -0.582423 1.880790849211783e-38 1768976227
49.000000 87.457123 -1.156209 1.880790849211783e-38 1768976227
25.323797 45.198906 5.894545 1.880790849211783e-38 1768976227
23.114603 41.255848 7.091336 1.880790849211783e-38 1768976227
22.994247 41.041035 6.746685 1.880790849211783e-38 1768976227
22.852978 40.788891 6.447188 1.880790849211783e-38 1768976227
23.527081 41.992054 6.361863 1.880790849211783e-38 1768976227
49.000000 87.457123 4.848041 1.880790849211783e-38 1768976227
49.000000 87.457123 4.171795 1.880790849211783e-38 1768976227
49.000000 87.457123 3.700471 1.880790849211783e-38 1768976227
49.000004 87.457130 3.024225 1.880790849211783e-38 1768976227
48.999996 87.457123 2.532409 1.880790849211783e-38 1768976227
49.000004 87.457123 -1.791470 1.880790849211783e-38 1768976227
48.999996 87.457123 -2.344764 1.880790849211783e-38 1768976227
48.999992 87.457108 1.733209 1.880790849211783e-38 1768976227
48.999996 87.457115 1.220901 1.880790849211783e-38 1768976227
49.000000 87.457130 -2.959533 1.880790849211783e-38 1768976227
49.000000 87.457130 -3.451349 1.880790849211783e-38 1768976227
49.000000 87.457115 0.606131 1.880790849211783e-38 1768976227
49.000000 87.457123 0.073330 1.880790849211783e-38 1768976227
23.349697 41.675457 9.590237 1.880790849211783e-38 1768976227
24.013876 42.860905 9.350842 1.880790849211783e-38 1768976227
23.163448 41.343029 18.377527 1.880790849211783e-38 1768976227
23.174709 41.363129 17.882483 1.880790849211783e-38 1768976227
23.964548 42.772865 17.860550 1.880790849211783e-38 1768976227
22.019127 39.300602 13.270505 1.880790849211783e-38 1768976227
21.797768 38.905514 12.799803 1.880790849211783e-38 1768976227
21.465246 38.312016 12.173645 1.880790849211783e-38 1768976227
22.235594 39.686962 12.201372 1.880790849211783e-38 1768976227
22.024200 39.309658 14.774915 1.880790849211783e-38 1768976227
21.908159 39.102543 11.563586 1.880790849211783e-38 1768976227
22.626699 40.385021 11.394011 1.880790849211783e-38 1768976227
21.183453 37.809059 13.741365 1.880790849211783e-38 1768976227
21.026184 37.528358 13.146919 1.880790849211783e-38 1768976227
23.967888 42.778828 8.942015 1.880790849211783e-38 1768976227
23.701744 42.303802 8.406578 1.880790849211783e-38 1768976227
22.352873 39.896286 10.751316 1.880790849211783e-38 1768976227
23.334038 41.647507 10.930483 1.880790849211783e-38 1768976227
23.951775 42.750065 8.094584 1.880790849211783e-38 1768976227
22.745760 40.597527 7.277969 1.880790849211783e-38 1768976227
23.694674 42.291183 10.633677 1.880790849211783e-38 1768976227
23.654829 42.220066 10.259659 1.880790849211783e-38 1768976227
25.222246 44.700962 6.406056 1.880790849211783e-38 1768976227
25.370842 44.964314 6.179957 1.880790849211783e-38 1768976227
49.000000 86.841881 -0.579307 1.880790849211783e-38 1768976227
49.000000 86.841873 -1.150024 1.880790849211783e-38 1768976227
23.217997 41.148861 7.084950 1.880790849211783e-38 1768976227
23.053896 40.858032 6.728001 1.880790849211783e-38 1768976227
23.781961 42.148373 6.673378 1.880790849211783e-38 1768976227
23.652630 41.919159 6.361597 1.880790849211783e-38 1768976227
49.000004 86.841873 4.822105 1.880790849211783e-38 1768976227
48.999996 86.841873 4.149477 1.880790849211783e-38 1768976227
49.000000 86.841873 3.680675 1.880790849211783e-38 1768976227
49.000000 86.841873 3.008046 1.880790849211783e-38 1768976227
49.000000 86.841866 2.518861 1.880790849211783e-38 1768976227
49.000004 86.841881 -1.781887 1.880790849211783e-38 1768976227
49.000004 86.841881 -2.332220 1.880790849211783e-38 1768976227
49.000004 86.841888 1.723937 1.880790849211783e-38 1768976227
49.000000 86.841873 1.214370 1.880790849211783e-38 1768976227
49.000000 86.841873 -2.943701 1.880790849211783e-38 1768976227
49.000004 86.841881 -3.432886 1.880790849211783e-38 1768976227
48.999996 86.841873 0.602889 1.880790849211783e-38 1768976227
49.000000 86.841873 0.072938 1.880790849211783e-38 1768976227
23.483322 41.619099 9.593521 1.880790849211783e-38 1768976227
24.017035 42.564987 9.302042 1.880790849211783e-38 1768976227
23.372046 41.421883 18.443829 1.880790849211783e-38 1768976227
23.212854 41.139751 17.816097 1.880790849211783e-38 1768976227
24.086956 42.688904 17.855745 1.880790849211783e-38 1768976227
21.328949 37.800938 12.785781 1.880790849211783e-38 1768976227
21.970198 38.937412 12.832039 1.880790849211783e-38 1768976227
21.630686 38.335701 12.201845 1.880790849211783e-38 1768976227
22.266621 39.462757 12.153033 1.880790849211783e-38 1768976227
22.160345 39.274403 14.786718 1.880790849211783e-38 1768976227
21.952274 38.905647 11.524885 1.880790849211783e-38 1768976227
22.696621 40.224838 11.368078 1.880790849211783e-38 1768976227
21.326738 37.797020 13.760303 1.880790849211783e-38 1768976227
21.164988 37.510349 13.162911 1.880790849211783e-38 1768976227
24.846786 44.035542 9.220325 1.880790849211783e-38 1768976227
24.765011 43.890614 8.736711 1.880790849211783e-38 1768976227
23.730494 42.057152 11.352866 1.880790849211783e-38 1768976227
23.482916 41.618378 10.941376 1.880790849211783e-38 1768976227
25.972179 46.030052 8.730431 1.880790849211783e-38 1768976227
22.789888 40.390133 7.253079 1.880790849211783e-38 1768976227
23.519728 41.683617 10.498699 1.880790849211783e-38 1768976227
23.756493 42.103233 10.248632 1.880790849211783e-38 1768976227
25.450939 44.790104 6.429802 1.880790849211783e-38 1768976227
49.000008 86.233177 -0.576230 1.880790849211783e-38 1768976227
48.999992 86.233154 -1.143915 1.880790849211783e-38 1768976227
23.296642 40.998844 7.071185 1.880790849211783e-38 1768976227
24.034946 42.298157 6.977048 1.880790849211783e-38 1768976227
23.908220 42.075134 6.673168 1.880790849211783e-38 1768976227
23.793365 41.873005 6.365454 1.880790849211783e-38 1768976227
49.000000 86.233170 4.796489 1.880790849211783e-38 1768976227
48.999996 86.233162 4.127434 1.880790849211783e-38 1768976227
48.999996 86.233162 3.661123 1.880790849211783e-38 1768976227
48.999989 86.233147 2.992066 1.880790849211783e-38 1768976227
49.000008 86.233177 2.505481 1.880790849211783e-38 1768976227
49.000004 86.233177 -1.772421 1.880790849211783e-38 1768976227
48.999989 86.233147 -2.319831 1.880790849211783e-38 1768976227
49.000004 86.233177 1.714779 1.880790849211783e-38 1768976227
48.999992 86.233154 1.207919 1.880790849211783e-38 1768976227
48.999992 86.233154 -2.928063 1.880790849211783e-38 1768976227
49.000004 86.233170 -3.414650 1.880790849211783e-38 1768976227
48.999996 86.233162 0.599686 1.880790849211783e-38 1768976227
48.999996 86.233162 0.072550 1.880790849211783e-38 1768976227
23.581425 41.500015 9.582422 1.880790849211783e-38 1768976227
24.049622 42.323978 9.265182 1.880790849211783e-38 1768976227
23.581766 41.500618 18.510471 1.880790849211783e-38 1768976227
23.219301 40.862728 17.726376 1.880790849211783e-38 1768976227
24.209154 42.604736 17.850998 1.880790849211783e-38 1768976227
21.540003 37.907402 12.843706 1.880790849211783e-38 1768976227
22.152325 38.985001 12.869681 1.880790849211783e-38 1768976227
21.809017 38.380829 12.237088 1.880790849211783e-38 1768976227
22.310078 39.262627 12.112067 1.880790849211783e-38 1768976227
22.296621 39.238945 14.798617 1.880790849211783e-38 1768976227
21.996166 38.710186 11.486585 1.880790849211783e-38 1768976227
22.802700 40.129574 11.360538 1.880790849211783e-38 1768976227
21.470348 37.784821 13.779373 1.880790849211783e-38 1768976227
21.304205 37.492428 13.179110 1.880790849211783e-38 1768976227
25.080265 44.137768 9.257526 1.880790849211783e-38 1768976227
24.809238 43.660801 8.705820 1.880790849211783e-38 1768976227
23.869164 42.006397 11.358545 1.880790849211783e-38 1768976227
23.631924 41.588886 10.952311 1.880790849211783e-38 1768976227
23.443113 41.256611 7.838435 1.880790849211783e-38 1768976227
22.833788 40.184284 7.228447 1.880790849211783e-38 1768976227
23.708805 41.724186 10.526880 1.880790849211783e-38 1768976227
23.858011 41.986771 10.237752 1.880790849211783e-38 1768976227
49.000000 85.630882 -0.573190 1.880790849211783e-38 1768976227
49.000004 85.630890 -1.137881 1.880790849211783e-38 1768976227
24.314632 42.491501 7.341243 1.880790849211783e-38 1768976227
24.161892 42.224575 6.976899 1.880790849211783e-38 1768976227
24.034513 42.001976 6.673031 1.880790849211783e-38 1768976227
23.947939 41.850677 6.373011 1.880790849211783e-38 1768976227
49.000000 85.630882 4.771187 1.880790849211783e-38 1768976227
48.999989 85.630875 4.105661 1.880790849211783e-38 1768976227
49.000000 85.630890 3.641810 1.880790849211783e-38 1768976227
48.999992 85.630882 2.976283 1.880790849211783e-38 1768976227
49.000008 85.630898 2.492264 1.880790849211783e-38 1768976227
49.000000 85.630890 -1.763071 1.880790849211783e-38 1768976227
49.000004 85.630898 -2.307594 1.880790849211783e-38 1768976227
49.000004 85.630898 1.705734 1.880790849211783e-38 1768976227
49.000004 85.630890 1.201547 1.880790849211783e-38 1768976227
48.999996 85.630882 -2.912617 1.880790849211783e-38 1768976227
48.999992 85.630875 -3.396637 1.880790849211783e-38 1768976227
48.999992 85.630882 0.596523 1.880790849211783e-38 1768976227
49.000008 85.630898 0.072167 1.880790849211783e-38 1768976227
23.750946 41.506420 9.600397 1.880790849211783e-38 1768976227
24.082067 42.085079 9.228742 1.880790849211783e-38 1768976227
23.792612 41.579235 18.577457 1.880790849211783e-38 1768976227
23.224064 40.585659 17.636484 1.880790849211783e-38 1768976227
24.325497 42.510487 17.842167 1.880790849211783e-38 1768976227
21.753187 38.015198 12.902400 1.880790849211783e-38 1768976227
22.335623 39.033043 12.907721 1.880790849211783e-38 1768976227
24.724766 43.208241 17.554974 1.880790849211783e-38 1768976227
21.988466 38.426361 12.272695 1.880790849211783e-38 1768976227
22.388477 39.125416 12.090514 1.880790849211783e-38 1768976227
22.345139 39.049675 14.752584 1.880790849211783e-38 1768976227
22.039837 38.516136 11.448676 1.880790849211783e-38 1768976227
22.926003 40.064781 11.361718 1.880790849211783e-38 1768976227
21.614296 37.772476 13.798581 1.880790849211783e-38 1768976227
21.451874 37.488632 13.200458 1.880790849211783e-38 1768976227
25.200630 44.039845 9.252887 1.880790849211783e-38 1768976227
25.008257 43.703659 8.729364 1.880790849211783e-38 1768976227
24.008038 41.955704 11.364366 1.880790849211783e-38 1768976227
23.781065 41.559055 10.963292 1.880790849211783e-38 1768976227
23.311251 40.738018 7.753230 1.880790849211783e-38 1768976227
23.537987 41.134258 7.412067 1.880790849211783e-38 1768976227
23.898771 41.764755 10.555252 1.880790849211783e-38 1768976227
23.959379 41.870670 10.227015 1.880790849211783e-38 1768976227
49.000000 85.034920 -0.570188 1.880790849211783e-38 1768976227
48.999996 85.034912 -1.131920 1.880790849211783e-38 1768976227
24.442408 42.417515 7.341163 1.880790849211783e-38 1768976227
24.288868 42.151062 6.976824 1.880790849211783e-38 1768976227
24.190138 41.979725 6.681056 1.880790849211783e-38 1768976227
24.102898 41.828327 6.380648 1.880790849211783e-38 1768976227
49.000000 85.034920 4.746194 1.880790849211783e-38 1768976227
49.000000 85.034927 4.084155 1.880790849211783e-38 1768976227
48.999992 85.034912 3.622732 1.880790849211783e-38 1768976227
49.000004 85.034927 2.960692 1.880790849211783e-38 1768976227
49.000004 85.034927 2.479208 1.880790849211783e-38 1768976227
49.000000 85.034927 -1.753835 1.880790849211783e-38 1768976227
49.000000 85.034927 -2.295506 1.880790849211783e-38 1768976227
49.000004 85.034927 1.696798 1.880790849211783e-38 1768976227
49.000004 85.034935 1.195253 1.880790849211783e-38 1768976227
49.000000 85.034920 -2.897360 1.880790849211783e-38 1768976227
49.000004 85.034927 -3.378844 1.880790849211783e-38 1768976227
49.000008 85.034935 0.593398 1.880790849211783e-38 1768976227
48.999996 85.034920 0.071789 1.880790849211783e-38 1768976227
24.075212 41.780281 9.680491 1.880790849211783e-38 1768976227
23.570820 40.904961 8.985504 1.880790849211783e-38 1768976227
24.004599 41.657738 18.644794 1.880790849211783e-38 1768976227
22.002441 38.183182 16.621250 1.880790849211783e-38 1768976227
24.434683 42.404110 17.828367 1.880790849211783e-38 1768976227
21.968550 38.124363 12.961879 1.880790849211783e-38 1768976227
22.520105 39.081539 12.946158 1.880790849211783e-38 1768976227
24.835428 43.099567 17.541176 1.880790849211783e-38 1768976227
22.169052 38.472321 12.308671 1.880790849211783e-38 1768976227
21.990992 38.163311 11.813647 1.880790849211783e-38 1768976227
22.356413 38.797466 14.682709 1.880790849211783e-38 1768976227
22.083290 38.323486 11.411158 1.880790849211783e-38 1768976227
23.049381 40.000050 11.363025 1.880790849211783e-38 1768976227
21.758570 37.759968 13.817922 1.880790849211783e-38 1768976227
21.644600 37.562180 13.249281 1.880790849211783e-38 1768976227
25.320969 43.942173 9.248369 1.880790849211783e-38 1768976227
25.208281 43.746620 8.753091 1.880790849211783e-38 1768976227
24.105759 41.833290 11.350848 1.880790849211783e-38 1768976227
23.930332 41.528854 10.974315 1.880790849211783e-38 1768976227
23.354038 40.528751 7.726772 1.880790849211783e-38 1768976227
24.658913 42.793240 7.724368 1.880790849211783e-38 1768976227
24.199959 41.996765 10.632286 1.880790849211783e-38 1768976227
24.080084 41.788734 10.224695 1.880790849211783e-38 1768976227
49.321941 84.999992 -0.570948 1.880790849211783e-38 1768976227
49.321941 85.000000 -1.133430 1.880790849211783e-38 1768976227
