# .PCD v0.7 - Point Cloud Data file format
VERSION 0.7
FIELDS x y z rgb label
SIZE 4 4 4 4 4
TYPE F F F F U
COUNT 1 1 1 1 1
WIDTH 766
HEIGHT 1
VIEWPOINT 0 0 0 1 0 0 0
POINTS 766
DATA ascii
63.132702 27.338795 4.114632 1.880790849211783e-38 1768976227
68.538033 29.679508 14.215409 1.880790849211783e-38 1768976227
68.004433 29.448439 13.513943 1.880790849211783e-38 1768976227
67.048851 29.034634 12.666875 1.880790849211783e-38 1768976227
63.829479 27.640528 11.489929 1.880790849211783e-38 1768976227
69.962868 30.296513 11.923853 1.880790849211783e-38 1768976227
63.214054 27.147924 8.586666 1.880790849211783e-38 1768976227
66.093979 28.384739 8.610264 1.880790849211783e-38 1768976227
67.664940 29.059402 8.378370 1.880790849211783e-38 1768976227
66.261330 28.456606 7.703375 1.880790849211783e-38 1768976227
67.384193 28.938835 10.996996 1.880790849211783e-38 1768976227
65.162338 27.984634 10.170500 1.880790849211783e-38 1768976227
66.132874 28.401440 7.364767 1.880790849211783e-38 1768976227
63.740269 27.373913 6.644551 1.880790849211783e-38 1768976227
63.070118 27.086109 9.465108 1.880790849211783e-38 1768976227
63.666470 27.342220 9.158016 1.880790849211783e-38 1768976227
64.660965 27.769314 3.748436 1.880790849211783e-38 1768976227
61.816273 26.547632 5.948906 1.880790849211783e-38 1768976227
63.330383 27.197886 5.784659 1.880790849211783e-38 1768976227
63.392467 27.224546 5.353142 1.880790849211783e-38 1768976227
63.483658 27.263708 4.923024 1.880790849211783e-38 1768976227
62.201622 26.713123 4.477657 1.880790849211783e-38 1768976227
62.765202 26.955160 4.085364 1.880790849211783e-38 1768976227
70.699188 30.362492 15.446739 1.880790849211783e-38 1768976227
68.049583 29.224596 14.095756 1.880790849211783e-38 1768976227
68.180237 29.280703 13.531266 1.880790849211783e-38 1768976227
67.836105 29.132912 12.798946 1.880790849211783e-38 1768976227
64.460838 27.683371 11.588499 1.880790849211783e-38 1768976227
69.772133 29.964363 11.875891 1.880790849211783e-38 1768976227
63.229370 26.928925 8.577675 1.880790849211783e-38 1768976227
66.853500 28.472416 8.697983 1.880790849211783e-38 1768976227
67.660667 28.816177 8.367042 1.880790849211783e-38 1768976227
67.013832 28.540697 7.780816 1.880790849211783e-38 1768976227
64.518776 27.478071 10.515792 1.880790849211783e-38 1768976227
65.258522 27.793123 10.172383 1.880790849211783e-38 1768976227
66.430016 28.292055 7.388321 1.880790849211783e-38 1768976227
63.710640 27.133892 6.632902 1.880790849211783e-38 1768976227
62.909058 26.792501 9.428767 1.880790849211783e-38 1768976227
63.815128 27.178394 9.167568 1.880790849211783e-38 1768976227
64.878143 27.631123 3.756179 1.880790849211783e-38 1768976227
63.626827 27.098198 6.115253 1.880790849211783e-38 1768976227
63.158482 26.898731 5.761520 1.880790849211783e-38 1768976227
63.223492 26.926422 5.331991 1.880790849211783e-38 1768976227
63.048573 26.851921 4.882982 1.880790849211783e-38 1768976227
61.361431 26.133381 4.411480 1.880790849211783e-38 1768976227
61.329891 26.119949 3.986794 1.880790849211783e-38 1768976227
69.622734 29.651812 15.191943 1.880790849211783e-38 1768976227
68.603065 29.217539 14.192084 1.880790849211783e-38 1768976227
68.074265 28.992327 13.492820 1.880790849211783e-38 1768976227
67.269783 28.649706 12.675736 1.880790849211783e-38 1768976227
64.983116 27.675831 11.667333 1.880790849211783e-38 1768976227
66.593475 28.361671 11.320241 1.880790849211783e-38 1768976227
67.097519 28.337584 9.090792 1.880790849211783e-38 1768976227
67.046555 28.316057 8.711949 1.880790849211783e-38 1768976227
66.822624 28.221485 8.252845 1.880790849211783e-38 1768976227
66.670883 28.157400 7.731102 1.880790849211783e-38 1768976227
63.801537 26.945576 10.385597 1.880790849211783e-38 1768976227
63.505207 26.820425 9.886425 1.880790849211783e-38 1768976227
64.072739 27.060114 7.117038 1.880790849211783e-38 1768976227
62.573841 26.427078 6.506223 1.880790849211783e-38 1768976227
64.167305 27.100052 9.605059 1.880790849211783e-38 1768976227
63.094650 26.647032 9.052479 1.880790849211783e-38 1768976227
61.390739 25.927416 3.549729 1.880790849211783e-38 1768976227
63.412045 26.781080 6.086819 1.880790849211783e-38 1768976227
63.438511 26.792257 5.779669 1.880790849211783e-38 1768976227
62.920906 26.573654 5.299689 1.880790849211783e-38 1768976227
61.412502 25.936602 4.750191 1.880790849211783e-38 1768976227
61.732697 26.071835 4.432499 1.880790849211783e-38 1768976227
61.295269 25.887093 3.979450 1.880790849211783e-38 1768976227
69.332344 29.281422 15.109239 1.880790849211783e-38 1768976227
68.847450 29.076643 14.224437 1.880790849211783e-38 1768976227
68.584915 28.965761 13.576658 1.880790849211783e-38 1768976227
67.526054 28.518566 12.707761 1.880790849211783e-38 1768976227
64.939613 27.426224 11.644617 1.880790849211783e-38 1768976227
67.746223 28.611551 11.501475 1.880790849211783e-38 1768976227
66.889526 28.012320 9.051124 1.880790849211783e-38 1768976227
66.867737 28.003197 8.677701 1.880790849211783e-38 1768976227
67.267036 28.170418 8.297201 1.880790849211783e-38 1768976227
66.409119 27.811134 7.690988 1.880790849211783e-38 1768976227
63.454475 26.573771 10.316010 1.880790849211783e-38 1768976227
63.701366 26.677168 9.904393 1.880790849211783e-38 1768976227
64.229973 26.898537 7.125458 1.880790849211783e-38 1768976227
63.874493 26.749668 6.633041 1.880790849211783e-38 1768976227
63.995789 26.800465 9.567243 1.880790849211783e-38 1768976227
64.246162 26.905321 9.206008 1.880790849211783e-38 1768976227
61.313385 25.677116 3.540762 1.880790849211783e-38 1768976227
61.566734 25.783216 3.227931 1.880790849211783e-38 1768976227
63.892124 26.757055 6.125127 1.880790849211783e-38 1768976227
63.128159 26.437115 5.744102 1.880790849211783e-38 1768976227
62.109715 26.010609 5.224733 1.880790849211783e-38 1768976227
61.891060 25.919037 4.781139 1.880790849211783e-38 1768976227
61.585472 25.791063 4.416323 1.880790849211783e-38 1768976227
61.100880 25.588121 3.961801 1.880790849211783e-38 1768976227
69.851021 29.252548 15.202977 1.880790849211783e-38 1768976227
69.376251 29.053722 14.315520 1.880790849211783e-38 1768976227
69.647232 29.167208 13.769473 1.880790849211783e-38 1768976227
63.899685 26.760220 12.010069 1.880790849211783e-38 1768976227
65.053810 27.243549 11.650310 1.880790849211783e-38 1768976227
64.216660 26.892963 10.888432 1.880790849211783e-38 1768976227
67.506371 28.031651 9.123111 1.880790849211783e-38 1768976227
65.986000 27.400322 8.552510 1.880790849211783e-38 1768976227
64.516731 26.790218 7.947957 1.880790849211783e-38 1768976227
66.525436 27.624321 7.694775 1.880790849211783e-38 1768976227
63.312336 26.290100 10.279965 1.880790849211783e-38 1768976227
64.001045 26.576082 9.938480 1.880790849211783e-38 1768976227
65.312920 27.120831 7.236491 1.880790849211783e-38 1768976227
64.675919 26.856316 6.707823 1.880790849211783e-38 1768976227
64.086906 26.611736 9.568822 1.880790849211783e-38 1768976227
63.792088 26.489313 9.129453 1.880790849211783e-38 1768976227
61.181107 25.405119 3.528683 1.880790849211783e-38 1768976227
60.763309 25.231630 3.181803 1.880790849211783e-38 1768976227
64.666801 26.852535 6.191601 1.880790849211783e-38 1768976227
63.422802 26.335970 5.763660 1.880790849211783e-38 1768976227
61.004623 25.331835 2.748852 1.880790849211783e-38 1768976227
62.579082 25.985620 2.501220 1.880790849211783e-38 1768976227
61.683662 25.613802 5.182371 1.880790849211783e-38 1768976227
61.973469 25.734142 4.781488 1.880790849211783e-38 1768976227
62.188007 25.823227 2.031358 1.880790849211783e-38 1768976227
61.021709 25.338932 1.669107 1.880790849211783e-38 1768976227
61.349815 25.475172 4.393895 1.880790849211783e-38 1768976227
61.285553 25.448488 3.968781 1.880790849211783e-38 1768976227
61.051918 25.351475 1.142921 1.880790849211783e-38 1768976227
61.285076 25.448290 0.808168 1.880790849211783e-38 1768976227
69.977905 29.057938 15.211450 1.880790849211783e-38 1768976227
72.025887 29.908354 14.843583 1.880790849211783e-38 1768976227
68.977150 28.642384 13.619856 1.880790849211783e-38 1768976227
63.914398 26.540104 11.997736 1.880790849211783e-38 1768976227
65.820526 27.331614 11.772802 1.880790849211783e-38 1768976227
64.168579 26.645649 10.866604 1.880790849211783e-38 1768976227
67.149391 27.646269 9.063557 1.880790849211783e-38 1768976227
66.630020 27.432436 8.625219 1.880790849211783e-38 1768976227
65.210335 26.847935 8.023390 1.880790849211783e-38 1768976227
66.300667 27.296841 7.659219 1.880790849211783e-38 1768976227
65.086128 26.796797 10.554803 1.880790849211783e-38 1768976227
63.331730 26.074490 9.822289 1.880790849211783e-38 1768976227
64.673676 26.626986 7.156734 1.880790849211783e-38 1768976227
64.426872 26.525372 6.673666 1.880790849211783e-38 1768976227
63.936031 26.323286 9.534398 1.880790849211783e-38 1768976227
63.598061 26.184139 9.090342 1.880790849211783e-38 1768976227
61.612434 25.366632 3.549131 1.880790849211783e-38 1768976227
61.062565 25.140245 3.193488 1.880790849211783e-38 1768976227
63.721642 26.235020 6.093502 1.880790849211783e-38 1768976227
64.743080 26.655560 5.876309 1.880790849211783e-38 1768976227
61.030888 25.127203 2.746608 1.880790849211783e-38 1768976227
60.814735 25.038210 2.427672 1.880790849211783e-38 1768976227
61.956348 25.508226 5.198793 1.880790849211783e-38 1768976227
61.880093 25.476831 4.768334 1.880790849211783e-38 1768976227
61.539459 25.336588 2.007668 1.880790849211783e-38 1768976227
61.088505 25.150925 1.668851 1.880790849211783e-38 1768976227
61.506149 25.322874 4.399601 1.880790849211783e-38 1768976227
62.129749 25.579618 4.018436 1.880790849211783e-38 1768976227
60.676785 24.981415 1.134483 1.880790849211783e-38 1768976227
70.374603 28.974129 15.278616 1.880790849211783e-38 1768976227
72.564873 29.875893 14.936023 1.880790849211783e-38 1768976227
68.154953 28.060270 13.440736 1.880790849211783e-38 1768976227
63.525185 26.154137 11.909814 1.880790849211783e-38 1768976227
66.721291 27.470016 11.919043 1.880790849211783e-38 1768976227
64.390663 26.510469 10.890624 1.880790849211783e-38 1768976227
67.460999 27.536917 9.094366 1.880790849211783e-38 1768976227
64.756836 26.433104 8.372379 1.880790849211783e-38 1768976227
65.262665 26.639578 8.019908 1.880790849211783e-38 1768976227
65.901726 26.900433 7.603725 1.880790849211783e-38 1768976227
64.572716 26.357944 10.458606 1.880790849211783e-38 1768976227
63.985039 26.118063 9.911350 1.880790849211783e-38 1768976227
64.880074 26.483408 7.170702 1.880790849211783e-38 1768976227
64.292160 26.243425 6.651484 1.880790849211783e-38 1768976227
63.865742 26.069366 9.512149 1.880790849211783e-38 1768976227
63.772095 26.031139 9.103954 1.880790849211783e-38 1768976227
61.911366 25.271610 3.561944 1.880790849211783e-38 1768976227
61.716068 25.191893 3.223678 1.880790849211783e-38 1768976227
64.094536 26.162760 6.121588 1.880790849211783e-38 1768976227
62.653240 25.574434 5.679602 1.880790849211783e-38 1768976227
60.743412 24.794863 2.730294 1.880790849211783e-38 1768976227
61.174366 24.970774 2.439011 1.880790849211783e-38 1768976227
61.712383 25.190386 5.171924 1.880790849211783e-38 1768976227
61.718857 25.193027 4.750033 1.880790849211783e-38 1768976227
61.244396 24.999359 1.995573 1.880790849211783e-38 1768976227
61.159389 24.964663 1.668723 1.880790849211783e-38 1768976227
61.735447 25.199802 4.410547 1.880790849211783e-38 1768976227
62.082798 25.341587 4.010438 1.880790849211783e-38 1768976227
60.789261 24.813576 1.135181 1.880790849211783e-38 1768976227
70.538116 28.792965 15.295195 1.880790849211783e-38 1768976227
69.371605 28.316803 14.261109 1.880790849211783e-38 1768976227
67.584183 27.587198 13.311707 1.880790849211783e-38 1768976227
63.416187 25.885860 11.874687 1.880790849211783e-38 1768976227
68.465324 27.946871 12.215484 1.880790849211783e-38 1768976227
64.042854 26.141663 10.818414 1.880790849211783e-38 1768976227
65.857101 26.650795 8.867270 1.880790849211783e-38 1768976227
65.144936 26.362600 8.412240 1.880790849211783e-38 1768976227
66.045433 26.727009 8.106157 1.880790849211783e-38 1768976227
66.244461 26.807549 7.633907 1.880790849211783e-38 1768976227
64.648125 26.161552 10.457994 1.880790849211783e-38 1768976227
64.304916 26.022663 9.948697 1.880790849211783e-38 1768976227
65.015305 26.310139 7.176846 1.880790849211783e-38 1768976227
64.060097 25.923588 6.619357 1.880790849211783e-38 1768976227
64.314537 26.026558 9.567259 1.880790849211783e-38 1768976227
64.073334 25.928949 9.135755 1.880790849211783e-38 1768976227
61.433506 24.860672 3.530122 1.880790849211783e-38 1768976227
61.124916 24.735790 3.188888 1.880790849211783e-38 1768976227
63.637547 25.752592 6.070495 1.880790849211783e-38 1768976227
62.803310 25.414997 5.686232 1.880790849211783e-38 1768976227
61.169876 24.753986 2.746094 1.880790849211783e-38 1768976227
61.301502 24.807253 2.441086 1.880790849211783e-38 1768976227
62.418507 25.259275 5.224694 1.880790849211783e-38 1768976227
62.110924 25.134808 4.774352 1.880790849211783e-38 1768976227
60.825909 24.614792 1.979509 1.880790849211783e-38 1768976227
60.612103 24.528269 1.651765 1.880790849211783e-38 1768976227
61.440968 24.863691 4.384131 1.880790849211783e-38 1768976227
62.336567 25.226118 4.021898 1.880790849211783e-38 1768976227
70.382507 28.482117 15.242759 1.880790849211783e-38 1768976227
68.357964 27.662832 14.035516 1.880790849211783e-38 1768976227
67.956604 27.500414 13.368665 1.880790849211783e-38 1768976227
63.556892 25.719954 11.886456 1.880790849211783e-38 1768976227
64.300140 26.020729 11.458283 1.880790849211783e-38 1768976227
63.265224 25.601923 10.673961 1.880790849211783e-38 1768976227
64.847130 26.014750 8.720678 1.880790849211783e-38 1768976227
65.039764 26.092031 8.388459 1.880790849211783e-38 1768976227
65.693108 26.354134 8.053122 1.880790849211783e-38 1768976227
65.841141 26.413523 7.578215 1.880790849211783e-38 1768976227
64.552399 25.896513 10.429825 1.880790849211783e-38 1768976227
64.174515 25.744919 9.916465 1.880790849211783e-38 1768976227
64.868263 26.023233 7.151919 1.880790849211783e-38 1768976227
65.200691 26.156590 6.729033 1.880790849211783e-38 1768976227
64.152046 25.735905 9.531496 1.880790849211783e-38 1768976227
63.905476 25.636988 9.100754 1.880790849211783e-38 1768976227
61.213417 24.557014 3.513203 1.880790849211783e-38 1768976227
60.226006 24.160894 3.138176 1.880790849211783e-38 1768976227
63.649681 25.534372 6.064279 1.880790849211783e-38 1768976227
62.934353 25.247400 5.691176 1.880790849211783e-38 1768976227
61.135265 24.525663 2.741207 1.880790849211783e-38 1768976227
60.686695 24.345711 2.413669 1.880790849211783e-38 1768976227
62.053558 24.894056 5.187838 1.880790849211783e-38 1768976227
62.753819 25.174976 4.817911 1.880790849211783e-38 1768976227
60.889164 24.426933 1.979161 1.880790849211783e-38 1768976227
60.807938 24.394348 1.655089 1.880790849211783e-38 1768976227
62.050606 24.892868 4.422255 1.880790849211783e-38 1768976227
61.094238 24.509203 3.936957 1.880790849211783e-38 1768976227
71.324493 28.613281 15.428005 1.880790849211783e-38 1768976227
67.913666 27.244957 13.927356 1.880790849211783e-38 1768976227
67.991913 27.276344 13.359365 1.880790849211783e-38 1768976227
63.607975 25.517641 11.881561 1.880790849211783e-38 1768976227
64.346962 25.814098 11.452700 1.880790849211783e-38 1768976227
64.176849 25.745855 10.814618 1.880790849211783e-38 1768976227
64.745667 25.747631 8.696552 1.880790849211783e-38 1768976227
65.055702 25.870924 8.380413 1.880790849211783e-38 1768976227
65.403542 26.009251 8.007973 1.880790849211783e-38 1768976227
65.480377 26.039806 7.527619 1.880790849211783e-38 1768976227
64.949371 25.828640 10.481332 1.880790849211783e-38 1768976227
64.342781 25.587416 9.930496 1.880790849211783e-38 1768976227
64.893456 25.806402 7.146082 1.880790849211783e-38 1768976227
64.986519 25.843412 6.698855 1.880790849211783e-38 1768976227
64.172646 25.519758 9.523079 1.880790849211783e-38 1768976227
63.849598 25.391289 9.081850 1.880790849211783e-38 1768976227
60.623131 24.108210 3.475137 1.880790849211783e-38 1768976227
60.531654 24.071831 3.150306 1.880790849211783e-38 1768976227
62.991051 25.049866 5.994302 1.880790849211783e-38 1768976227
62.123791 24.704981 5.611114 1.880790849211783e-38 1768976227
61.313217 24.382639 2.745877 1.880790849211783e-38 1768976227
60.816437 24.185083 2.415917 1.880790849211783e-38 1768976227
62.140739 24.711721 5.188872 1.880790849211783e-38 1768976227
61.673321 24.525843 4.729256 1.880790849211783e-38 1768976227
60.579655 24.090919 1.966730 1.880790849211783e-38 1768976227
60.649773 24.118801 1.648796 1.880790849211783e-38 1768976227
61.421078 24.425529 4.372119 1.880790849211783e-38 1768976227
61.067535 24.284937 3.930499 1.880790849211783e-38 1768976227
68.579147 27.272104 14.816307 1.880790849211783e-38 1768976227
67.615082 26.888725 13.849431 1.880790849211783e-38 1768976227
68.024437 27.051510 13.349665 1.880790849211783e-38 1768976227
63.813610 25.376978 11.905623 1.880790849211783e-38 1768976227
64.647728 25.708687 11.492381 1.880790849211783e-38 1768976227
64.705330 25.731590 10.890547 1.880790849211783e-38 1768976227
65.307663 25.743277 8.761570 1.880790849211783e-38 1768976227
65.491875 25.815891 8.426532 1.880790849211783e-38 1768976227
65.325333 25.750242 7.988852 1.880790849211783e-38 1768976227
65.359200 25.763592 7.504721 1.880790849211783e-38 1768976227
64.196281 25.305189 10.347437 1.880790849211783e-38 1768976227
63.500885 25.031075 9.788864 1.880790849211783e-38 1768976227
64.600540 25.464542 7.105337 1.880790849211783e-38 1768976227
64.820824 25.551373 6.673800 1.880790849211783e-38 1768976227
64.476349 25.415588 9.556729 1.880790849211783e-38 1768976227
64.430801 25.397633 9.153583 1.880790849211783e-38 1768976227
61.114059 24.090225 3.499097 1.880790849211783e-38 1768976227
60.501392 23.848719 3.144973 1.880790849211783e-38 1768976227
63.164131 24.898331 6.003600 1.880790849211783e-38 1768976227
62.759113 24.738680 5.661732 1.880790849211783e-38 1768976227
61.415619 24.209095 2.747180 1.880790849211783e-38 1768976227
60.129795 23.702242 2.385790 1.880790849211783e-38 1768976227
61.957844 24.422831 5.167426 1.880790849211783e-38 1768976227
61.494236 24.240086 4.709896 1.880790849211783e-38 1768976227
60.528404 23.859369 1.962721 1.880790849211783e-38 1768976227
61.118519 24.091980 1.659557 1.880790849211783e-38 1768976227
61.399105 24.202585 4.365340 1.880790849211783e-38 1768976227
61.068073 24.072098 3.925843 1.880790849211783e-38 1768976227
68.559532 27.025114 14.794393 1.880790849211783e-38 1768976227
64.558746 25.448067 13.207627 1.880790849211783e-38 1768976227
63.718292 25.116774 12.489671 1.880790849211783e-38 1768976227
63.452202 25.011883 11.824068 1.880790849211783e-38 1768976227
64.425758 25.395643 11.439253 1.880790849211783e-38 1768976227
63.319168 24.959446 10.644525 1.880790849211783e-38 1768976227
65.094101 25.432547 8.722589 1.880790849211783e-38 1768976227
64.975433 25.386179 8.350195 1.880790849211783e-38 1768976227
65.329918 25.524677 7.979961 1.880790849211783e-38 1768976227
65.094582 25.432732 7.465496 1.880790849211783e-38 1768976227
64.391289 25.157949 10.366591 1.880790849211783e-38 1768976227
63.367836 24.758085 9.756800 1.880790849211783e-38 1768976227
64.931351 25.368956 7.133275 1.880790849211783e-38 1768976227
64.300041 25.122301 6.612351 1.880790849211783e-38 1768976227
65.045143 25.413416 9.629632 1.880790849211783e-38 1768976227
64.158257 25.066906 9.104081 1.880790849211783e-38 1768976227
61.229744 23.922722 3.501574 1.880790849211783e-38 1768976227
60.366871 23.585598 3.134269 1.880790849211783e-38 1768976227
63.292778 24.728762 6.008711 1.880790849211783e-38 1768976227
62.050098 24.243242 5.591148 1.880790849211783e-38 1768976227
60.908962 23.797392 2.721294 1.880790849211783e-38 1768976227
61.128494 23.883165 2.422546 1.880790849211783e-38 1768976227
62.617447 24.464905 5.216261 1.880790849211783e-38 1768976227
61.537861 24.043106 4.707662 1.880790849211783e-38 1768976227
61.881042 24.177189 2.004209 1.880790849211783e-38 1768976227
61.632008 24.079889 4.376715 1.880790849211783e-38 1768976227
60.960991 23.817720 3.914323 1.880790849211783e-38 1768976227
68.985413 26.952898 14.868685 1.880790849211783e-38 1768976227
64.979797 25.387888 13.278045 1.880790849211783e-38 1768976227
64.032120 25.017622 12.536338 1.880790849211783e-38 1768976227
63.381111 24.763271 11.796849 1.880790849211783e-38 1768976227
65.116661 25.441359 11.548251 1.880790849211783e-38 1768976227
64.023209 25.014145 10.750149 1.880790849211783e-38 1768976227
65.439934 25.340437 8.758650 1.880790849211783e-38 1768976227
64.678940 25.045753 8.302347 1.880790849211783e-38 1768976227
64.939850 25.146788 7.923016 1.880790849211783e-38 1768976227
63.913841 24.749483 7.321486 1.880790849211783e-38 1768976227
64.134750 24.835026 10.313185 1.880790849211783e-38 1768976227
64.112976 24.826595 9.859956 1.880790849211783e-38 1768976227
65.867249 25.505903 7.227607 1.880790849211783e-38 1768976227
64.841125 25.108561 6.660177 1.880790849211783e-38 1768976227
64.950890 25.151062 9.604404 1.880790849211783e-38 1768976227
64.830795 25.104559 9.188728 1.880790849211783e-38 1768976227
60.551994 23.447672 3.458755 1.880790849211783e-38 1768976227
60.895096 23.580530 3.157987 1.880790849211783e-38 1768976227
62.345524 24.142181 5.911844 1.880790849211783e-38 1768976227
62.073212 24.036734 5.586673 1.880790849211783e-38 1768976227
60.685493 23.499361 2.708131 1.880790849211783e-38 1768976227
60.316113 23.356327 2.387549 1.880790849211783e-38 1768976227
61.918659 23.976885 5.152002 1.880790849211783e-38 1768976227
62.152657 24.067495 4.749119 1.880790849211783e-38 1768976227
62.299637 24.124411 2.015401 1.880790849211783e-38 1768976227
61.964264 23.994543 4.395151 1.880790849211783e-38 1768976227
60.810848 23.547905 3.900105 1.880790849211783e-38 1768976227
65.826653 25.490187 14.171231 1.880790849211783e-38 1768976227
64.864113 25.117456 13.238864 1.880790849211783e-38 1768976227
63.453331 24.571159 12.408457 1.880790849211783e-38 1768976227
64.217216 24.866962 11.938457 1.880790849211783e-38 1768976227
65.061256 25.193800 11.524898 1.880790849211783e-38 1768976227
63.794666 24.703335 10.699215 1.880790849211783e-38 1768976227
70.694305 27.375095 16.071459 1.880790849211783e-38 1768976227
65.780663 25.244507 8.794024 1.880790849211783e-38 1768976227
64.988510 24.940506 8.332391 1.880790849211783e-38 1768976227
64.428741 24.725681 7.851523 1.880790849211783e-38 1768976227
66.309715 25.447540 7.587113 1.880790849211783e-38 1768976227
64.398232 24.713974 10.343521 1.880790849211783e-38 1768976227
65.940887 25.305998 10.129288 1.880790849211783e-38 1768976227
65.360092 25.083107 7.163624 1.880790849211783e-38 1768976227
63.973503 24.550978 6.563423 1.880790849211783e-38 1768976227
64.677979 24.821333 9.552936 1.880790849211783e-38 1768976227
64.402298 24.715534 9.117390 1.880790849211783e-38 1768976227
61.210419 23.490595 3.492302 1.880790849211783e-38 1768976227
60.236496 23.116837 3.120203 1.880790849211783e-38 1768976227
62.632362 24.036289 5.932142 1.880790849211783e-38 1768976227
61.884136 23.749147 5.563184 1.880790849211783e-38 1768976227
60.186840 23.097778 2.682758 1.880790849211783e-38 1768976227
60.800629 23.333328 2.403931 1.880790849211783e-38 1768976227
62.421280 23.955286 5.187788 1.880790849211783e-38 1768976227
61.910557 23.759285 4.725124 1.880790849211783e-38 1768976227
61.114788 23.453894 4.329860 1.880790849211783e-38 1768976227
60.984417 23.403862 3.906692 1.880790849211783e-38 1768976227
65.995995 25.327147 14.191178 1.880790849211783e-38 1768976227
62.592171 24.020868 12.760313 1.880790849211783e-38 1768976227
64.121635 24.607826 12.524575 1.880790849211783e-38 1768976227
64.765671 24.854986 12.026428 1.880790849211783e-38 1768976227
64.928566 24.917500 11.488029 1.880790849211783e-38 1768976227
64.287697 24.671555 10.769375 1.880790849211783e-38 1768976227
68.600395 26.326630 16.118038 1.880790849211783e-38 1768976227
70.551239 27.075302 16.020298 1.880790849211783e-38 1768976227
65.088966 24.754097 8.691532 1.880790849211783e-38 1768976227
64.879601 24.674471 8.308847 1.880790849211783e-38 1768976227
63.974091 24.330097 7.787141 1.880790849211783e-38 1768976227
65.922752 25.071196 7.534151 1.880790849211783e-38 1768976227
64.668480 24.594179 10.374968 1.880790849211783e-38 1768976227
65.274696 24.824730 10.015406 1.880790849211783e-38 1768976227
65.857903 25.046534 7.209873 1.880790849211783e-38 1768976227
63.959759 24.324646 6.554457 1.880790849211783e-38 1768976227
64.596230 24.566706 9.529875 1.880790849211783e-38 1768976227
64.955292 24.703260 9.185087 1.880790849211783e-38 1768976227
61.245110 23.292233 3.490258 1.880790849211783e-38 1768976227
59.842552 22.758823 3.096227 1.880790849211783e-38 1768976227
62.758480 23.867786 5.937243 1.880790849211783e-38 1768976227
62.013592 23.584496 5.568402 1.880790849211783e-38 1768976227
60.363235 22.956844 2.687522 1.880790849211783e-38 1768976227
62.530346 23.781025 2.469474 1.880790849211783e-38 1768976227
61.478500 23.380993 5.103550 1.880790849211783e-38 1768976227
61.653770 23.447653 4.700107 1.880790849211783e-38 1768976227
61.607670 23.430120 4.359754 1.880790849211783e-38 1768976227
61.292969 23.310432 3.921936 1.880790849211783e-38 1768976227
66.168564 25.164680 14.211902 1.880790849211783e-38 1768976227
62.156528 23.638855 12.656909 1.880790849211783e-38 1768976227
61.261581 23.298498 11.952156 1.880790849211783e-38 1768976227
65.043541 24.736820 12.064117 1.880790849211783e-38 1768976227
65.688484 24.982103 11.609100 1.880790849211783e-38 1768976227
64.170692 24.404867 10.737395 1.880790849211783e-38 1768976227
69.118385 26.286531 16.221043 1.880790849211783e-38 1768976227
64.795471 24.419054 8.642467 1.880790849211783e-38 1768976227
64.262840 24.218325 8.220470 1.880790849211783e-38 1768976227
65.868408 24.823402 8.008574 1.880790849211783e-38 1768976227
65.956764 24.856699 7.529436 1.880790849211783e-38 1768976227
64.413292 24.275023 10.322234 1.880790849211783e-38 1768976227
65.004059 24.497662 9.962500 1.880790849211783e-38 1768976227
64.060547 24.142088 7.005103 1.880790849211783e-38 1768976227
62.822140 23.675375 6.430529 1.880790849211783e-38 1768976227
65.344658 24.626022 9.629290 1.880790849211783e-38 1768976227
65.292824 24.606489 9.222281 1.880790849211783e-38 1768976227
60.605579 22.840034 3.449871 1.880790849211783e-38 1768976227
60.533974 22.813049 3.128427 1.880790849211783e-38 1768976227
62.722633 23.637877 5.927080 1.880790849211783e-38 1768976227
62.247448 23.458797 5.583023 1.880790849211783e-38 1768976227
62.064285 23.389769 2.760103 1.880790849211783e-38 1768976227
62.275017 23.469187 2.456584 1.880790849211783e-38 1768976227
61.880806 23.320623 5.131085 1.880790849211783e-38 1768976227
61.720463 23.260193 4.699821 1.880790849211783e-38 1768976227
61.164913 23.050827 4.323482 1.880790849211783e-38 1768976227
60.844547 22.930098 3.888801 1.880790849211783e-38 1768976227
64.103447 24.158255 13.752638 1.880790849211783e-38 1768976227
62.311474 23.482925 12.673982 1.880790849211783e-38 1768976227
60.556602 22.821579 11.801132 1.880790849211783e-38 1768976227
65.647369 24.740103 12.162221 1.880790849211783e-38 1768976227
65.577377 24.713726 11.576239 1.880790849211783e-38 1768976227
64.704720 24.384851 10.814397 1.880790849211783e-38 1768976227
69.276390 26.107748 16.239571 1.880790849211783e-38 1768976227
66.245583 24.737642 8.825893 1.880790849211783e-38 1768976227
66.323082 24.766582 8.474423 1.880790849211783e-38 1768976227
66.218033 24.727356 8.041980 1.880790849211783e-38 1768976227
66.653664 24.890030 7.600389 1.880790849211783e-38 1768976227
64.320648 24.018824 10.295732 1.880790849211783e-38 1768976227
64.977814 24.264225 9.947217 1.880790849211783e-38 1768976227
63.784927 23.818777 6.967076 1.880790849211783e-38 1768976227
63.359653 23.659969 6.478216 1.880790849211783e-38 1768976227
64.860962 24.220591 9.547203 1.880790849211783e-38 1768976227
65.503609 24.460571 9.241590 1.880790849211783e-38 1768976227
60.892807 22.738794 3.462301 1.880790849211783e-38 1768976227
60.783001 22.697788 3.137745 1.880790849211783e-38 1768976227
62.475670 23.329870 5.897067 1.880790849211783e-38 1768976227
61.856155 23.098530 5.541654 1.880790849211783e-38 1768976227
62.407204 23.304302 2.772215 1.880790849211783e-38 1768976227
62.567829 23.364286 2.465344 1.880790849211783e-38 1768976227
61.305576 22.892929 5.077640 1.880790849211783e-38 1768976227
61.672726 23.030031 4.690876 1.880790849211783e-38 1768976227
61.397476 22.927248 4.335013 1.880790849211783e-38 1768976227
60.658833 22.651419 3.872547 1.880790849211783e-38 1768976227
63.361584 23.660690 13.578109 1.880790849211783e-38 1768976227
61.773911 23.067816 12.550435 1.880790849211783e-38 1768976227
68.094681 25.428137 17.890965 1.880790849211783e-38 1768976227
61.234066 22.866228 11.919662 1.880790849211783e-38 1768976227
68.780258 25.684147 12.728228 1.880790849211783e-38 1768976227
65.993271 24.643421 11.636482 1.880790849211783e-38 1768976227
65.077271 24.301365 10.864365 1.880790849211783e-38 1768976227
69.598320 25.989632 16.296589 1.880790849211783e-38 1768976227
66.130432 24.467638 8.800681 1.880790849211783e-38 1768976227
67.175262 24.854216 8.573693 1.880790849211783e-38 1768976227
65.954788 24.402651 8.001035 1.880790849211783e-38 1768976227
64.591209 23.898138 7.356959 1.880790849211783e-38 1768976227
64.663353 23.924833 10.338993 1.880790849211783e-38 1768976227
65.184814 24.117765 9.967725 1.880790849211783e-38 1768976227
64.025238 23.688734 6.985489 1.880790849211783e-38 1768976227
63.425816 23.466953 6.477715 1.880790849211783e-38 1768976227
65.901413 24.382904 9.689485 1.880790849211783e-38 1768976227
64.987175 24.044641 9.158457 1.880790849211783e-38 1768976227
61.013878 22.574558 3.465298 1.880790849211783e-38 1768976227
63.151493 23.365454 3.256359 1.880790849211783e-38 1768976227
62.499081 23.124067 5.892667 1.880790849211783e-38 1768976227
62.145924 22.993406 5.561376 1.880790849211783e-38 1768976227
63.098637 23.345900 2.799789 1.880790849211783e-38 1768976227
62.978954 23.301617 2.478763 1.880790849211783e-38 1768976227
61.332340 22.692389 5.074165 1.880790849211783e-38 1768976227
61.284168 22.674562 4.656099 1.880790849211783e-38 1768976227
61.310078 22.684153 4.323993 1.880790849211783e-38 1768976227
61.090919 22.603065 3.895762 1.880790849211783e-38 1768976227
63.435913 23.470690 13.578807 1.880790849211783e-38 1768976227
61.935535 22.915564 12.569174 1.880790849211783e-38 1768976227
67.651611 25.030458 17.754641 1.880790849211783e-38 1768976227
61.362816 22.703663 11.931340 1.880790849211783e-38 1768976227
67.218964 24.870384 12.425364 1.880790849211783e-38 1768976227
66.457146 24.588516 11.705148 1.880790849211783e-38 1768976227
64.789787 23.971611 10.804252 1.880790849211783e-38 1768976227
69.667389 25.776276 16.294485 1.880790849211783e-38 1768976227
66.466011 24.364157 8.835520 1.880790849211783e-38 1768976227
66.803139 24.487738 8.516734 1.880790849211783e-38 1768976227
66.208878 24.269901 8.022943 1.880790849211783e-38 1768976227
64.492332 23.640673 7.337543 1.880790849211783e-38 1768976227
64.944695 23.806494 10.372449 1.880790849211783e-38 1768976227
64.967499 23.814854 9.923466 1.880790849211783e-38 1768976227
63.970371 23.449341 6.971755 1.880790849211783e-38 1768976227
64.334969 23.582991 6.563274 1.880790849211783e-38 1768976227
66.066559 24.217730 9.702982 1.880790849211783e-38 1768976227
65.208496 23.903196 9.179446 1.880790849211783e-38 1768976227
61.206352 22.436146 3.472371 1.880790849211783e-38 1768976227
62.350376 22.855507 5.872121 1.880790849211783e-38 1768976227
62.281357 22.830206 5.567308 1.880790849211783e-38 1768976227
62.991074 23.090363 2.791914 1.880790849211783e-38 1768976227
61.783768 22.647806 5.105839 1.880790849211783e-38 1768976227
61.724876 22.626219 4.684377 1.880790849211783e-38 1768976227
61.368374 22.495541 4.323300 1.880790849211783e-38 1768976227
60.637646 22.227676 3.862564 1.880790849211783e-38 1768976227
62.888309 23.052692 13.446645 1.880790849211783e-38 1768976227
61.733669 22.629440 12.514299 1.880790849211783e-38 1768976227
68.172630 24.989744 17.871517 1.880790849211783e-38 1768976227
62.180904 22.793385 12.076987 1.880790849211783e-38 1768976227
68.084885 24.957579 12.571458 1.880790849211783e-38 1768976227
64.939995 23.804770 11.425234 1.880790849211783e-38 1768976227
64.515648 23.649220 10.746593 1.880790849211783e-38 1768976227
70.320831 25.777201 16.429060 1.880790849211783e-38 1768976227
69.549736 25.494545 15.703794 1.880790849211783e-38 1768976227
69.178238 25.121950 9.185951 1.880790849211783e-38 1768976227
69.133911 25.105852 8.804190 1.880790849211783e-38 1768976227
68.295708 24.801460 8.266715 1.880790849211783e-38 1768976227
65.367615 23.738129 7.428947 1.880790849211783e-38 1768976227
65.319420 23.720627 10.420823 1.880790849211783e-38 1768976227
65.311234 23.717653 9.964998 1.880790849211783e-38 1768976227
64.631577 23.470837 7.036069 1.880790849211783e-38 1768976227
64.447266 23.403906 6.567499 1.880790849211783e-38 1768976227
66.055702 23.988007 9.690718 1.880790849211783e-38 1768976227
65.651222 23.841124 9.231606 1.880790849211783e-38 1768976227
62.750122 22.787590 5.903269 1.880790849211783e-38 1768976227
61.489460 22.329784 5.490476 1.880790849211783e-38 1768976227
62.176323 22.579220 5.132629 1.880790849211783e-38 1768976227
61.500668 22.333857 4.662229 1.880790849211783e-38 1768976227
60.818741 22.086214 4.279867 1.880790849211783e-38 1768976227
60.978378 22.144188 3.879997 1.880790849211783e-38 1768976227
63.075104 22.905609 13.471753 1.880790849211783e-38 1768976227
62.235855 22.600838 12.602225 1.880790849211783e-38 1768976227
67.784081 24.615665 17.750116 1.880790849211783e-38 1768976227
61.875805 22.470083 12.004513 1.880790849211783e-38 1768976227
66.623306 24.194134 12.288057 1.880790849211783e-38 1768976227
65.674278 23.849493 11.541713 1.880790849211783e-38 1768976227
64.703926 23.497110 10.766102 1.880790849211783e-38 1768976227
69.814430 25.352983 16.292812 1.880790849211783e-38 1768976227
69.723770 25.320057 15.725775 1.880790849211783e-38 1768976227
69.447105 24.982784 9.211607 1.880790849211783e-38 1768976227
68.040047 24.476612 8.655447 1.880790849211783e-38 1768976227
66.979568 24.095118 8.098573 1.880790849211783e-38 1768976227
64.847893 23.328268 7.361852 1.880790849211783e-38 1768976227
65.708672 23.637922 10.471502 1.880790849211783e-38 1768976227
64.939613 23.361265 9.897503 1.880790849211783e-38 1768976227
64.297844 23.130398 6.992112 1.880790849211783e-38 1768976227
64.013657 23.028162 6.516205 1.880790849211783e-38 1768976227
65.695496 23.633184 9.627374 1.880790849211783e-38 1768976227
65.863464 23.693611 9.251359 1.880790849211783e-38 1768976227
62.344501 22.427704 5.858720 1.880790849211783e-38 1768976227
61.989666 22.300055 5.529109 1.880790849211783e-38 1768976227
62.246590 22.392481 5.132831 1.880790849211783e-38 1768976227
61.653000 22.178944 4.668684 1.880790849211783e-38 1768976227
61.001907 21.944723 4.288079 1.880790849211783e-38 1768976227
60.960762 21.929918 3.874650 1.880790849211783e-38 1768976227
62.413567 22.452551 13.315937 1.880790849211783e-38 1768976227
62.055874 22.323874 12.552091 1.880790849211783e-38 1768976227
68.094841 24.496323 17.812065 1.880790849211783e-38 1768976227
61.918079 22.274305 11.999627 1.880790849211783e-38 1768976227
66.433273 23.898590 12.239658 1.880790849211783e-38 1768976227
69.152733 24.876888 16.826876 1.880790849211783e-38 1768976227
65.243469 23.470573 11.453509 1.880790849211783e-38 1768976227
65.725449 23.643961 10.924160 1.880790849211783e-38 1768976227
70.321228 25.297237 16.393206 1.880790849211783e-38 1768976227
68.871300 24.775644 15.516582 1.880790849211783e-38 1768976227
68.861427 24.537785 9.124063 1.880790849211783e-38 1768976227
67.818138 24.166021 8.617907 1.880790849211783e-38 1768976227
65.878716 23.474937 7.956871 1.880790849211783e-38 1768976227
65.081871 23.190992 7.380441 1.880790849211783e-38 1768976227
65.399727 23.304253 10.411019 1.880790849211783e-38 1768976227
67.081276 23.903450 10.212881 1.880790849211783e-38 1768976227
63.930199 22.780609 6.944628 1.880790849211783e-38 1768976227
63.859673 22.755480 6.493515 1.880790849211783e-38 1768976227
66.382759 23.654543 9.717589 1.880790849211783e-38 1768976227
65.651772 23.394070 9.211672 1.880790849211783e-38 1768976227
62.785629 22.372759 5.893807 1.880790849211783e-38 1768976227
62.114338 22.133554 5.534251 1.880790849211783e-38 1768976227
62.154541 22.147879 5.119709 1.880790849211783e-38 1768976227
61.480637 21.907745 4.650608 1.880790849211783e-38 1768976227
61.793652 22.019285 4.339047 1.880790849211783e-38 1768976227
63.018406 22.455704 13.430469 1.880790849211783e-38 1768976227
61.880104 22.050087 12.503028 1.880790849211783e-38 1768976227
67.689041 24.120018 17.686808 1.880790849211783e-38 1768976227
61.790241 22.018068 11.961928 1.880790849211783e-38 1768976227
65.491829 23.337076 12.053185 1.880790849211783e-38 1768976227
68.612976 24.449253 17.124199 1.880790849211783e-38 1768976227
68.626328 24.454006 16.680761 1.880790849211783e-38 1768976227
64.780975 23.083775 11.360045 1.880790849211783e-38 1768976227
65.804695 23.448559 10.925527 1.880790849211783e-38 1768976227
69.074944 24.613865 16.085293 1.880790849211783e-38 1768976227
69.524765 24.774151 15.646901 1.880790849211783e-38 1768976227
68.686356 24.242195 9.091137 1.880790849211783e-38 1768976227
69.844856 24.651077 8.865961 1.880790849211783e-38 1768976227
66.770424 23.565987 8.055950 1.880790849211783e-38 1768976227
64.895943 22.904404 7.351489 1.880790849211783e-38 1768976227
65.650192 23.170609 10.439719 1.880790849211783e-38 1768976227
66.711632 23.545237 10.145747 1.880790849211783e-38 1768976227
64.770042 22.859970 7.028339 1.880790849211783e-38 1768976227
63.344452 22.356821 6.434239 1.880790849211783e-38 1768976227
66.293518 23.397667 9.694152 1.880790849211783e-38 1768976227
66.208763 23.367754 9.279893 1.880790849211783e-38 1768976227
63.461552 22.398151 5.950889 1.880790849211783e-38 1768976227
61.824955 21.820530 5.502579 1.880790849211783e-38 1768976227
61.899403 21.846806 5.093243 1.880790849211783e-38 1768976227
61.412853 21.675085 4.640515 1.880790849211783e-38 1768976227
61.086155 21.559778 4.284782 1.880790849211783e-38 1768976227
62.672943 22.119820 13.342566 1.880790849211783e-38 1768976227
62.375946 22.014999 12.589743 1.880790849211783e-38 1768976227
67.397209 23.787205 17.591728 1.880790849211783e-38 1768976227
63.617924 22.453339 12.302582 1.880790849211783e-38 1768976227
65.443504 23.097664 12.031416 1.880790849211783e-38 1768976227
68.882591 24.311457 17.173109 1.880790849211783e-38 1768976227
68.261406 24.092213 16.574324 1.880790849211783e-38 1768976227
65.086128 22.971531 11.401356 1.880790849211783e-38 1768976227
65.875969 23.250298 10.925668 1.880790849211783e-38 1768976227
68.806824 24.284714 16.005730 1.880790849211783e-38 1768976227
69.972717 24.696205 15.730882 1.880790849211783e-38 1768976227
66.249016 23.157501 8.759254 1.880790849211783e-38 1768976227
69.606071 24.330967 8.826295 1.880790849211783e-38 1768976227
66.723038 23.323196 8.041710 1.880790849211783e-38 1768976227
64.601166 22.581491 7.310348 1.880790849211783e-38 1768976227
65.175888 22.782387 10.353322 1.880790849211783e-38 1768976227
67.560287 23.615860 10.263935 1.880790849211783e-38 1768976227
64.592903 22.578606 7.001696 1.880790849211783e-38 1768976227
63.620667 22.238758 6.455454 1.880790849211783e-38 1768976227
66.720085 23.322166 9.746201 1.880790849211783e-38 1768976227
67.631256 23.640667 9.469234 1.880790849211783e-38 1768976227
63.283398 22.120865 5.927900 1.880790849211783e-38 1768976227
62.138138 21.720533 5.524597 1.880790849211783e-38 1768976227
61.319168 21.434263 5.040157 1.880790849211783e-38 1768976227
61.553413 21.516142 4.646211 1.880790849211783e-38 1768976227
62.617645 21.888147 13.316678 1.880790849211783e-38 1768976227
62.166428 21.730425 12.534169 1.880790849211783e-38 1768976227
69.055748 24.138603 18.872854 1.880790849211783e-38 1768976227
67.270966 23.514729 17.540186 1.880790849211783e-38 1768976227
62.926250 21.996021 12.155941 1.880790849211783e-38 1768976227
63.602051 22.232250 11.680494 1.880790849211783e-38 1768976227
68.769333 24.038486 17.126720 1.880790849211783e-38 1768976227
68.224495 23.848034 16.547823 1.880790849211783e-38 1768976227
65.472458 22.886057 11.456888 1.880790849211783e-38 1768976227
66.015419 23.075848 10.937203 1.880790849211783e-38 1768976227
69.173965 24.179926 16.074097 1.880790849211783e-38 1768976227
63.740009 22.280476 14.314507 1.880790849211783e-38 1768976227
67.264473 23.285051 8.884190 1.880790849211783e-38 1768976227
70.233879 24.312973 8.896565 1.880790849211783e-38 1768976227
66.519524 23.027172 8.008776 1.880790849211783e-38 1768976227
65.987885 22.843132 7.459441 1.880790849211783e-38 1768976227
68.551590 23.730614 10.878141 1.880790849211783e-38 1768976227
67.874176 23.496111 10.300810 1.880790849211783e-38 1768976227
64.076958 22.181622 6.938486 1.880790849211783e-38 1768976227
63.941769 22.134825 6.481233 1.880790849211783e-38 1768976227
67.080330 23.221304 9.788548 1.880790849211783e-38 1768976227
67.186859 23.258183 9.397150 1.880790849211783e-38 1768976227
62.588783 21.666456 5.856686 1.880790849211783e-38 1768976227
62.131840 21.508280 5.518245 1.880790849211783e-38 1768976227
61.539082 21.303082 5.052929 1.880790849211783e-38 1768976227
77.158707 26.710154 5.818032 1.880790849211783e-38 1768976227
62.857605 21.759516 13.353694 1.880790849211783e-38 1768976227
62.221081 21.539169 12.532034 1.880790849211783e-38 1768976227
68.793526 23.814363 18.781475 1.880790849211783e-38 1768976227
67.864265 23.492680 17.676329 1.880790849211783e-38 1768976227
63.222950 21.885988 12.200450 1.880790849211783e-38 1768976227
63.955021 22.139410 11.733001 1.880790849211783e-38 1768976227
68.622635 23.755203 17.072266 1.880790849211783e-38 1768976227
68.695923 23.780575 16.644697 1.880790849211783e-38 1768976227
64.997482 22.500282 11.361847 1.880790849211783e-38 1768976227
64.406090 22.295557 10.659388 1.880790849211783e-38 1768976227
68.795631 23.815090 15.969419 1.880790849211783e-38 1768976227
63.646088 22.032465 14.278427 1.880790849211783e-38 1768976227
70.323036 24.106581 9.278515 1.880790849211783e-38 1768976227
69.961296 23.982578 8.852835 1.880790849211783e-38 1768976227
66.699486 22.864439 8.022104 1.880790849211783e-38 1768976227
65.894135 22.588366 7.441109 1.880790849211783e-38 1768976227
67.803368 23.242847 10.748239 1.880790849211783e-38 1768976227
67.874290 23.267157 10.290131 1.880790849211783e-38 1768976227
63.864769 21.892700 6.908328 1.880790849211783e-38 1768976227
63.384830 21.728182 6.418109 1.880790849211783e-38 1768976227
67.530182 23.149200 9.843960 1.880790849211783e-38 1768976227
67.152267 23.019648 9.382559 1.880790849211783e-38 1768976227
62.892319 21.559349 5.878978 1.880790849211783e-38 1768976227
78.792633 27.009941 6.462889 1.880790849211783e-38 1768976227
62.849945 21.544823 13.338201 1.880790849211783e-38 1768976227
62.046051 21.269251 12.483805 1.880790849211783e-38 1768976227
69.162048 23.708597 18.862480 1.880790849211783e-38 1768976227
68.083870 23.339001 17.715113 1.880790849211783e-38 1768976227
62.461418 21.411636 12.040977 1.880790849211783e-38 1768976227
64.774803 22.204660 11.871057 1.880790849211783e-38 1768976227
67.721069 23.214634 16.830475 1.880790849211783e-38 1768976227
68.993294 23.650751 16.699390 1.880790849211783e-38 1768976227
65.065086 22.304169 11.361854 1.880790849211783e-38 1768976227
63.635445 21.814089 10.520907 1.880790849211783e-38 1768976227
69.245758 23.737293 16.057215 1.880790849211783e-38 1768976227
64.632927 22.156025 14.484757 1.880790849211783e-38 1768976227
70.035416 23.772182 9.231065 1.880790849211783e-38 1768976227
69.610413 23.627924 8.799376 1.880790849211783e-38 1768976227
67.035469 22.753908 8.054223 1.880790849211783e-38 1768976227
65.991745 22.399637 7.444468 1.880790849211783e-38 1768976227
67.822723 23.021124 10.740250 1.880790849211783e-38 1768976227
68.355736 23.202047 10.352465 1.880790849211783e-38 1768976227
63.824009 21.663839 6.896820 1.880790849211783e-38 1768976227
63.761082 21.642477 6.449568 1.880790849211783e-38 1768976227
67.726006 22.988298 9.862353 1.880790849211783e-38 1768976227
66.887718 22.703754 9.335986 1.880790849211783e-38 1768976227
63.171402 21.442324 5.898994 1.880790849211783e-38 1768976227
78.551636 26.662851 6.436496 1.880790849211783e-38 1768976227
62.596706 21.247255 13.270799 1.880790849211783e-38 1768976227
61.755573 20.961748 12.412583 1.880790849211783e-38 1768976227
68.466255 23.239561 18.653517 1.880790849211783e-38 1768976227
67.973747 23.072386 17.668272 1.880790849211783e-38 1768976227
62.581047 21.241940 12.051634 1.880790849211783e-38 1768976227
65.078232 22.089561 11.914401 1.880790849211783e-38 1768976227
68.609894 23.288319 17.033838 1.880790849211783e-38 1768976227
68.584450 23.279680 16.583363 1.880790849211783e-38 1768976227
64.323036 21.833227 11.220725 1.880790849211783e-38 1768976227
63.954479 21.708126 10.562781 1.880790849211783e-38 1768976227
67.488045 22.907524 15.633533 1.880790849211783e-38 1768976227
64.806526 21.997334 14.508729 1.880790849211783e-38 1768976227
70.969513 23.850792 9.344660 1.880790849211783e-38 1768976227
69.883133 23.485693 8.824858 1.880790849211783e-38 1768976227
66.898209 22.482548 8.029548 1.880790849211783e-38 1768976227
66.068481 22.203695 7.445536 1.880790849211783e-38 1768976227
75.555374 25.391966 11.952594 1.880790849211783e-38 1768976227
69.745148 23.439318 10.552137 1.880790849211783e-38 1768976227
71.395172 23.993843 7.707104 1.880790849211783e-38 1768976227
63.500862 21.340796 6.416707 1.880790849211783e-38 1768976227
67.192184 22.581345 9.774656 1.880790849211783e-38 1768976227
66.735870 22.427988 9.305308 1.880790849211783e-38 1768976227
73.661819 24.755598 6.871594 1.880790849211783e-38 1768976227
78.042053 26.227667 6.909953 1.880790849211783e-38 1768976227
78.365028 26.336212 6.414668 1.880790849211783e-38 1768976227
78.832855 26.493431 4.973932 1.880790849211783e-38 1768976227
62.756203 21.090536 13.291067 1.880790849211783e-38 1768976227
62.538181 21.017265 12.557086 1.880790849211783e-38 1768976227
68.973198 23.179890 18.772503 1.880790849211783e-38 1768976227
66.682022 22.409893 17.314873 1.880790849211783e-38 1768976227
63.032085 21.183254 12.126136 1.880790849211783e-38 1768976227
64.910400 21.814501 11.871576 1.880790849211783e-38 1768976227
68.599876 23.054426 17.014013 1.880790849211783e-38 1768976227
67.988342 22.848904 16.422489 1.880790849211783e-38 1768976227
64.486420 21.672014 11.237774 1.880790849211783e-38 1768976227
64.793068 21.775068 10.690388 1.880790849211783e-38 1768976227
69.812759 23.462044 16.155586 1.880790849211783e-38 1768976227
64.982117 21.838600 14.533229 1.880790849211783e-38 1768976227
70.215675 23.362000 9.236082 1.880790849211783e-38 1768976227
70.142662 23.337708 8.848702 1.880790849211783e-38 1768976227
66.913544 22.263323 8.023293 1.880790849211783e-38 1768976227
65.856880 21.911749 7.414209 1.880790849211783e-38 1768976227
81.601120 27.150141 12.895998 1.880790849211783e-38 1768976227
68.599838 22.824381 10.368394 1.880790849211783e-38 1768976227
71.204285 23.690928 7.678751 1.880790849211783e-38 1768976227
72.308105 24.058187 7.299306 1.880790849211783e-38 1768976227
67.646873 22.507313 9.830881 1.880790849211783e-38 1768976227
66.403481 22.093613 9.249628 1.880790849211783e-38 1768976227
73.245201 24.369974 6.825842 1.880790849211783e-38 1768976227
72.928574 24.264626 6.450689 1.880790849211783e-38 1768976227
77.758339 25.871576 6.358591 1.880790849211783e-38 1768976227
78.072075 25.975964 4.920966 1.880790849211783e-38 1768976227
63.107517 20.996986 13.351998 1.880790849211783e-38 1768976227
63.195194 21.026161 12.676217 1.880790849211783e-38 1768976227
68.968391 22.947006 18.752272 1.880790849211783e-38 1768976227
66.730270 22.202341 17.309935 1.880790849211783e-38 1768976227
