# .PCD v0.7 - Point Cloud Data file format
VERSION 0.7
FIELDS x y z rgb label
SIZE 4 4 4 4 4
TYPE F F F F U
COUNT 1 1 1 1 1
WIDTH 743
HEIGHT 1
VIEWPOINT 0 0 0 1 0 0 0
POINTS 743
DATA ascii
-22.716707 -27.999998 4.102230 1.880790849211783e-38 1768976227
-22.716707 -27.999998 3.851635 1.880790849211783e-38 1768976227
-22.716709 -28.000002 3.689486 1.880790849211783e-38 1768976227
-22.716705 -27.999996 3.453631 1.880790849211783e-38 1768976227
-22.716705 -27.999998 4.971942 1.880790849211783e-38 1768976227
-22.716705 -27.999994 4.765569 1.880790849211783e-38 1768976227
-22.716705 -28.000000 1.920580 1.880790849211783e-38 1768976227
-22.716705 -27.999996 1.743689 1.880790849211783e-38 1768976227
-22.716709 -28.000000 3.188295 1.880790849211783e-38 1768976227
-22.716705 -27.999996 3.026145 1.880790849211783e-38 1768976227
-22.716705 -28.000000 1.500465 1.880790849211783e-38 1768976227
-22.716709 -27.999998 1.330945 1.880790849211783e-38 1768976227
-22.716709 -28.000000 2.797663 1.880790849211783e-38 1768976227
-22.716707 -27.999998 2.569179 1.880790849211783e-38 1768976227
-22.716703 -27.999994 1.087720 1.880790849211783e-38 1768976227
-22.716711 -28.000002 0.910830 1.880790849211783e-38 1768976227
-22.716711 -28.000000 2.384918 1.880790849211783e-38 1768976227
-22.716711 -28.000002 2.156434 1.880790849211783e-38 1768976227
-22.716707 -28.000000 -0.644333 1.880790849211783e-38 1768976227
-22.716709 -28.000000 -0.843335 1.880790849211783e-38 1768976227
-22.716705 -28.000000 0.623383 1.880790849211783e-38 1768976227
-22.716709 -28.000000 0.439122 1.880790849211783e-38 1768976227
-22.716707 -27.999996 -1.064448 1.880790849211783e-38 1768976227
-22.716705 -27.999998 -1.241338 1.880790849211783e-38 1768976227
-22.716709 -28.000002 0.218009 1.880790849211783e-38 1768976227
-22.716707 -28.000000 0.026377 1.880790849211783e-38 1768976227
-22.857084 -28.000000 4.511293 1.880790849211783e-38 1768976227
-22.857086 -28.000000 4.326580 1.880790849211783e-38 1768976227
-22.857086 -28.000002 -0.209991 1.880790849211783e-38 1768976227
-22.857082 -27.999998 -0.416871 1.880790849211783e-38 1768976227
-22.857084 -28.000000 4.112311 1.880790849211783e-38 1768976227
-22.857086 -28.000000 3.861101 1.880790849211783e-38 1768976227
-22.857088 -28.000004 3.698553 1.880790849211783e-38 1768976227
-22.857084 -28.000000 3.462119 1.880790849211783e-38 1768976227
-22.857088 -28.000000 4.984161 1.880790849211783e-38 1768976227
-22.857086 -27.999998 4.777281 1.880790849211783e-38 1768976227
-22.857082 -27.999996 1.925300 1.880790849211783e-38 1768976227
-22.857082 -27.999998 1.747974 1.880790849211783e-38 1768976227
-22.857090 -28.000006 3.196131 1.880790849211783e-38 1768976227
-22.857090 -28.000004 3.033583 1.880790849211783e-38 1768976227
-22.857088 -28.000000 1.504153 1.880790849211783e-38 1768976227
-22.857084 -27.999998 1.334216 1.880790849211783e-38 1768976227
-22.857084 -28.000000 2.804538 1.880790849211783e-38 1768976227
-22.857086 -28.000000 2.575492 1.880790849211783e-38 1768976227
-22.857090 -28.000000 1.090394 1.880790849211783e-38 1768976227
-22.857084 -27.999998 0.913068 1.880790849211783e-38 1768976227
-22.857084 -27.999998 2.390779 1.880790849211783e-38 1768976227
-22.857084 -27.999998 2.161733 1.880790849211783e-38 1768976227
-22.857080 -27.999996 -0.645916 1.880790849211783e-38 1768976227
-22.857086 -28.000000 -0.845407 1.880790849211783e-38 1768976227
-22.857086 -28.000000 0.624915 1.880790849211783e-38 1768976227
-22.857084 -28.000000 0.440201 1.880790849211783e-38 1768976227
-22.857086 -28.000000 -1.067064 1.880790849211783e-38 1768976227
-22.857084 -27.999998 -1.244389 1.880790849211783e-38 1768976227
-22.857082 -27.999998 0.218545 1.880790849211783e-38 1768976227
-22.857082 -27.999996 0.026442 1.880790849211783e-38 1768976227
-22.998156 -28.000002 4.522449 1.880790849211783e-38 1768976227
-22.998158 -27.999998 4.337278 1.880790849211783e-38 1768976227
-22.998158 -27.999998 -0.210511 1.880790849211783e-38 1768976227
-22.998152 -27.999996 -0.417902 1.880790849211783e-38 1768976227
-22.998154 -28.000000 4.122479 1.880790849211783e-38 1768976227
-22.998156 -28.000000 3.870648 1.880790849211783e-38 1768976227
-22.998156 -28.000000 3.707698 1.880790849211783e-38 1768976227
-22.998156 -27.999998 3.470679 1.880790849211783e-38 1768976227
-22.998156 -28.000000 4.996485 1.880790849211783e-38 1768976227
-22.998156 -28.000000 4.789094 1.880790849211783e-38 1768976227
-22.998154 -27.999996 1.930060 1.880790849211783e-38 1768976227
-22.998152 -27.999996 1.752296 1.880790849211783e-38 1768976227
-22.998158 -28.000000 3.204034 1.880790849211783e-38 1768976227
-22.998159 -28.000002 3.041084 1.880790849211783e-38 1768976227
-22.998154 -27.999998 1.507872 1.880790849211783e-38 1768976227
-22.998154 -27.999998 1.337515 1.880790849211783e-38 1768976227
-22.998159 -28.000004 2.811473 1.880790849211783e-38 1768976227
-22.998154 -28.000000 2.581861 1.880790849211783e-38 1768976227
-22.998156 -28.000002 1.093090 1.880790849211783e-38 1768976227
-22.998158 -28.000000 0.915326 1.880790849211783e-38 1768976227
-22.998154 -27.999998 2.396690 1.880790849211783e-38 1768976227
-22.998158 -28.000002 2.167079 1.880790849211783e-38 1768976227
-22.998158 -27.999998 -0.647513 1.880790849211783e-38 1768976227
-22.998156 -27.999998 -0.847498 1.880790849211783e-38 1768976227
-22.998156 -28.000000 0.626460 1.880790849211783e-38 1768976227
-22.998156 -28.000000 0.441290 1.880790849211783e-38 1768976227
-22.998156 -28.000000 -1.069702 1.880790849211783e-38 1768976227
-22.998156 -28.000000 -1.247466 1.880790849211783e-38 1768976227
-22.998158 -27.999998 0.219085 1.880790849211783e-38 1768976227
-22.998158 -28.000002 0.026507 1.880790849211783e-38 1768976227
-23.139915 -27.999998 4.533699 1.880790849211783e-38 1768976227
-23.139914 -27.999998 4.348068 1.880790849211783e-38 1768976227
-23.139915 -27.999998 -0.211034 1.880790849211783e-38 1768976227
-23.139914 -27.999998 -0.418942 1.880790849211783e-38 1768976227
-23.139915 -28.000002 4.132736 1.880790849211783e-38 1768976227
-23.139921 -28.000004 3.880277 1.880790849211783e-38 1768976227
-23.139915 -27.999998 3.716922 1.880790849211783e-38 1768976227
-23.139914 -27.999998 3.479313 1.880790849211783e-38 1768976227
-23.139915 -27.999998 4.801008 1.880790849211783e-38 1768976227
-23.139912 -28.000000 1.934862 1.880790849211783e-38 1768976227
-23.139912 -27.999998 1.756656 1.880790849211783e-38 1768976227
-23.139915 -27.999998 3.212004 1.880790849211783e-38 1768976227
-23.139915 -28.000000 3.048649 1.880790849211783e-38 1768976227
-23.139915 -28.000000 1.511623 1.880790849211783e-38 1768976227
-23.139914 -27.999998 1.340842 1.880790849211783e-38 1768976227
-23.139915 -28.000002 2.818467 1.880790849211783e-38 1768976227
-23.139915 -28.000000 2.588284 1.880790849211783e-38 1768976227
-23.139914 -28.000000 1.095809 1.880790849211783e-38 1768976227
-23.139915 -27.999998 0.917603 1.880790849211783e-38 1768976227
-23.139915 -28.000000 2.402653 1.880790849211783e-38 1768976227
-23.139917 -28.000000 2.172470 1.880790849211783e-38 1768976227
-23.139915 -28.000000 -0.649124 1.880790849211783e-38 1768976227
-23.139919 -28.000002 -0.849606 1.880790849211783e-38 1768976227
-23.139915 -27.999998 0.628019 1.880790849211783e-38 1768976227
-23.139917 -28.000000 0.442388 1.880790849211783e-38 1768976227
-23.139919 -28.000000 -1.072363 1.880790849211783e-38 1768976227
-23.139915 -28.000000 -1.250569 1.880790849211783e-38 1768976227
-23.139917 -28.000000 0.219630 1.880790849211783e-38 1768976227
-23.139914 -28.000000 0.026573 1.880790849211783e-38 1768976227
-23.282398 -28.000002 4.545048 1.880790849211783e-38 1768976227
-23.282394 -28.000000 4.358953 1.880790849211783e-38 1768976227
-23.282394 -27.999998 -0.211563 1.880790849211783e-38 1768976227
-23.282394 -27.999998 -0.419990 1.880790849211783e-38 1768976227
-23.282393 -27.999996 4.143081 1.880790849211783e-38 1768976227
-23.282396 -28.000000 3.889990 1.880790849211783e-38 1768976227
-23.282393 -27.999998 3.726226 1.880790849211783e-38 1768976227
-23.282394 -27.999998 3.488023 1.880790849211783e-38 1768976227
-23.282393 -27.999998 4.813026 1.880790849211783e-38 1768976227
-23.282394 -27.999998 1.939705 1.880790849211783e-38 1768976227
-23.282394 -27.999998 1.761053 1.880790849211783e-38 1768976227
-23.282394 -27.999998 3.220045 1.880790849211783e-38 1768976227
-23.282396 -28.000000 3.056281 1.880790849211783e-38 1768976227
-23.282396 -28.000000 1.515407 1.880790849211783e-38 1768976227
-23.282394 -28.000000 1.344199 1.880790849211783e-38 1768976227
-23.282393 -27.999996 2.825522 1.880790849211783e-38 1768976227
-23.282394 -27.999998 2.594763 1.880790849211783e-38 1768976227
-23.282394 -28.000000 1.098552 1.880790849211783e-38 1768976227
-23.282396 -28.000000 0.919900 1.880790849211783e-38 1768976227
-23.282394 -28.000000 2.408667 1.880790849211783e-38 1768976227
-23.282393 -27.999996 2.177908 1.880790849211783e-38 1768976227
-23.282394 -27.999998 -0.650749 1.880790849211783e-38 1768976227
-23.282393 -27.999996 -0.851733 1.880790849211783e-38 1768976227
-23.282393 -27.999996 0.629591 1.880790849211783e-38 1768976227
-23.282398 -28.000002 0.443495 1.880790849211783e-38 1768976227
-23.282393 -28.000000 -1.075048 1.880790849211783e-38 1768976227
-23.282394 -28.000000 -1.253700 1.880790849211783e-38 1768976227
-23.282393 -27.999996 0.220180 1.880790849211783e-38 1768976227
-23.282394 -28.000000 0.026640 1.880790849211783e-38 1768976227
-23.425592 -27.999998 4.556496 1.880790849211783e-38 1768976227
-23.425592 -28.000002 4.369932 1.880790849211783e-38 1768976227
-23.425592 -28.000000 -0.212095 1.880790849211783e-38 1768976227
-23.425589 -27.999998 -0.421048 1.880790849211783e-38 1768976227
-23.425589 -27.999996 4.153516 1.880790849211783e-38 1768976227
-23.425591 -27.999998 3.899788 1.880790849211783e-38 1768976227
-23.425594 -28.000002 3.735612 1.880790849211783e-38 1768976227
-23.425591 -27.999998 3.496809 1.880790849211783e-38 1768976227
-23.425587 -27.999996 4.825149 1.880790849211783e-38 1768976227
-23.425592 -27.999998 1.944591 1.880790849211783e-38 1768976227
-23.425592 -28.000002 1.765489 1.880790849211783e-38 1768976227
-23.425592 -27.999998 3.228155 1.880790849211783e-38 1768976227
-23.425592 -28.000000 3.063979 1.880790849211783e-38 1768976227
-23.425591 -28.000000 1.519224 1.880790849211783e-38 1768976227
-23.425591 -28.000000 1.347584 1.880790849211783e-38 1768976227
-23.425592 -27.999998 2.832639 1.880790849211783e-38 1768976227
-23.425591 -27.999998 2.601298 1.880790849211783e-38 1768976227
-23.425589 -27.999998 1.101319 1.880790849211783e-38 1768976227
-23.425591 -28.000000 0.922217 1.880790849211783e-38 1768976227
-23.425591 -28.000000 2.414734 1.880790849211783e-38 1768976227
-23.425594 -28.000004 2.183394 1.880790849211783e-38 1768976227
-23.425594 -28.000002 -0.652388 1.880790849211783e-38 1768976227
-23.425587 -27.999996 -0.853878 1.880790849211783e-38 1768976227
-23.425592 -28.000002 0.631177 1.880790849211783e-38 1768976227
-23.425589 -27.999998 0.444612 1.880790849211783e-38 1768976227
-23.425591 -28.000002 -1.077756 1.880790849211783e-38 1768976227
-23.425592 -28.000002 -1.256858 1.880790849211783e-38 1768976227
-23.425592 -27.999998 0.220734 1.880790849211783e-38 1768976227
-23.425592 -28.000000 0.026707 1.880790849211783e-38 1768976227
-23.569500 -28.000000 4.568042 1.880790849211783e-38 1768976227
-23.569502 -28.000002 4.381005 1.880790849211783e-38 1768976227
-23.569500 -28.000002 -0.212633 1.880790849211783e-38 1768976227
-23.569500 -28.000000 -0.422115 1.880790849211783e-38 1768976227
-23.569500 -27.999998 4.164041 1.880790849211783e-38 1768976227
-23.569502 -28.000000 3.909670 1.880790849211783e-38 1768976227
-23.569502 -28.000002 3.745078 1.880790849211783e-38 1768976227
-23.569500 -28.000000 3.505670 1.880790849211783e-38 1768976227
-23.569496 -27.999998 4.837375 1.880790849211783e-38 1768976227
-23.569502 -28.000002 1.949519 1.880790849211783e-38 1768976227
-23.569498 -27.999998 1.769962 1.880790849211783e-38 1768976227
-23.569506 -28.000004 3.236336 1.880790849211783e-38 1768976227
-23.569498 -27.999998 3.071743 1.880790849211783e-38 1768976227
-23.569502 -28.000000 1.523074 1.880790849211783e-38 1768976227
-23.569500 -27.999998 1.350999 1.880790849211783e-38 1768976227
-23.569502 -28.000000 2.839817 1.880790849211783e-38 1768976227
-23.569502 -28.000002 2.607890 1.880790849211783e-38 1768976227
-23.569500 -27.999998 1.104110 1.880790849211783e-38 1768976227
-23.569498 -27.999998 0.924554 1.880790849211783e-38 1768976227
-23.569498 -27.999996 2.420853 1.880790849211783e-38 1768976227
-23.569500 -28.000000 2.188926 1.880790849211783e-38 1768976227
-23.569498 -27.999998 -0.654041 1.880790849211783e-38 1768976227
-23.569506 -28.000002 -0.856042 1.880790849211783e-38 1768976227
-23.569498 -27.999998 0.632776 1.880790849211783e-38 1768976227
-23.569498 -28.000000 0.445739 1.880790849211783e-38 1768976227
-23.569502 -27.999998 -1.080487 1.880790849211783e-38 1768976227
-23.569500 -28.000000 -1.260043 1.880790849211783e-38 1768976227
-23.569498 -28.000000 0.221294 1.880790849211783e-38 1768976227
-23.569502 -28.000000 0.026774 1.880790849211783e-38 1768976227
-23.714153 -28.000002 4.579690 1.880790849211783e-38 1768976227
-23.714151 -28.000000 4.392176 1.880790849211783e-38 1768976227
-23.714153 -28.000002 -0.213175 1.880790849211783e-38 1768976227
-23.714155 -28.000002 -0.423192 1.880790849211783e-38 1768976227
-23.714155 -28.000000 4.174659 1.880790849211783e-38 1768976227
-23.714151 -27.999998 3.919639 1.880790849211783e-38 1768976227
-23.714153 -28.000000 3.754627 1.880790849211783e-38 1768976227
-23.714155 -28.000002 3.514609 1.880790849211783e-38 1768976227
-23.714155 -28.000000 4.849710 1.880790849211783e-38 1768976227
-23.714153 -27.999998 1.954489 1.880790849211783e-38 1768976227
-23.714155 -28.000000 1.774476 1.880790849211783e-38 1768976227
-23.714153 -27.999998 3.244587 1.880790849211783e-38 1768976227
-23.714151 -27.999998 3.079575 1.880790849211783e-38 1768976227
-23.714151 -27.999998 1.526957 1.880790849211783e-38 1768976227
-23.714151 -27.999994 1.354444 1.880790849211783e-38 1768976227
-23.714155 -28.000000 2.847058 1.880790849211783e-38 1768976227
-23.714155 -27.999998 2.614540 1.880790849211783e-38 1768976227
-23.714153 -27.999998 1.106925 1.880790849211783e-38 1768976227
-23.714149 -27.999998 0.926911 1.880790849211783e-38 1768976227
-23.714153 -28.000000 2.427026 1.880790849211783e-38 1768976227
-23.714153 -28.000000 2.194508 1.880790849211783e-38 1768976227
-23.714153 -28.000000 -0.655709 1.880790849211783e-38 1768976227
-23.714153 -27.999998 -0.858225 1.880790849211783e-38 1768976227
-23.714153 -28.000000 0.634389 1.880790849211783e-38 1768976227
-23.714153 -28.000000 0.446875 1.880790849211783e-38 1768976227
-23.714155 -28.000002 -1.083242 1.880790849211783e-38 1768976227
-23.714155 -28.000002 -1.263256 1.880790849211783e-38 1768976227
-23.714151 -28.000000 0.221858 1.880790849211783e-38 1768976227
-23.714155 -28.000002 0.026843 1.880790849211783e-38 1768976227
-23.859543 -27.999996 4.591438 1.880790849211783e-38 1768976227
-23.859543 -27.999998 4.403443 1.880790849211783e-38 1768976227
-23.859545 -27.999996 -0.213722 1.880790849211783e-38 1768976227
-23.859547 -27.999998 -0.424277 1.880790849211783e-38 1768976227
-23.859545 -27.999998 4.185369 1.880790849211783e-38 1768976227
-23.859549 -28.000000 3.929695 1.880790849211783e-38 1768976227
-23.859547 -28.000000 3.764259 1.880790849211783e-38 1768976227
-23.859547 -28.000000 3.523625 1.880790849211783e-38 1768976227
-23.859547 -27.999998 4.862152 1.880790849211783e-38 1768976227
-23.859547 -28.000000 1.959504 1.880790849211783e-38 1768976227
-23.859545 -28.000000 1.779028 1.880790849211783e-38 1768976227
-23.859550 -28.000000 3.252912 1.880790849211783e-38 1768976227
-23.859545 -27.999998 3.087476 1.880790849211783e-38 1768976227
-23.859549 -28.000000 1.530874 1.880790849211783e-38 1768976227
-23.859545 -27.999996 1.357919 1.880790849211783e-38 1768976227
-23.859547 -27.999998 2.854362 1.880790849211783e-38 1768976227
-23.859545 -28.000000 2.621247 1.880790849211783e-38 1768976227
-23.859547 -28.000000 1.109765 1.880790849211783e-38 1768976227
-23.859545 -27.999998 0.929289 1.880790849211783e-38 1768976227
-23.859549 -28.000000 2.433252 1.880790849211783e-38 1768976227
-23.859550 -28.000002 2.200138 1.880790849211783e-38 1768976227
-23.859547 -28.000000 -0.657391 1.880790849211783e-38 1768976227
-23.859545 -27.999998 -0.860426 1.880790849211783e-38 1768976227
-23.859547 -27.999998 0.636017 1.880790849211783e-38 1768976227
-23.859552 -28.000004 0.448022 1.880790849211783e-38 1768976227
-23.859552 -28.000002 -1.086021 1.880790849211783e-38 1768976227
-23.859545 -28.000000 -1.266496 1.880790849211783e-38 1768976227
-23.859547 -27.999998 0.222427 1.880790849211783e-38 1768976227
-23.859547 -27.999996 0.026912 1.880790849211783e-38 1768976227
-24.005688 -27.999998 4.603290 1.880790849211783e-38 1768976227
-24.005690 -27.999998 4.414810 1.880790849211783e-38 1768976227
-24.005692 -28.000004 -0.214274 1.880790849211783e-38 1768976227
-24.005690 -28.000002 -0.425372 1.880790849211783e-38 1768976227
-24.005692 -28.000000 4.196172 1.880790849211783e-38 1768976227
-24.005692 -27.999998 3.939838 1.880790849211783e-38 1768976227
-24.005695 -28.000006 3.773976 1.880790849211783e-38 1768976227
-24.005690 -28.000000 3.532720 1.880790849211783e-38 1768976227
-24.005692 -27.999998 4.874702 1.880790849211783e-38 1768976227
-24.005690 -28.000000 1.964561 1.880790849211783e-38 1768976227
-24.005690 -28.000000 1.783620 1.880790849211783e-38 1768976227
-24.005693 -28.000006 3.261308 1.880790849211783e-38 1768976227
-24.005692 -27.999998 3.095445 1.880790849211783e-38 1768976227
-24.005693 -28.000002 1.534826 1.880790849211783e-38 1768976227
-24.005690 -27.999998 1.361424 1.880790849211783e-38 1768976227
-24.005692 -27.999998 2.861729 1.880790849211783e-38 1768976227
-24.005693 -28.000002 2.628013 1.880790849211783e-38 1768976227
-24.005692 -28.000002 1.112629 1.880790849211783e-38 1768976227
-24.005690 -28.000000 0.931688 1.880790849211783e-38 1768976227
-24.005693 -28.000000 2.439533 1.880790849211783e-38 1768976227
-24.005690 -28.000000 2.205817 1.880790849211783e-38 1768976227
-24.005692 -28.000002 -0.659088 1.880790849211783e-38 1768976227
-24.005692 -27.999998 -0.862647 1.880790849211783e-38 1768976227
-24.005688 -27.999998 0.637658 1.880790849211783e-38 1768976227
-24.005692 -28.000000 0.449178 1.880790849211783e-38 1768976227
-24.005692 -27.999998 -1.088824 1.880790849211783e-38 1768976227
-24.005692 -27.999998 -1.269765 1.880790849211783e-38 1768976227
-24.005692 -28.000000 0.223001 1.880790849211783e-38 1768976227
-24.005693 -28.000000 0.026981 1.880790849211783e-38 1768976227
-24.152578 -28.000000 4.615243 1.880790849211783e-38 1768976227
-24.152580 -28.000000 4.426274 1.880790849211783e-38 1768976227
-24.152575 -27.999998 -0.214830 1.880790849211783e-38 1768976227
-24.152578 -27.999998 -0.426477 1.880790849211783e-38 1768976227
-24.152578 -28.000000 4.207069 1.880790849211783e-38 1768976227
-24.152582 -27.999998 3.950069 1.880790849211783e-38 1768976227
-24.152578 -27.999996 3.783775 1.880790849211783e-38 1768976227
-24.152580 -28.000002 3.541894 1.880790849211783e-38 1768976227
-24.152580 -27.999998 4.887361 1.880790849211783e-38 1768976227
-24.152575 -27.999996 1.969663 1.880790849211783e-38 1768976227
-24.152578 -27.999998 1.788252 1.880790849211783e-38 1768976227
-24.152578 -28.000000 3.269777 1.880790849211783e-38 1768976227
-24.152578 -28.000000 3.103483 1.880790849211783e-38 1768976227
-24.152582 -28.000004 1.538812 1.880790849211783e-38 1768976227
-24.152575 -27.999996 1.364959 1.880790849211783e-38 1768976227
-24.152582 -28.000004 2.869161 1.880790849211783e-38 1768976227
-24.152576 -27.999998 2.634837 1.880790849211783e-38 1768976227
-24.152580 -28.000002 1.115519 1.880790849211783e-38 1768976227
-24.152580 -28.000002 0.934107 1.880790849211783e-38 1768976227
-24.152584 -28.000004 2.445868 1.880790849211783e-38 1768976227
-24.152578 -27.999996 2.211545 1.880790849211783e-38 1768976227
-24.152578 -27.999998 -0.660799 1.880790849211783e-38 1768976227
-24.152582 -28.000004 -0.864888 1.880790849211783e-38 1768976227
-24.152580 -28.000002 0.639314 1.880790849211783e-38 1768976227
-24.152584 -28.000002 0.450345 1.880790849211783e-38 1768976227
-24.152578 -28.000000 -1.091651 1.880790849211783e-38 1768976227
-24.152582 -28.000004 -1.273063 1.880790849211783e-38 1768976227
-24.152582 -28.000004 0.223580 1.880790849211783e-38 1768976227
-24.152576 -28.000000 0.027051 1.880790849211783e-38 1768976227
-24.300243 -27.999998 4.627303 1.880790849211783e-38 1768976227
-24.300249 -28.000004 4.437840 1.880790849211783e-38 1768976227
-24.300249 -28.000002 -0.215391 1.880790849211783e-38 1768976227
-24.300245 -27.999998 -0.427591 1.880790849211783e-38 1768976227
-24.300247 -28.000000 4.218061 1.880790849211783e-38 1768976227
-24.300249 -28.000002 3.960391 1.880790849211783e-38 1768976227
-24.300249 -28.000000 3.793663 1.880790849211783e-38 1768976227
-24.300247 -28.000000 3.551149 1.880790849211783e-38 1768976227
-24.300253 -28.000006 4.900132 1.880790849211783e-38 1768976227
-24.300249 -28.000004 1.974810 1.880790849211783e-38 1768976227
-24.300247 -27.999998 1.792924 1.880790849211783e-38 1768976227
-24.300249 -28.000002 3.278321 1.880790849211783e-38 1768976227
-24.300247 -28.000000 3.111593 1.880790849211783e-38 1768976227
-24.300243 -27.999998 1.542832 1.880790849211783e-38 1768976227
-24.300245 -28.000000 1.368526 1.880790849211783e-38 1768976227
-24.300247 -27.999998 2.876658 1.880790849211783e-38 1768976227
-24.300245 -28.000000 2.641722 1.880790849211783e-38 1768976227
-24.300245 -27.999998 1.118433 1.880790849211783e-38 1768976227
-24.300249 -28.000000 0.936548 1.880790849211783e-38 1768976227
-24.300249 -28.000002 2.452259 1.880790849211783e-38 1768976227
-24.300249 -28.000002 2.217324 1.880790849211783e-38 1768976227
-24.300247 -28.000000 -0.662526 1.880790849211783e-38 1768976227
-24.300245 -28.000000 -0.867147 1.880790849211783e-38 1768976227
-24.300247 -28.000002 0.640985 1.880790849211783e-38 1768976227
-24.300247 -28.000000 0.451521 1.880790849211783e-38 1768976227
-24.300247 -27.999998 -1.094504 1.880790849211783e-38 1768976227
-24.300245 -28.000000 -1.276389 1.880790849211783e-38 1768976227
-24.300251 -28.000002 0.224165 1.880790849211783e-38 1768976227
-24.300249 -28.000000 0.027122 1.880790849211783e-38 1768976227
-24.448692 -28.000000 4.639468 1.880790849211783e-38 1768976227
-24.448689 -28.000000 4.449506 1.880790849211783e-38 1768976227
-24.448689 -28.000002 -0.215958 1.880790849211783e-38 1768976227
-24.448692 -28.000002 -0.428715 1.880790849211783e-38 1768976227
-24.448687 -27.999996 4.229150 1.880790849211783e-38 1768976227
-24.448690 -28.000000 3.970802 1.880790849211783e-38 1768976227
-24.448690 -28.000000 3.803636 1.880790849211783e-38 1768976227
-24.448689 -28.000002 3.560484 1.880790849211783e-38 1768976227
-24.448689 -28.000000 4.913013 1.880790849211783e-38 1768976227
-24.448685 -27.999998 1.980001 1.880790849211783e-38 1768976227
-24.448689 -28.000000 1.797638 1.880790849211783e-38 1768976227
-24.448690 -27.999998 3.286939 1.880790849211783e-38 1768976227
-24.448689 -27.999998 3.119773 1.880790849211783e-38 1768976227
-24.448689 -28.000000 1.546888 1.880790849211783e-38 1768976227
-24.448687 -28.000000 1.372123 1.880790849211783e-38 1768976227
-24.448692 -28.000002 2.884221 1.880790849211783e-38 1768976227
-24.448689 -28.000000 2.648667 1.880790849211783e-38 1768976227
-24.448692 -28.000002 1.121374 1.880790849211783e-38 1768976227
-24.448689 -27.999998 0.939010 1.880790849211783e-38 1768976227
-24.448689 -27.999996 2.458705 1.880790849211783e-38 1768976227
-24.448692 -28.000002 2.223153 1.880790849211783e-38 1768976227
-24.448689 -27.999996 -0.664268 1.880790849211783e-38 1768976227
-24.448690 -27.999998 -0.869427 1.880790849211783e-38 1768976227
-24.448692 -28.000000 0.642670 1.880790849211783e-38 1768976227
-24.448689 -28.000002 0.452708 1.880790849211783e-38 1768976227
-24.448689 -27.999998 -1.097381 1.880790849211783e-38 1768976227
-24.448689 -28.000000 -1.279745 1.880790849211783e-38 1768976227
-24.448689 -28.000000 0.224754 1.880790849211783e-38 1768976227
-24.448690 -28.000000 0.027193 1.880790849211783e-38 1768976227
-24.597906 -28.000004 4.651739 1.880790849211783e-38 1768976227
-24.597900 -27.999998 4.461274 1.880790849211783e-38 1768976227
-24.597904 -28.000000 -0.216529 1.880790849211783e-38 1768976227
-24.597902 -27.999998 -0.429849 1.880790849211783e-38 1768976227
-24.597906 -28.000002 4.240336 1.880790849211783e-38 1768976227
-24.597906 -28.000002 3.981304 1.880790849211783e-38 1768976227
-24.597900 -27.999998 3.813695 1.880790849211783e-38 1768976227
-24.597902 -28.000000 3.569901 1.880790849211783e-38 1768976227
-24.597900 -27.999998 4.926006 1.880790849211783e-38 1768976227
-24.597908 -28.000004 1.985238 1.880790849211783e-38 1768976227
-24.597906 -28.000002 1.802392 1.880790849211783e-38 1768976227
-24.597906 -28.000002 3.295632 1.880790849211783e-38 1768976227
-24.597904 -28.000000 3.128024 1.880790849211783e-38 1768976227
-24.597904 -28.000000 1.550979 1.880790849211783e-38 1768976227
-24.597904 -28.000002 1.375752 1.880790849211783e-38 1768976227
-24.597900 -27.999996 2.891848 1.880790849211783e-38 1768976227
-24.597900 -27.999998 2.655672 1.880790849211783e-38 1768976227
-24.597904 -28.000002 1.124339 1.880790849211783e-38 1768976227
-24.597902 -27.999998 0.941494 1.880790849211783e-38 1768976227
-24.597900 -27.999996 2.465208 1.880790849211783e-38 1768976227
-24.597908 -28.000002 2.229032 1.880790849211783e-38 1768976227
-24.597904 -27.999996 -0.666025 1.880790849211783e-38 1768976227
-24.597904 -28.000000 -0.871726 1.880790849211783e-38 1768976227
-24.597904 -28.000000 0.644370 1.880790849211783e-38 1768976227
-24.597902 -28.000000 0.453905 1.880790849211783e-38 1768976227
-24.597902 -27.999998 -1.100283 1.880790849211783e-38 1768976227
-24.597906 -28.000002 -1.283130 1.880790849211783e-38 1768976227
-24.597902 -27.999998 0.225348 1.880790849211783e-38 1768976227
-24.597902 -28.000000 0.027265 1.880790849211783e-38 1768976227
-24.747921 -28.000000 4.664117 1.880790849211783e-38 1768976227
-24.747925 -28.000000 4.473147 1.880790849211783e-38 1768976227
-24.747925 -28.000004 -0.217105 1.880790849211783e-38 1768976227
-24.747923 -28.000000 -0.430993 1.880790849211783e-38 1768976227
-24.747923 -28.000000 4.251620 1.880790849211783e-38 1768976227
-24.747917 -27.999996 3.991898 1.880790849211783e-38 1768976227
-24.747923 -28.000002 3.823844 1.880790849211783e-38 1768976227
-24.747921 -28.000000 3.579401 1.880790849211783e-38 1768976227
-24.747923 -27.999998 4.939116 1.880790849211783e-38 1768976227
-24.747919 -27.999998 1.990521 1.880790849211783e-38 1768976227
-24.747925 -28.000002 1.807189 1.880790849211783e-38 1768976227
-24.747923 -27.999998 3.304402 1.880790849211783e-38 1768976227
-24.747919 -27.999998 3.136348 1.880790849211783e-38 1768976227
-24.747921 -28.000000 1.555107 1.880790849211783e-38 1768976227
-24.747921 -28.000000 1.379413 1.880790849211783e-38 1768976227
-24.747923 -28.000000 2.899544 1.880790849211783e-38 1768976227
-24.747927 -28.000004 2.662740 1.880790849211783e-38 1768976227
-24.747923 -28.000000 1.127331 1.880790849211783e-38 1768976227
-24.747921 -27.999998 0.943999 1.880790849211783e-38 1768976227
-24.747923 -28.000002 2.471768 1.880790849211783e-38 1768976227
-24.747917 -27.999994 2.234963 1.880790849211783e-38 1768976227
-24.747921 -27.999998 -0.667797 1.880790849211783e-38 1768976227
-24.747923 -28.000000 -0.874046 1.880790849211783e-38 1768976227
-24.747923 -28.000002 0.646084 1.880790849211783e-38 1768976227
-24.747923 -28.000000 0.455113 1.880790849211783e-38 1768976227
-24.747921 -27.999998 -1.103211 1.880790849211783e-38 1768976227
-24.747925 -28.000000 -1.286544 1.880790849211783e-38 1768976227
-24.747919 -28.000000 0.225948 1.880790849211783e-38 1768976227
-24.747923 -28.000000 0.027338 1.880790849211783e-38 1768976227
-24.898745 -28.000000 4.676605 1.880790849211783e-38 1768976227
-24.898741 -28.000000 4.485123 1.880790849211783e-38 1768976227
-24.898743 -28.000000 -0.217686 1.880790849211783e-38 1768976227
-24.898741 -27.999998 -0.432147 1.880790849211783e-38 1768976227
-24.898743 -28.000000 4.263003 1.880790849211783e-38 1768976227
-24.898745 -28.000000 4.002587 1.880790849211783e-38 1768976227
-24.898743 -27.999998 3.834082 1.880790849211783e-38 1768976227
-24.898743 -27.999998 3.588984 1.880790849211783e-38 1768976227
-24.898748 -28.000002 4.952341 1.880790849211783e-38 1768976227
-24.898743 -28.000000 1.995850 1.880790849211783e-38 1768976227
-24.898741 -27.999998 1.812027 1.880790849211783e-38 1768976227
-24.898743 -28.000000 3.313250 1.880790849211783e-38 1768976227
-24.898743 -28.000000 3.144745 1.880790849211783e-38 1768976227
-24.898743 -28.000000 1.559271 1.880790849211783e-38 1768976227
-24.898745 -28.000002 1.383107 1.880790849211783e-38 1768976227
-24.898743 -28.000002 2.907307 1.880790849211783e-38 1768976227
-24.898741 -28.000000 2.669868 1.880790849211783e-38 1768976227
-24.898745 -28.000000 1.130350 1.880790849211783e-38 1768976227
-24.898741 -27.999996 0.946527 1.880790849211783e-38 1768976227
-24.898746 -28.000004 2.478387 1.880790849211783e-38 1768976227
-24.898745 -28.000000 2.240948 1.880790849211783e-38 1768976227
-24.898741 -27.999998 -0.669585 1.880790849211783e-38 1768976227
-24.898743 -28.000000 -0.876386 1.880790849211783e-38 1768976227
-24.898741 -28.000000 0.647814 1.880790849211783e-38 1768976227
-24.898741 -27.999996 0.456332 1.880790849211783e-38 1768976227
-24.898743 -28.000000 -1.106165 1.880790849211783e-38 1768976227
-24.898741 -27.999996 -1.289989 1.880790849211783e-38 1768976227
-24.898746 -28.000002 0.226553 1.880790849211783e-38 1768976227
-24.898743 -28.000000 0.027411 1.880790849211783e-38 1768976227
-59.539524 -45.350399 0.054752 1.880790849211783e-38 1768976227
-59.199425 -44.809864 -0.431350 1.880790849211783e-38 1768976227
-59.218155 -44.824043 0.449061 1.880790849211783e-38 1768976227
-58.922058 -44.599915 0.054060 1.880790849211783e-38 1768976227
-58.788757 -44.220757 -0.427385 1.880790849211783e-38 1768976227
-59.596542 -44.828373 -0.860094 1.880790849211783e-38 1768976227
-59.796089 -44.978466 0.911268 1.880790849211783e-38 1768976227
-58.800076 -44.229271 0.444877 1.880790849211783e-38 1768976227
-58.569050 -44.055496 0.053614 1.880790849211783e-38 1768976227
-58.528648 -43.749329 -0.424532 1.880790849211783e-38 1768976227
-59.087391 -44.166977 -0.850819 1.880790849211783e-38 1768976227
-59.205853 -44.255527 0.900235 1.880790849211783e-38 1768976227
-58.536835 -43.755451 0.441885 1.880790849211783e-38 1768976227
-58.353352 -43.618298 0.053296 1.880790849211783e-38 1768976227
-58.320675 -43.320316 -0.422074 1.880790849211783e-38 1768976227
-58.795063 -43.672684 -0.844710 1.880790849211783e-38 1768976227
-58.880325 -43.736019 0.893276 1.880790849211783e-38 1768976227
-58.327187 -43.325157 0.439314 1.880790849211783e-38 1768976227
-58.181328 -43.216812 0.053019 1.880790849211783e-38 1768976227
-58.196655 -42.956474 -0.420237 1.880790849211783e-38 1768976227
-58.575653 -43.236229 -0.839680 1.880790849211783e-38 1768976227
-58.657784 -43.296852 0.887915 1.880790849211783e-38 1768976227
-58.203121 -42.961250 0.437402 1.880790849211783e-38 1768976227
-58.058205 -42.854286 0.052789 1.880790849211783e-38 1768976227
-58.073685 -42.595741 -0.418420 1.880790849211783e-38 1768976227
-58.447388 -42.869843 -0.835984 1.880790849211783e-38 1768976227
-58.514454 -42.919033 0.883782 1.880790849211783e-38 1768976227
-58.080105 -42.600441 0.435510 1.880790849211783e-38 1768976227
-57.955734 -42.509220 0.052579 1.880790849211783e-38 1768976227
-58.009533 -42.280190 -0.417037 1.880790849211783e-38 1768976227
-58.322582 -42.508358 -0.832362 1.880790849211783e-38 1768976227
-58.386875 -42.555222 0.879912 1.880790849211783e-38 1768976227
-58.014969 -42.284153 0.434063 1.880790849211783e-38 1768976227
-57.893276 -42.195457 0.052407 1.880790849211783e-38 1768976227
-57.946983 -41.967583 -0.415675 1.880790849211783e-38 1768976227
-58.256855 -42.192001 -0.829604 1.880790849211783e-38 1768976227
-58.313034 -42.232689 0.876876 1.880790849211783e-38 1768976227
-57.952389 -41.971500 0.432646 1.880790849211783e-38 1768976227
-57.831223 -41.883743 0.052236 1.880790849211783e-38 1768976227
-57.905067 -41.671562 -0.414471 1.880790849211783e-38 1768976227
-58.191555 -41.877731 -0.826872 1.880790849211783e-38 1768976227
-58.247509 -41.917995 0.873985 1.880790849211783e-38 1768976227
-57.909832 -41.674988 0.431388 1.880790849211783e-38 1768976227
-57.803173 -41.598232 0.052097 1.880790849211783e-38 1768976227
-57.886593 -41.393833 -0.413444 1.880790849211783e-38 1768976227
-58.155453 -41.586090 -0.824573 1.880790849211783e-38 1768976227
-58.204647 -41.621269 0.871455 1.880790849211783e-38 1768976227
-57.891342 -41.397228 0.430318 1.880790849211783e-38 1768976227
-57.784973 -41.321171 0.051968 1.880790849211783e-38 1768976227
-57.868217 -41.117489 -0.412425 1.880790849211783e-38 1768976227
-58.135117 -41.307125 -0.822514 1.880790849211783e-38 1768976227
-58.184162 -41.341972 0.869277 1.880790849211783e-38 1768976227
-57.872944 -41.120846 0.429257 1.880790849211783e-38 1768976227
-57.766872 -41.045475 0.051840 1.880790849211783e-38 1768976227
-57.869678 -40.856480 -0.411555 1.880790849211783e-38 1768976227
-58.114887 -41.029598 -0.820474 1.880790849211783e-38 1768976227
-59.048889 -41.689007 1.249705 1.880790849211783e-38 1768976227
-58.163792 -41.064121 0.867119 1.880790849211783e-38 1768976227
-57.873978 -40.859509 0.428349 1.880790849211783e-38 1768976227
-57.777527 -40.791416 0.051739 1.880790849211783e-38 1768976227
-57.885841 -40.606834 -0.410797 1.880790849211783e-38 1768976227
-58.126083 -40.775364 -0.818892 1.880790849211783e-38 1768976227
-59.012119 -41.396919 1.246278 1.880790849211783e-38 1768976227
-58.170532 -40.806545 0.865381 1.880790849211783e-38 1768976227
-57.890144 -40.609856 0.427560 1.880790849211783e-38 1768976227
-57.793846 -40.542301 0.051644 1.880790849211783e-38 1768976227
-57.901943 -40.358116 -0.410046 1.880790849211783e-38 1768976227
-58.140999 -40.524738 -0.817376 1.880790849211783e-38 1768976227
-58.981102 -41.110294 1.242999 1.880790849211783e-38 1768976227
-58.185364 -40.555660 0.863778 1.880790849211783e-38 1768976227
-57.906231 -40.361103 0.426778 1.880790849211783e-38 1768976227
-57.810078 -40.294083 0.051550 1.880790849211783e-38 1768976227
-57.928349 -40.117470 -0.409374 1.880790849211783e-38 1768976227
-58.155865 -40.275040 -0.815874 1.880790849211783e-38 1768976227
-58.973984 -40.841610 1.240248 1.880790849211783e-38 1768976227
-58.200165 -40.305714 0.862189 1.880790849211783e-38 1768976227
-57.932350 -40.120247 0.426077 1.880790849211783e-38 1768976227
-57.842590 -40.058083 0.051471 1.880790849211783e-38 1768976227
-57.973354 -39.890476 -0.408840 1.880790849211783e-38 1768976227
-58.194973 -40.042965 -0.814725 1.880790849211783e-38 1768976227
-58.981831 -40.584385 1.237833 1.880790849211783e-38 1768976227
-58.236328 -40.071423 0.860930 1.880790849211783e-38 1768976227
-57.977348 -39.893219 0.425521 1.880790849211783e-38 1768976227
-57.887646 -39.831501 0.051404 1.880790849211783e-38 1768976227
-58.018246 -39.664066 -0.408311 1.880790849211783e-38 1768976227
-58.239208 -39.815128 -0.813659 1.880790849211783e-38 1768976227
-58.991215 -40.329235 1.235471 1.880790849211783e-38 1768976227
-58.280540 -39.843388 0.859804 1.880790849211783e-38 1768976227
-58.022247 -39.666798 0.424970 1.880790849211783e-38 1768976227
-57.932575 -39.605503 0.051337 1.880790849211783e-38 1768976227
-58.063026 -39.438240 -0.407788 1.880790849211783e-38 1768976227
-58.283337 -39.587887 -0.812604 1.880790849211783e-38 1768976227
-59.031189 -40.095852 1.233770 1.880790849211783e-38 1768976227
-58.324638 -39.615944 0.858688 1.880790849211783e-38 1768976227
-58.067020 -39.440956 0.424425 1.880790849211783e-38 1768976227
-57.978054 -39.380531 0.051272 1.880790849211783e-38 1768976227
-58.130302 -39.228298 -0.407427 1.880790849211783e-38 1768976227
-58.340401 -39.370079 -0.811741 1.880790849211783e-38 1768976227
-59.071072 -39.863163 1.232086 1.880790849211783e-38 1768976227
-58.379845 -39.396698 0.857747 1.880790849211783e-38 1768976227
-58.134125 -39.230877 0.424049 1.880790849211783e-38 1768976227
-58.048473 -39.173077 0.051230 1.880790849211783e-38 1768976227
-58.200653 -39.020821 -0.407094 1.880790849211783e-38 1768976227
-58.410488 -39.161507 -0.811069 1.880790849211783e-38 1768976227
-59.117748 -39.635693 1.230561 1.880790849211783e-38 1768976227
-58.449947 -39.187965 0.857037 1.880790849211783e-38 1768976227
-58.204464 -39.023376 0.423702 1.880790849211783e-38 1768976227
-58.118778 -38.965931 0.051188 1.880790849211783e-38 1768976227
-58.270878 -38.813675 -0.406764 1.880790849211783e-38 1768976227
-58.480465 -38.953281 -0.810405 1.880790849211783e-38 1768976227
-59.185745 -39.423061 1.229495 1.880790849211783e-38 1768976227
-58.519951 -38.979576 0.856336 1.880790849211783e-38 1768976227
-58.274696 -38.816219 0.423359 1.880790849211783e-38 1768976227
-58.188969 -38.759117 0.051147 1.880790849211783e-38 1768976227
-58.345978 -38.610157 -0.406474 1.880790849211783e-38 1768976227
-58.550350 -38.745403 -0.809751 1.880790849211783e-38 1768976227
-59.253658 -39.210812 1.228444 1.880790849211783e-38 1768976227
-58.589844 -38.771534 0.855643 1.880790849211783e-38 1768976227
-58.349709 -38.612625 0.423056 1.880790849211783e-38 1768976227
-58.266098 -38.557301 0.051112 1.880790849211783e-38 1768976227
-58.439991 -38.419441 -0.406320 1.880790849211783e-38 1768976227
-58.644180 -38.553677 -0.809437 1.880790849211783e-38 1768976227
-59.328358 -39.003471 1.227548 1.880790849211783e-38 1768976227
-58.682713 -38.579010 0.855297 1.880790849211783e-38 1768976227
-58.443722 -38.421894 0.422895 1.880790849211783e-38 1768976227
-58.360020 -38.366867 0.051093 1.880790849211783e-38 1768976227
-58.533936 -38.228859 -0.406169 1.880790849211783e-38 1768976227
-58.738228 -38.362286 -0.809134 1.880790849211783e-38 1768976227
-59.422241 -38.809017 1.227063 1.880790849211783e-38 1768976227
-58.776810 -38.387486 0.854977 1.880790849211783e-38 1768976227
-58.537659 -38.231293 0.422739 1.880790849211783e-38 1768976227
-58.453842 -38.176556 0.051074 1.880790849211783e-38 1768976227
-58.627789 -38.038406 -0.406023 1.880790849211783e-38 1768976227
-58.832207 -38.171040 -0.808839 1.880790849211783e-38 1768976227
-59.516075 -38.614742 1.226591 1.880790849211783e-38 1768976227
-58.870842 -38.196106 0.854665 1.880790849211783e-38 1768976227
-58.631538 -38.040844 0.422586 1.880790849211783e-38 1768976227
-58.547619 -37.986393 0.051055 1.880790849211783e-38 1768976227
-58.731541 -37.854557 -0.405949 1.880790849211783e-38 1768976227
-58.934853 -37.985600 -0.808672 1.880790849211783e-38 1768976227
-59.614426 -38.423603 1.226224 1.880790849211783e-38 1768976227
-58.973278 -38.010361 0.854484 1.880790849211783e-38 1768976227
-58.735264 -37.856956 0.422509 1.880790849211783e-38 1768976227
-58.651775 -37.803143 0.051046 1.880790849211783e-38 1768976227
-58.848644 -37.679298 -0.405971 1.880790849211783e-38 1768976227
-59.052395 -37.809757 -0.808716 1.880790849211783e-38 1768976227
-59.733521 -38.245865 1.226295 1.880790849211783e-38 1768976227
-59.090904 -37.834412 0.854531 1.880790849211783e-38 1768976227
-58.852383 -37.681694 0.422532 1.880790849211783e-38 1768976227
-58.768715 -37.628120 0.051049 1.880790849211783e-38 1768976227
-58.965771 -37.504028 -0.405997 1.880790849211783e-38 1768976227
-59.169968 -37.633900 -0.808768 1.880790849211783e-38 1768976227
-59.852657 -38.068115 1.226379 1.880790849211783e-38 1768976227
-59.208546 -37.658443 0.854586 1.880790849211783e-38 1768976227
-58.969513 -37.506405 0.422559 1.880790849211783e-38 1768976227
-58.885674 -37.453083 0.051052 1.880790849211783e-38 1768976227
-59.082901 -37.328728 -0.406026 1.880790849211783e-38 1768976227
-59.287552 -37.458027 -0.808828 1.880790849211783e-38 1768976227
-59.973621 -37.891487 1.226510 1.880790849211783e-38 1768976227
-59.326214 -37.482456 0.854649 1.880790849211783e-38 1768976227
-59.086651 -37.331097 0.422590 1.880790849211783e-38 1768976227
-59.002647 -37.278023 0.051056 1.880790849211783e-38 1768976227
-59.214649 -37.162560 -0.406160 1.880790849211783e-38 1768976227
-59.422474 -37.292988 -0.809130 1.880790849211783e-38 1768976227
-60.118523 -37.729820 1.227140 1.880790849211783e-38 1768976227
-59.461712 -37.317612 0.854975 1.880790849211783e-38 1768976227
-59.218449 -37.164944 0.422729 1.880790849211783e-38 1768976227
-59.133205 -37.111446 0.051072 1.880790849211783e-38 1768976227
-59.355576 -37.001949 -0.406359 1.880790849211783e-38 1768976227
-59.564186 -37.131996 -0.809531 1.880790849211783e-38 1768976227
-60.263611 -37.568016 1.227784 1.880790849211783e-38 1768976227
-59.603550 -37.156536 0.855400 1.880790849211783e-38 1768976227
-59.359383 -37.004322 0.422936 1.880790849211783e-38 1768976227
-59.273891 -36.951027 0.051097 1.880790849211783e-38 1768976227
-59.496632 -36.841171 -0.406562 1.880790849211783e-38 1768976227
-59.706051 -36.970852 -0.809940 1.880790849211783e-38 1768976227
-60.409142 -37.406212 1.228445 1.880790849211783e-38 1768976227
-59.745529 -36.995293 0.855832 1.880790849211783e-38 1768976227
-59.500450 -36.843540 0.423148 1.880790849211783e-38 1768976227
-59.414715 -36.790451 0.051122 1.880790849211783e-38 1768976227
-59.637833 -36.680237 -0.406769 1.880790849211783e-38 1768976227
-59.851284 -36.811516 -0.810401 1.880790849211783e-38 1768976227
-60.581810 -37.260834 1.229665 1.880790849211783e-38 1768976227
-59.892147 -36.836651 0.856337 1.880790849211783e-38 1768976227
-59.641674 -36.682598 0.423363 1.880790849211783e-38 1768976227
-59.555679 -36.629711 0.051148 1.880790849211783e-38 1768976227
-59.800705 -36.532322 -0.407127 1.880790849211783e-38 1768976227
-60.018848 -36.665588 -0.811169 1.880790849211783e-38 1768976227
-60.754833 -37.115204 1.230900 1.880790849211783e-38 1768976227
-60.059868 -36.690647 0.857149 1.880790849211783e-38 1768976227
-59.804676 -36.534752 0.423736 1.880790849211783e-38 1768976227
-59.715630 -36.480350 0.051191 1.880790849211783e-38 1768976227
-59.967419 -36.386269 -0.407513 1.880790849211783e-38 1768976227
-60.186764 -36.519356 -0.811946 1.880790849211783e-38 1768976227
-60.930508 -36.970638 1.232194 1.880790849211783e-38 1768976227
-60.227936 -36.544338 0.857971 1.880790849211783e-38 1768976227
-59.971397 -36.388683 0.424138 1.880790849211783e-38 1768976227
-59.882030 -36.334454 0.051240 1.880790849211783e-38 1768976227
-60.134441 -36.239925 -0.407903 1.880790849211783e-38 1768976227
-60.355015 -36.372852 -0.812732 1.880790849211783e-38 1768976227
-61.134605 -36.842674 1.234069 1.880790849211783e-38 1768976227
-60.396336 -36.397758 0.858802 1.880790849211783e-38 1768976227
-60.138435 -36.242329 0.424544 1.880790849211783e-38 1768976227
-60.048729 -36.188271 0.051289 1.880790849211783e-38 1768976227
-60.308372 -36.097248 -0.408343 1.880790849211783e-38 1768976227
-60.542236 -36.237225 -0.813778 1.880790849211783e-38 1768976227
-61.339355 -36.714329 1.235961 1.880790849211783e-38 1768976227
-60.585968 -36.263397 0.859939 1.880790849211783e-38 1768976227
-60.312618 -36.099781 0.425003 1.880790849211783e-38 1768976227
-60.217758 -36.043011 0.051340 1.880790849211783e-38 1768976227
-60.503849 -35.966839 -0.408930 1.880790849211783e-38 1768976227
-60.739422 -36.106876 -0.814961 1.880790849211783e-38 1768976227
-61.556526 -36.592609 1.238107 1.880790849211783e-38 1768976227
-60.783375 -36.132999 0.861191 1.880790849211783e-38 1768976227
-60.508106 -35.969364 0.425615 1.880790849211783e-38 1768976227
-60.412788 -35.912712 0.051414 1.880790849211783e-38 1768976227
-60.699875 -35.836044 -0.409522 1.880790849211783e-38 1768976227
-60.937199 -35.976158 -0.816155 1.880790849211783e-38 1768976227
-61.798126 -36.484432 1.240748 1.880790849211783e-38 1768976227
-60.981358 -36.002228 0.862453 1.880790849211783e-38 1768976227
-60.704144 -35.838566 0.426231 1.880790849211783e-38 1768976227
-60.608398 -35.782040 0.051488 1.880790849211783e-38 1768976227
-60.896469 -35.704872 -0.410120 1.880790849211783e-38 1768976227
-61.148838 -35.852840 -0.817537 1.880790849211783e-38 1768976227
-62.040806 -36.375816 1.243412 1.880790849211783e-38 1768976227
-61.196690 -35.880898 0.863964 1.880790849211783e-38 1768976227
-60.900772 -35.707394 0.426854 1.880790849211783e-38 1768976227
-60.804562 -35.650986 0.051563 1.880790849211783e-38 1768976227
-61.120281 -35.588863 -0.410903 1.880790849211783e-38 1768976227
-61.380547 -35.740410 -0.819191 1.880790849211783e-38 1768976227
-62.321636 -36.288383 1.246841 1.880790849211783e-38 1768976227
-61.428677 -35.768436 0.865713 1.880790849211783e-38 1768976227
-61.124943 -35.591576 0.427671 1.880790849211783e-38 1768976227
-61.020718 -35.530888 0.051655 1.880790849211783e-38 1768976227
-61.350513 -35.475586 -0.411730 1.880790849211783e-38 1768976227
-61.613251 -35.627514 -0.820858 1.880790849211783e-38 1768976227
-61.661655 -35.655506 0.867477 1.880790849211783e-38 1768976227
-61.355183 -35.478291 0.428531 1.880790849211783e-38 1768976227
-61.250347 -35.417671 0.051759 1.880790849211783e-38 1768976227
-61.581665 -35.361847 -0.412563 1.880790849211783e-38 1768976227
-61.863827 -35.523872 -0.822766 1.880790849211783e-38 1768976227
-61.917801 -35.554867 0.869568 1.880790849211783e-38 1768976227
-61.586361 -35.364544 0.429399 1.880790849211783e-38 1768976227
-61.480923 -35.304001 0.051864 1.880790849211783e-38 1768976227
-61.841373 -35.263397 -0.413589 1.880790849211783e-38 1768976227
-62.138668 -35.432919 -0.824996 1.880790849211783e-38 1768976227
-62.193024 -35.463917 0.871927 1.880790849211783e-38 1768976227
-61.846611 -35.266384 0.430470 1.880790849211783e-38 1768976227
-61.729130 -35.199390 0.051983 1.880790849211783e-38 1768976227
-62.114128 -35.171104 -0.414702 1.880790849211783e-38 1768976227
-62.415031 -35.341484 -0.827246 1.880790849211783e-38 1768976227
-62.469780 -35.372486 0.874307 1.880790849211783e-38 1768976227
-62.119419 -35.174099 0.431628 1.880790849211783e-38 1768976227
-62.001110 -35.107109 0.052123 1.880790849211783e-38 1768976227
-62.388397 -35.078335 -0.415825 1.880790849211783e-38 1768976227
-62.733177 -35.272186 -0.830049 1.880790849211783e-38 1768976227
-62.796440 -35.307758 0.877385 1.880790849211783e-38 1768976227
-62.393711 -35.081322 0.432797 1.880790849211783e-38 1768976227
-62.274551 -35.014324 0.052264 1.880790849211783e-38 1768976227
-62.711185 -35.011318 -0.417271 1.880790849211783e-38 1768976227
-63.065498 -35.209129 -0.833037 1.880790849211783e-38 1768976227
-63.129330 -35.244766 0.880547 1.880790849211783e-38 1768976227
-62.717312 -35.014736 0.434307 1.880790849211783e-38 1768976227
-62.579834 -34.937984 0.052431 1.880790849211783e-38 1768976227
-63.040470 -34.946220 -0.418758 1.880790849211783e-38 1768976227
-63.436790 -35.165920 -0.836537 1.880790849211783e-38 1768976227
-63.514057 -35.208752 0.884428 1.880790849211783e-38 1768976227
-63.046669 -34.949654 0.435856 1.880790849211783e-38 1768976227
-62.907963 -34.872765 0.052618 1.880790849211783e-38 1768976227
-63.409801 -34.901363 -0.420511 1.880790849211783e-38 1768976227
-63.848721 -35.142948 -0.840568 1.880790849211783e-38 1768976227
-63.926857 -35.185951 0.888694 1.880790849211783e-38 1768976227
-63.417271 -34.905476 0.437688 1.880790849211783e-38 1768976227
-63.249847 -34.813320 0.052816 1.880790849211783e-38 1768976227
-63.817139 -34.875195 -0.422513 1.880790849211783e-38 1768976227
-64.338829 -35.160294 -0.845620 1.880790849211783e-38 1768976227
-64.440155 -35.215668 0.894349 1.880790849211783e-38 1768976227
-63.824688 -34.879322 0.439772 1.880790849211783e-38 1768976227
-63.655399 -34.786808 0.053066 1.880790849211783e-38 1768976227
-64.291374 -34.882965 -0.424954 1.880790849211783e-38 1768976227
