# .PCD v0.7 - Point Cloud Data file format
VERSION 0.7
FIELDS x y z rgb label
SIZE 4 4 4 4 4
TYPE F F F F U
COUNT 1 1 1 1 1
WIDTH 760
HEIGHT 1
VIEWPOINT 0 0 0 1 0 0 0
POINTS 760
DATA ascii
19.120853 -9.906566 2.687793 1.880790849211783e-38 1768976227
19.107122 -9.899452 2.575891 1.880790849211783e-38 1768976227
19.638134 -10.174571 -0.128496 1.880790849211783e-38 1768976227
19.285255 -9.991742 -0.250504 1.880790849211783e-38 1768976227
19.501139 -10.103592 2.498811 1.880790849211783e-38 1768976227
19.198858 -9.946980 2.309798 1.880790849211783e-38 1768976227
19.978157 -10.350738 3.374031 1.880790849211783e-38 1768976227
19.206060 -9.950711 3.102141 1.880790849211783e-38 1768976227
19.495111 -10.100470 2.246700 1.880790849211783e-38 1768976227
19.564537 -10.136439 2.110566 1.880790849211783e-38 1768976227
19.625708 -10.168132 3.047929 1.880790849211783e-38 1768976227
19.768248 -10.241982 2.942635 1.880790849211783e-38 1768976227
19.677124 -10.194770 1.180449 1.880790849211783e-38 1768976227
18.993753 -9.840714 1.034507 1.880790849211783e-38 1768976227
18.959095 -9.822758 1.888120 1.880790849211783e-38 1768976227
19.366550 -10.033861 1.830609 1.880790849211783e-38 1768976227
18.983141 -9.835217 0.889708 1.880790849211783e-38 1768976227
19.188534 -9.941631 0.797729 1.880790849211783e-38 1768976227
19.212297 -9.953942 1.678913 1.880790849211783e-38 1768976227
19.242403 -9.969542 1.544212 1.880790849211783e-38 1768976227
19.397863 -10.050085 0.659059 1.880790849211783e-38 1768976227
19.675232 -10.193790 0.559771 1.880790849211783e-38 1768976227
19.152565 -9.922996 1.426769 1.880790849211783e-38 1768976227
19.406713 -10.054670 1.307199 1.880790849211783e-38 1768976227
19.341623 -10.020947 -0.389275 1.880790849211783e-38 1768976227
19.801285 -10.259100 -0.521612 1.880790849211783e-38 1768976227
19.448244 -10.076187 0.378694 1.880790849211783e-38 1768976227
19.421926 -10.062551 0.266398 1.880790849211783e-38 1768976227
19.606228 -10.158039 -0.651887 1.880790849211783e-38 1768976227
20.060238 -10.393262 -0.777822 1.880790849211783e-38 1768976227
19.233446 -9.964900 0.130974 1.880790849211783e-38 1768976227
19.164429 -9.929143 0.015789 1.880790849211783e-38 1768976227
19.137819 -9.915355 4.327055 1.880790849211783e-38 1768976227
19.160179 -9.926941 4.107145 1.880790849211783e-38 1768976227
19.112452 -9.902212 3.925310 1.880790849211783e-38 1768976227
18.646317 -9.660707 3.640692 1.880790849211783e-38 1768976227
19.004990 -9.846537 4.900823 1.880790849211783e-38 1768976227
19.530401 -10.118753 3.633457 1.880790849211783e-38 1768976227
19.201944 -9.948579 3.382260 1.880790849211783e-38 1768976227
19.197941 -9.946505 4.742850 1.880790849211783e-38 1768976227
19.296894 -9.997772 4.607363 1.880790849211783e-38 1768976227
19.506607 -10.181166 2.746321 1.880790849211783e-38 1768976227
19.390589 -10.120612 2.618209 1.880790849211783e-38 1768976227
19.308239 -10.077632 -0.126536 1.880790849211783e-38 1768976227
18.924326 -9.877254 -0.246202 1.880790849211783e-38 1768976227
19.119425 -9.979083 2.453745 1.880790849211783e-38 1768976227
19.792013 -10.330130 2.384897 1.880790849211783e-38 1768976227
19.004292 -9.918991 3.214596 1.880790849211783e-38 1768976227
19.200966 -10.021641 3.106186 1.880790849211783e-38 1768976227
19.005348 -9.919542 2.193695 1.880790849211783e-38 1768976227
19.366821 -10.108208 2.092517 1.880790849211783e-38 1768976227
19.207333 -10.024965 2.987637 1.880790849211783e-38 1768976227
19.618700 -10.239672 2.924958 1.880790849211783e-38 1768976227
18.595984 -9.705880 1.117342 1.880790849211783e-38 1768976227
19.010349 -9.922153 1.037036 1.880790849211783e-38 1768976227
18.864914 -9.846245 1.881689 1.880790849211783e-38 1768976227
18.804827 -9.814882 1.780302 1.880790849211783e-38 1768976227
19.333992 -10.091073 0.907574 1.880790849211783e-38 1768976227
19.351309 -10.100111 0.805759 1.880790849211783e-38 1768976227
19.464928 -10.159414 1.703659 1.880790849211783e-38 1768976227
19.098417 -9.968118 1.535063 1.880790849211783e-38 1768976227
19.436869 -10.144767 0.661421 1.880790849211783e-38 1768976227
19.147079 -9.993517 0.545600 1.880790849211783e-38 1768976227
19.129015 -9.984088 1.427252 1.880790849211783e-38 1768976227
19.342545 -10.095537 1.304921 1.880790849211783e-38 1768976227
18.856779 -9.841999 -0.380113 1.880790849211783e-38 1768976227
19.373711 -10.111803 -0.511149 1.880790849211783e-38 1768976227
18.661299 -9.739971 0.363941 1.880790849211783e-38 1768976227
19.581594 -10.220304 0.269009 1.880790849211783e-38 1768976227
19.382689 -10.116488 -0.645466 1.880790849211783e-38 1768976227
18.705006 -9.762783 -0.726412 1.880790849211783e-38 1768976227
19.088413 -9.962896 0.130190 1.880790849211783e-38 1768976227
18.914452 -9.872101 0.015608 1.880790849211783e-38 1768976227
18.777000 -9.800360 4.252138 1.880790849211783e-38 1768976227
19.146357 -9.993139 4.110624 1.880790849211783e-38 1768976227
19.314669 -10.080987 3.973068 1.880790849211783e-38 1768976227
19.130758 -9.984998 3.741142 1.880790849211783e-38 1768976227
19.374086 -10.112000 5.003844 1.880790849211783e-38 1768976227
18.995506 -9.914406 3.539491 1.880790849211783e-38 1768976227
18.803654 -9.814271 3.317303 1.880790849211783e-38 1768976227
19.241102 -10.042590 4.760973 1.880790849211783e-38 1768976227
19.596092 -10.227872 4.686144 1.880790849211783e-38 1768976227
19.163099 -10.075535 2.702226 1.880790849211783e-38 1768976227
19.278532 -10.136227 2.607194 1.880790849211783e-38 1768976227
19.011591 -9.995874 -0.124789 1.880790849211783e-38 1768976227
18.817528 -9.893842 -0.245200 1.880790849211783e-38 1768976227
18.453623 -9.702507 2.372042 1.880790849211783e-38 1768976227
18.896732 -9.935485 2.280618 1.880790849211783e-38 1768976227
19.154507 -10.071016 3.245128 1.880790849211783e-38 1768976227
19.281509 -10.137792 3.124148 1.880790849211783e-38 1768976227
19.047508 -10.014759 2.202038 1.880790849211783e-38 1768976227
18.626463 -9.793382 2.015706 1.880790849211783e-38 1768976227
18.666384 -9.814372 2.908085 1.880790849211783e-38 1768976227
18.771379 -9.869576 2.803056 1.880790849211783e-38 1768976227
18.721123 -9.843153 1.126640 1.880790849211783e-38 1768976227
18.789682 -9.879199 1.026619 1.880790849211783e-38 1768976227
18.951118 -9.964080 1.893277 1.880790849211783e-38 1768976227
18.798813 -9.884001 1.782547 1.880790849211783e-38 1768976227
18.904299 -9.939464 0.888806 1.880790849211783e-38 1768976227
19.114269 -10.049861 0.797147 1.880790849211783e-38 1768976227
18.631876 -9.796229 1.633325 1.880790849211783e-38 1768976227
18.961283 -9.969423 1.526451 1.880790849211783e-38 1768976227
18.995729 -9.987536 0.647432 1.880790849211783e-38 1768976227
19.110687 -10.047977 0.545424 1.880790849211783e-38 1768976227
18.987959 -9.983449 1.418967 1.880790849211783e-38 1768976227
18.737680 -9.851858 1.266114 1.880790849211783e-38 1768976227
18.995489 -9.987409 -0.383514 1.880790849211783e-38 1768976227
19.340475 -10.168795 -0.511079 1.880790849211783e-38 1768976227
18.703754 -9.834022 0.365346 1.880790849211783e-38 1768976227
18.640980 -9.801015 0.256492 1.880790849211783e-38 1768976227
19.074833 -10.029127 -0.636218 1.880790849211783e-38 1768976227
18.919312 -9.947356 -0.735896 1.880790849211783e-38 1768976227
19.109440 -10.047322 0.130539 1.880790849211783e-38 1768976227
19.343748 -10.170515 0.015987 1.880790849211783e-38 1768976227
18.651218 -9.806398 4.230332 1.880790849211783e-38 1768976227
18.768730 -9.868184 4.035921 1.880790849211783e-38 1768976227
19.139839 -10.063304 3.943330 1.880790849211783e-38 1768976227
19.075344 -10.029394 3.736204 1.880790849211783e-38 1768976227
18.427574 -9.688812 4.766909 1.880790849211783e-38 1768976227
18.689760 -9.826664 3.488027 1.880790849211783e-38 1768976227
18.972227 -9.975179 3.352335 1.880790849211783e-38 1768976227
19.257698 -10.125272 4.772614 1.880790849211783e-38 1768976227
18.817076 -9.893603 4.506968 1.880790849211783e-38 1768976227
18.448706 -9.771058 2.605631 1.880790849211783e-38 1768976227
19.368732 -10.258335 2.623565 1.880790849211783e-38 1768976227
18.670046 -9.888288 -0.122742 1.880790849211783e-38 1768976227
18.862719 -9.990334 -0.246180 1.880790849211783e-38 1768976227
18.234381 -9.657544 2.347594 1.880790849211783e-38 1768976227
19.417234 -10.284023 2.347169 1.880790849211783e-38 1768976227
19.007761 -10.067153 3.225396 1.880790849211783e-38 1768976227
18.989286 -10.057367 3.081700 1.880790849211783e-38 1768976227
18.775776 -9.944285 2.174081 1.880790849211783e-38 1768976227
18.699749 -9.904019 2.026860 1.880790849211783e-38 1768976227
19.232914 -10.186401 3.001118 1.880790849211783e-38 1768976227
18.911919 -10.016392 2.828540 1.880790849211783e-38 1768976227
18.734451 -9.922399 1.129238 1.880790849211783e-38 1768976227
19.155294 -10.145290 1.048262 1.880790849211783e-38 1768976227
18.668558 -9.887498 1.868019 1.880790849211783e-38 1768976227
18.860723 -9.989277 1.791266 1.880790849211783e-38 1768976227
18.944582 -10.033690 0.892119 1.880790849211783e-38 1768976227
18.913353 -10.017151 0.790024 1.880790849211783e-38 1768976227
19.280390 -10.211546 1.692868 1.880790849211783e-38 1768976227
18.701315 -9.904848 1.507920 1.880790849211783e-38 1768976227
18.904083 -10.012239 0.645334 1.880790849211783e-38 1768976227
18.391739 -9.740886 0.525741 1.880790849211783e-38 1768976227
19.105436 -10.118884 1.430021 1.880790849211783e-38 1768976227
18.937471 -10.029924 1.281652 1.880790849211783e-38 1768976227
19.137354 -10.135789 -0.386994 1.880790849211783e-38 1768976227
19.179167 -10.157934 -0.507624 1.880790849211783e-38 1768976227
18.851398 -9.984338 0.368816 1.880790849211783e-38 1768976227
18.655546 -9.880608 0.257102 1.880790849211783e-38 1768976227
18.445047 -9.769119 -0.616192 1.880790849211783e-38 1768976227
19.772476 -10.472171 -0.770306 1.880790849211783e-38 1768976227
18.732189 -9.921201 0.128166 1.880790849211783e-38 1768976227
18.833216 -9.974708 0.015590 1.880790849211783e-38 1768976227
18.746464 -9.928761 4.258708 1.880790849211783e-38 1768976227
19.280703 -10.211711 4.152616 1.880790849211783e-38 1768976227
18.906044 -10.013280 3.901366 1.880790849211783e-38 1768976227
18.726229 -9.918043 3.673666 1.880790849211783e-38 1768976227
19.628616 -10.395979 5.085686 1.880790849211783e-38 1768976227
18.365433 -9.726954 3.432958 1.880790849211783e-38 1768976227
19.131588 -10.132735 3.385878 1.880790849211783e-38 1768976227
19.109690 -10.121137 4.743477 1.880790849211783e-38 1768976227
19.231169 -10.185476 4.613486 1.880790849211783e-38 1768976227
18.946674 -10.108084 2.680256 1.880790849211783e-38 1768976227
18.896057 -10.081078 2.563646 1.880790849211783e-38 1768976227
18.610003 -9.928469 -0.122544 1.880790849211783e-38 1768976227
18.346088 -9.787669 -0.239821 1.880790849211783e-38 1768976227
18.610254 -9.928601 2.399830 1.880790849211783e-38 1768976227
18.779291 -10.018784 2.273696 1.880790849211783e-38 1768976227
18.516006 -9.878320 3.146992 1.880790849211783e-38 1768976227
19.124632 -10.203024 3.108644 1.880790849211783e-38 1768976227
18.463684 -9.850407 2.141373 1.880790849211783e-38 1768976227
18.674282 -9.962760 2.027347 1.880790849211783e-38 1768976227
18.897432 -10.081812 2.953501 1.880790849211783e-38 1768976227
18.846119 -10.054436 2.823221 1.880790849211783e-38 1768976227
18.752064 -10.004257 1.132113 1.880790849211783e-38 1768976227
18.740696 -9.998193 1.027219 1.880790849211783e-38 1768976227
18.374823 -9.802999 1.841577 1.880790849211783e-38 1768976227
18.778942 -10.018597 1.786361 1.880790849211783e-38 1768976227
18.909328 -10.088159 0.891888 1.880790849211783e-38 1768976227
18.635122 -9.941870 0.779651 1.880790849211783e-38 1768976227
19.244486 -10.266966 1.692426 1.880790849211783e-38 1768976227
19.078505 -10.178415 1.540802 1.880790849211783e-38 1768976227
18.483814 -9.861146 0.632000 1.880790849211783e-38 1768976227
19.061766 -10.169484 0.545768 1.880790849211783e-38 1768976227
18.853361 -10.058300 1.413417 1.880790849211783e-38 1768976227
18.897680 -10.081944 1.281011 1.880790849211783e-38 1768976227
18.346571 -9.787927 -0.371598 1.880790849211783e-38 1768976227
19.370493 -10.334190 -0.513510 1.880790849211783e-38 1768976227
18.467587 -9.852489 0.361887 1.880790849211783e-38 1768976227
18.888958 -10.077291 0.260736 1.880790849211783e-38 1768976227
18.752268 -10.004367 -0.627461 1.880790849211783e-38 1768976227
18.738766 -9.997164 -0.731206 1.880790849211783e-38 1768976227
18.898882 -10.082585 0.129514 1.880790849211783e-38 1768976227
18.614840 -9.931048 0.015434 1.880790849211783e-38 1768976227
19.048428 -10.162369 4.334249 1.880790849211783e-38 1768976227
18.853035 -10.058125 4.067021 1.880790849211783e-38 1768976227
18.648849 -9.949193 3.854467 1.880790849211783e-38 1768976227
18.844566 -10.053608 3.702813 1.880790849211783e-38 1768976227
19.381163 -10.339884 5.029629 1.880790849211783e-38 1768976227
18.678600 -9.965065 3.497098 1.880790849211783e-38 1768976227
18.507776 -9.873930 3.280732 1.880790849211783e-38 1768976227
18.598732 -9.922455 4.624053 1.880790849211783e-38 1768976227
18.354790 -9.792312 4.410311 1.880790849211783e-38 1768976227
18.973038 -10.195776 2.688323 1.880790849211783e-38 1768976227
18.713823 -10.056479 2.543026 1.880790849211783e-38 1768976227
18.707275 -10.052959 -0.123383 1.880790849211783e-38 1768976227
18.955173 -10.186175 -0.248184 1.880790849211783e-38 1768976227
18.373070 -9.873363 2.373074 1.880790849211783e-38 1768976227
18.620333 -10.006238 2.258094 1.880790849211783e-38 1768976227
18.799900 -10.102735 3.200407 1.880790849211783e-38 1768976227
18.429764 -9.903830 3.000537 1.880790849211783e-38 1768976227
18.348804 -9.860324 2.131489 1.880790849211783e-38 1768976227
18.891542 -10.151981 2.054248 1.880790849211783e-38 1768976227
18.574244 -9.981471 2.907681 1.880790849211783e-38 1768976227
18.392265 -9.883678 2.759685 1.880790849211783e-38 1768976227
18.521770 -9.953273 1.120016 1.880790849211783e-38 1768976227
18.795107 -10.100158 1.031866 1.880790849211783e-38 1768976227
18.443548 -9.911238 1.851452 1.880790849211783e-38 1768976227
18.662998 -10.029165 1.778201 1.880790849211783e-38 1768976227
19.250042 -10.344633 0.909425 1.880790849211783e-38 1768976227
18.660780 -10.027974 0.781987 1.880790849211783e-38 1768976227
19.096291 -10.262010 1.682108 1.880790849211783e-38 1768976227
18.767023 -10.085068 1.518096 1.880790849211783e-38 1768976227
18.337223 -9.854100 0.628001 1.880790849211783e-38 1768976227
18.908825 -10.161269 0.542264 1.880790849211783e-38 1768976227
18.480682 -9.931193 1.387717 1.880790849211783e-38 1768976227
18.439854 -9.909252 1.251996 1.880790849211783e-38 1768976227
18.671646 -10.033813 -0.378794 1.880790849211783e-38 1768976227
18.587852 -9.988784 -0.493559 1.880790849211783e-38 1768976227
19.052849 -10.238666 0.373959 1.880790849211783e-38 1768976227
18.753286 -10.077685 0.259282 1.880790849211783e-38 1768976227
18.390188 -9.882563 -0.616340 1.880790849211783e-38 1768976227
18.506672 -9.945158 -0.723316 1.880790849211783e-38 1768976227
18.945801 -10.181139 0.130046 1.880790849211783e-38 1768976227
18.507402 -9.945552 0.015370 1.880790849211783e-38 1768976227
18.848656 -10.128935 4.295724 1.880790849211783e-38 1768976227
19.220533 -10.328774 4.152999 1.880790849211783e-38 1768976227
18.993196 -10.206609 3.931983 1.880790849211783e-38 1768976227
18.946424 -10.181475 3.728844 1.880790849211783e-38 1768976227
18.321066 -9.845417 4.889754 1.880790849211783e-38 1768976227
18.621767 -10.007010 4.840367 1.880790849211783e-38 1768976227
18.270670 -9.818336 3.426252 1.880790849211783e-38 1768976227
18.470806 -9.925885 3.279470 1.880790849211783e-38 1768976227
18.844519 -10.126712 4.692732 1.880790849211783e-38 1768976227
18.675396 -10.035828 4.494598 1.880790849211783e-38 1768976227
19.159582 -10.370615 2.719174 1.880790849211783e-38 1768976227
18.551584 -10.041521 2.525083 1.880790849211783e-38 1768976227
18.320383 -9.916377 -0.121028 1.880790849211783e-38 1768976227
18.912394 -10.236817 -0.248027 1.880790849211783e-38 1768976227
18.501125 -10.014208 2.393504 1.880790849211783e-38 1768976227
18.550133 -10.040736 2.253243 1.880790849211783e-38 1768976227
18.624874 -10.081191 3.175773 1.880790849211783e-38 1768976227
18.869989 -10.213866 3.077212 1.880790849211783e-38 1768976227
18.752314 -10.150170 2.181909 1.880790849211783e-38 1768976227
18.540117 -10.035314 2.019316 1.880790849211783e-38 1768976227
18.759396 -10.154003 2.941446 1.880790849211783e-38 1768976227
18.666025 -10.103465 2.805321 1.880790849211783e-38 1768976227
18.580420 -10.057128 1.125392 1.880790849211783e-38 1768976227
19.054983 -10.313998 1.047836 1.880790849211783e-38 1768976227
18.639313 -10.089006 1.874150 1.880790849211783e-38 1768976227
18.344305 -9.929326 1.750681 1.880790849211783e-38 1768976227
18.376665 -9.946841 0.869578 1.880790849211783e-38 1768976227
18.406475 -9.962976 0.772585 1.880790849211783e-38 1768976227
18.577902 -10.055765 1.639109 1.880790849211783e-38 1768976227
18.421623 -9.971175 1.492582 1.880790849211783e-38 1768976227
18.289537 -9.899680 0.627387 1.880790849211783e-38 1768976227
18.620205 -10.078664 0.534857 1.880790849211783e-38 1768976227
18.364904 -9.940475 1.381268 1.880790849211783e-38 1768976227
18.523813 -10.026489 1.259744 1.880790849211783e-38 1768976227
18.583633 -10.058868 -0.377622 1.880790849211783e-38 1768976227
18.350523 -9.932691 -0.488050 1.880790849211783e-38 1768976227
18.566957 -10.049843 0.365016 1.880790849211783e-38 1768976227
18.737881 -10.142358 0.259490 1.880790849211783e-38 1768976227
18.233076 -9.869121 -0.612069 1.880790849211783e-38 1768976227
19.057722 -10.315481 -0.746066 1.880790849211783e-38 1768976227
18.459202 -9.991517 0.126912 1.880790849211783e-38 1768976227
18.092087 -9.792806 0.015050 1.880790849211783e-38 1768976227
18.267063 -9.887516 4.169953 1.880790849211783e-38 1768976227
18.425200 -9.973111 3.987632 1.880790849211783e-38 1768976227
18.903933 -10.232239 3.919875 1.880790849211783e-38 1768976227
18.441786 -9.982089 3.635435 1.880790849211783e-38 1768976227
17.967739 -9.725499 4.803260 1.880790849211783e-38 1768976227
18.392227 -9.955265 4.788486 1.880790849211783e-38 1768976227
18.401199 -9.960121 3.456348 1.880790849211783e-38 1768976227
18.588327 -10.061408 3.305708 1.880790849211783e-38 1768976227
18.031250 -9.759876 4.497519 1.880790849211783e-38 1768976227
19.204479 -10.394917 4.629457 1.880790849211783e-38 1768976227
17.874737 -9.744979 2.540986 1.880790849211783e-38 1768976227
18.751747 -10.223108 2.556513 1.880790849211783e-38 1768976227
18.547413 -10.111709 -0.122729 1.880790849211783e-38 1768976227
18.320019 -9.987738 -0.240652 1.880790849211783e-38 1768976227
18.599155 -10.139917 2.410131 1.880790849211783e-38 1768976227
18.220253 -9.933348 2.216802 1.880790849211783e-38 1768976227
18.438986 -10.052596 3.149232 1.880790849211783e-38 1768976227
18.098406 -9.866919 2.956226 1.880790849211783e-38 1768976227
18.693382 -10.191289 2.178618 1.880790849211783e-38 1768976227
18.154163 -9.897316 1.980522 1.880790849211783e-38 1768976227
18.251347 -9.950300 2.866477 1.880790849211783e-38 1768976227
18.469803 -10.069397 2.780383 1.880790849211783e-38 1768976227
18.607370 -10.144397 1.128872 1.880790849211783e-38 1768976227
18.477413 -10.073546 1.017742 1.880790849211783e-38 1768976227
18.253927 -9.951705 1.838410 1.880790849211783e-38 1768976227
18.207790 -9.926553 1.740502 1.880790849211783e-38 1768976227
18.464470 -10.066490 0.875165 1.880790849211783e-38 1768976227
18.402180 -10.032531 0.773672 1.880790849211783e-38 1768976227
18.534967 -10.104923 1.638003 1.880790849211783e-38 1768976227
18.462740 -10.065547 1.498366 1.880790849211783e-38 1768976227
18.545059 -10.110426 0.637196 1.880790849211783e-38 1768976227
18.301832 -9.977822 0.526574 1.880790849211783e-38 1768976227
18.388584 -10.025118 1.385317 1.880790849211783e-38 1768976227
18.714258 -10.202670 1.274783 1.880790849211783e-38 1768976227
18.427189 -10.046165 -0.375057 1.880790849211783e-38 1768976227
18.311804 -9.983259 -0.487819 1.880790849211783e-38 1768976227
19.213528 -10.474863 0.378346 1.880790849211783e-38 1768976227
18.295122 -9.974166 0.253774 1.880790849211783e-38 1768976227
18.377449 -10.019048 -0.617927 1.880790849211783e-38 1768976227
17.825109 -9.717922 -0.698956 1.880790849211783e-38 1768976227
18.245596 -9.947165 0.125649 1.880790849211783e-38 1768976227
18.342615 -10.000058 0.015283 1.880790849211783e-38 1768976227
18.318449 -9.986882 4.188540 1.880790849211783e-38 1768976227
18.290125 -9.971440 3.964890 1.880790849211783e-38 1768976227
18.261177 -9.955659 3.792803 1.880790849211783e-38 1768976227
18.383114 -10.022136 3.629811 1.880790849211783e-38 1768976227
18.780832 -10.238965 5.028854 1.880790849211783e-38 1768976227
18.482735 -10.076448 4.819940 1.880790849211783e-38 1768976227
18.162073 -9.901628 3.417026 1.880790849211783e-38 1768976227
18.424669 -10.044792 3.281976 1.880790849211783e-38 1768976227
18.349268 -10.003684 4.584347 1.880790849211783e-38 1768976227
18.535412 -10.105166 4.475498 1.880790849211783e-38 1768976227
18.313066 -10.055709 2.607595 1.880790849211783e-38 1768976227
18.329987 -10.065000 2.503139 1.880790849211783e-38 1768976227
17.994942 -9.881026 -0.119270 1.880790849211783e-38 1768976227
18.375875 -10.090197 -0.241785 1.880790849211783e-38 1768976227
18.182125 -9.983808 2.359982 1.880790849211783e-38 1768976227
17.927851 -9.844187 2.184829 1.880790849211783e-38 1768976227
18.095028 -9.935984 3.095590 1.880790849211783e-38 1768976227
18.733707 -10.286683 3.065050 1.880790849211783e-38 1768976227
17.919832 -9.839785 2.091914 1.880790849211783e-38 1768976227
18.200575 -9.993939 1.988864 1.880790849211783e-38 1768976227
18.379248 -10.092049 2.891331 1.880790849211783e-38 1768976227
17.843336 -9.797780 2.690512 1.880790849211783e-38 1768976227
18.174227 -9.979472 1.104415 1.880790849211783e-38 1768976227
18.439007 -10.124863 1.017304 1.880790849211783e-38 1768976227
18.278147 -10.036534 1.843889 1.880790849211783e-38 1768976227
18.358778 -10.080809 1.757833 1.880790849211783e-38 1768976227
18.271128 -10.032681 0.867432 1.880790849211783e-38 1768976227
18.338591 -10.069723 0.772271 1.880790849211783e-38 1768976227
18.593443 -10.209663 1.645884 1.880790849211783e-38 1768976227
18.347162 -10.074431 1.491445 1.880790849211783e-38 1768976227
18.480310 -10.147542 0.636020 1.880790849211783e-38 1768976227
19.034203 -10.451684 0.548550 1.880790849211783e-38 1768976227
18.571314 -10.197513 1.401393 1.880790849211783e-38 1768976227
18.633371 -10.231588 1.271369 1.880790849211783e-38 1768976227
17.899269 -9.828492 -0.364913 1.880790849211783e-38 1768976227
19.014601 -10.440921 -0.507378 1.880790849211783e-38 1768976227
18.422167 -10.115616 0.363362 1.880790849211783e-38 1768976227
18.389380 -10.097612 0.255503 1.880790849211783e-38 1768976227
18.256855 -10.024843 -0.614886 1.880790849211783e-38 1768976227
18.640951 -10.235750 -0.732154 1.880790849211783e-38 1768976227
18.649002 -10.240171 0.128639 1.880790849211783e-38 1768976227
18.194241 -9.990460 0.015184 1.880790849211783e-38 1768976227
17.991026 -9.878876 4.120468 1.880790849211783e-38 1768976227
18.428822 -10.119270 4.001553 1.880790849211783e-38 1768976227
18.552568 -10.187220 3.859688 1.880790849211783e-38 1768976227
18.452475 -10.132257 3.649523 1.880790849211783e-38 1768976227
18.429073 -10.119408 4.942814 1.880790849211783e-38 1768976227
18.151192 -9.966824 4.741296 1.880790849211783e-38 1768976227
17.691015 -9.714140 3.333897 1.880790849211783e-38 1768976227
18.328314 -10.064081 3.270204 1.880790849211783e-38 1768976227
18.549145 -10.185338 4.641936 1.880790849211783e-38 1768976227
18.775747 -10.309768 4.541015 1.880790849211783e-38 1768976227
18.176352 -10.052107 2.592434 1.880790849211783e-38 1768976227
18.169794 -10.048480 2.485390 1.880790849211783e-38 1768976227
17.814222 -9.851836 -0.118269 1.880790849211783e-38 1768976227
17.906998 -9.903144 -0.236007 1.880790849211783e-38 1768976227
18.114265 -10.017770 2.355085 1.880790849211783e-38 1768976227
18.201878 -10.066222 2.221914 1.880790849211783e-38 1768976227
18.409136 -10.180844 3.154565 1.880790849211783e-38 1768976227
18.205120 -10.068015 2.983521 1.880790849211783e-38 1768976227
18.124378 -10.023362 2.119312 1.880790849211783e-38 1768976227
18.231445 -10.082575 1.995552 1.880790849211783e-38 1768976227
18.052450 -9.983584 2.844645 1.880790849211783e-38 1768976227
17.626644 -9.748099 2.662259 1.880790849211783e-38 1768976227
18.477623 -10.218718 1.124720 1.880790849211783e-38 1768976227
18.229095 -10.081274 1.007396 1.880790849211783e-38 1768976227
18.536610 -10.251340 1.873073 1.880790849211783e-38 1768976227
17.846815 -9.869863 1.711656 1.880790849211783e-38 1768976227
17.956120 -9.930310 0.853894 1.880790849211783e-38 1768976227
17.753998 -9.818530 0.748897 1.880790849211783e-38 1768976227
18.292032 -10.116081 1.621897 1.880790849211783e-38 1768976227
17.731113 -9.805874 1.443764 1.880790849211783e-38 1768976227
18.108387 -10.014519 0.624256 1.880790849211783e-38 1768976227
17.846159 -9.869499 0.515167 1.880790849211783e-38 1768976227
18.218964 -10.075672 1.377092 1.880790849211783e-38 1768976227
18.414268 -10.183681 1.258509 1.880790849211783e-38 1768976227
18.476435 -10.218060 -0.377307 1.880790849211783e-38 1768976227
18.033550 -9.973132 -0.482000 1.880790849211783e-38 1768976227
18.399235 -10.175366 0.363513 1.880790849211783e-38 1768976227
18.800245 -10.397139 0.261646 1.880790849211783e-38 1768976227
17.820169 -9.855125 -0.601177 1.880790849211783e-38 1768976227
18.488928 -10.224971 -0.727391 1.880790849211783e-38 1768976227
18.263857 -10.100498 0.126192 1.880790849211783e-38 1768976227
18.136013 -10.029797 0.015161 1.880790849211783e-38 1768976227
18.677195 -10.329089 4.284736 1.880790849211783e-38 1768976227
18.723610 -10.354758 4.072325 1.880790849211783e-38 1768976227
18.395929 -10.173539 3.833467 1.880790849211783e-38 1768976227
18.416029 -10.184655 3.648374 1.880790849211783e-38 1768976227
18.336157 -10.140483 4.926074 1.880790849211783e-38 1768976227
18.044500 -9.979187 4.721268 1.880790849211783e-38 1768976227
18.405180 -10.178656 3.474252 1.880790849211783e-38 1768976227
18.475277 -10.217421 3.301909 1.880790849211783e-38 1768976227
18.083475 -10.000741 4.532929 1.880790849211783e-38 1768976227
18.645948 -10.311809 4.517124 1.880790849211783e-38 1768976227
17.959997 -10.003306 2.565867 1.880790849211783e-38 1768976227
18.060936 -10.059527 2.474639 1.880790849211783e-38 1768976227
18.307247 -10.196719 -0.121745 1.880790849211783e-38 1768976227
17.842369 -9.937790 -0.235549 1.880790849211783e-38 1768976227
18.181818 -10.126855 2.367828 1.880790849211783e-38 1768976227
17.587210 -9.795672 2.150477 1.880790849211783e-38 1768976227
18.372715 -10.233182 3.153598 1.880790849211783e-38 1768976227
18.257698 -10.169120 2.997151 1.880790849211783e-38 1768976227
17.968697 -10.008151 2.104627 1.880790849211783e-38 1768976227
18.379175 -10.236779 2.015092 1.880790849211783e-38 1768976227
18.111858 -10.087890 2.858788 1.880790849211783e-38 1768976227
18.075405 -10.067587 2.734612 1.880790849211783e-38 1768976227
18.249722 -10.164678 1.112709 1.880790849211783e-38 1768976227
17.379650 -9.680068 0.962062 1.880790849211783e-38 1768976227
18.181648 -10.126761 1.840283 1.880790849211783e-38 1768976227
17.569559 -9.785843 1.687888 1.880790849211783e-38 1768976227
18.138807 -10.102901 0.864027 1.880790849211783e-38 1768976227
17.637390 -9.823624 0.745225 1.880790849211783e-38 1768976227
18.062080 -10.060165 1.604191 1.880790849211783e-38 1768976227
18.362295 -10.227377 1.497663 1.880790849211783e-38 1768976227
18.242800 -10.160821 0.629943 1.880790849211783e-38 1768976227
18.379763 -10.237106 0.531459 1.880790849211783e-38 1768976227
18.379353 -10.236878 1.391542 1.880790849211783e-38 1768976227
17.576967 -9.789968 1.203297 1.880790849211783e-38 1768976227
17.686165 -9.850788 -0.361774 1.880790849211783e-38 1768976227
18.218868 -10.147491 -0.487769 1.880790849211783e-38 1768976227
17.890831 -9.964783 0.354061 1.880790849211783e-38 1768976227
18.545389 -10.329356 0.258532 1.880790849211783e-38 1768976227
18.331776 -10.210380 -0.619472 1.880790849211783e-38 1768976227
18.105505 -10.084352 -0.713500 1.880790849211783e-38 1768976227
18.047218 -10.051887 0.124904 1.880790849211783e-38 1768976227
17.765074 -9.894740 0.014876 1.880790849211783e-38 1768976227
17.775307 -9.900439 4.084665 1.880790849211783e-38 1768976227
18.174820 -10.122958 3.959587 1.880790849211783e-38 1768976227
18.062845 -10.060592 3.770362 1.880790849211783e-38 1768976227
17.712570 -9.865496 3.514891 1.880790849211783e-38 1768976227
17.866163 -9.951044 4.807850 1.880790849211783e-38 1768976227
18.086519 -10.073777 4.740190 1.880790849211783e-38 1768976227
17.946323 -9.995691 3.393311 1.880790849211783e-38 1768976227
17.870129 -9.953252 3.199107 1.880790849211783e-38 1768976227
18.283648 -10.183572 4.590785 1.880790849211783e-38 1768976227
18.162350 -10.116013 4.407339 1.880790849211783e-38 1768976227
17.925539 -10.055063 2.565265 1.880790849211783e-38 1768976227
18.410215 -10.326935 2.526751 1.880790849211783e-38 1768976227
17.677624 -9.915999 -0.117757 1.880790849211783e-38 1768976227
17.932413 -10.058919 -0.237137 1.880790849211783e-38 1768976227
18.223053 -10.221950 2.377202 1.880790849211783e-38 1768976227
17.942406 -10.064524 2.197610 1.880790849211783e-38 1768976227
18.036985 -10.117577 3.101194 1.880790849211783e-38 1768976227
17.669237 -9.911295 2.905444 1.880790849211783e-38 1768976227
18.275734 -10.251499 2.144201 1.880790849211783e-38 1768976227
17.876925 -10.027794 1.963332 1.880790849211783e-38 1768976227
17.788437 -9.978158 2.812476 1.880790849211783e-38 1768976227
17.761425 -9.963005 2.691643 1.880790849211783e-38 1768976227
18.158054 -10.185490 1.108987 1.880790849211783e-38 1768976227
17.843887 -10.009262 0.989426 1.880790849211783e-38 1768976227
18.091103 -10.147934 1.834208 1.880790849211783e-38 1768976227
17.912823 -10.047931 1.723768 1.880790849211783e-38 1768976227
18.025349 -10.111049 0.860071 1.880790849211783e-38 1768976227
17.791029 -9.979612 0.752984 1.880790849211783e-38 1768976227
18.091030 -10.147893 1.609472 1.880790849211783e-38 1768976227
17.949356 -10.068423 1.466453 1.880790849211783e-38 1768976227
17.716631 -9.937879 0.612806 1.880790849211783e-38 1768976227
18.113384 -10.160432 0.524640 1.880790849211783e-38 1768976227
18.079508 -10.141430 1.371150 1.880790849211783e-38 1768976227
17.454035 -9.790580 1.196897 1.880790849211783e-38 1768976227
17.982660 -10.087105 -0.368459 1.880790849211783e-38 1768976227
17.971586 -10.080894 -0.481961 1.880790849211783e-38 1768976227
17.908495 -10.045502 0.355008 1.880790849211783e-38 1768976227
17.986652 -10.089344 0.251166 1.880790849211783e-38 1768976227
18.367960 -10.303233 -0.621742 1.880790849211783e-38 1768976227
18.235691 -10.229039 -0.719843 1.880790849211783e-38 1768976227
18.119980 -10.164132 0.125619 1.880790849211783e-38 1768976227
18.032799 -10.115230 0.015125 1.880790849211783e-38 1768976227
17.659281 -9.905710 4.064849 1.880790849211783e-38 1768976227
17.967157 -10.078408 3.920949 1.880790849211783e-38 1768976227
18.324604 -10.278913 3.831454 1.880790849211783e-38 1768976227
18.295940 -10.262834 3.636780 1.880790849211783e-38 1768976227
18.060839 -10.130958 4.868437 1.880790849211783e-38 1768976227
18.162722 -10.188107 4.768192 1.880790849211783e-38 1768976227
17.611338 -9.878818 3.335590 1.880790849211783e-38 1768976227
18.210157 -10.214716 3.265479 1.880790849211783e-38 1768976227
18.157471 -10.185163 4.566795 1.880790849211783e-38 1768976227
18.097242 -10.151378 4.398949 1.880790849211783e-38 1768976227
17.652550 -9.972046 2.530491 1.880790849211783e-38 1768976227
17.886150 -10.104008 2.458996 1.880790849211783e-38 1768976227
17.831043 -10.072876 -0.118980 1.880790849211783e-38 1768976227
17.725847 -10.013451 -0.234804 1.880790849211783e-38 1768976227
17.743126 -10.023212 2.318528 1.880790849211783e-38 1768976227
18.030132 -10.185344 2.212108 1.880790849211783e-38 1768976227
17.953672 -10.142152 3.092115 1.880790849211783e-38 1768976227
18.085482 -10.216612 2.978942 1.880790849211783e-38 1768976227
18.079834 -10.213420 2.124822 1.880790849211783e-38 1768976227
17.996296 -10.166229 1.979800 1.880790849211783e-38 1768976227
18.319834 -10.348998 2.901415 1.880790849211783e-38 1768976227
17.468054 -9.867822 2.651683 1.880790849211783e-38 1768976227
17.908760 -10.116778 1.095620 1.880790849211783e-38 1768976227
17.858313 -10.088283 0.991909 1.880790849211783e-38 1768976227
17.925489 -10.126229 1.820505 1.880790849211783e-38 1768976227
18.259344 -10.314827 1.760100 1.880790849211783e-38 1768976227
17.908253 -10.116493 0.855936 1.880790849211783e-38 1768976227
17.850630 -10.083941 0.756791 1.880790849211783e-38 1768976227
17.957903 -10.144541 1.600343 1.880790849211783e-38 1768976227
17.572918 -9.927061 1.438137 1.880790849211783e-38 1768976227
18.411655 -10.400869 0.637929 1.880790849211783e-38 1768976227
17.724342 -10.012601 0.514244 1.880790849211783e-38 1768976227
18.132135 -10.242967 1.377478 1.880790849211783e-38 1768976227
18.047293 -10.195038 1.239682 1.880790849211783e-38 1768976227
17.826145 -10.070110 -0.365873 1.880790849211783e-38 1768976227
18.294750 -10.334827 -0.491461 1.880790849211783e-38 1768976227
17.993599 -10.164706 0.357302 1.880790849211783e-38 1768976227
18.221416 -10.293402 0.254876 1.880790849211783e-38 1768976227
17.508921 -9.890907 -0.593671 1.880790849211783e-38 1768976227
17.659668 -9.976067 -0.698289 1.880790849211783e-38 1768976227
17.719460 -10.009842 0.123051 1.880790849211783e-38 1768976227
17.087706 -9.652960 0.014357 1.880790849211783e-38 1768976227
18.096085 -10.222601 4.172472 1.880790849211783e-38 1768976227
17.871168 -10.095544 3.906629 1.880790849211783e-38 1768976227
17.538980 -9.907889 3.673421 1.880790849211783e-38 1768976227
17.925783 -10.126396 3.569257 1.880790849211783e-38 1768976227
18.159796 -10.258592 4.903430 1.880790849211783e-38 1768976227
18.206421 -10.284929 4.787786 1.880790849211783e-38 1768976227
17.769316 -10.038007 3.371230 1.880790849211783e-38 1768976227
17.793764 -10.051818 3.196233 1.880790849211783e-38 1768976227
18.279848 -10.326410 4.605386 1.880790849211783e-38 1768976227
17.916868 -10.121359 4.362504 1.880790849211783e-38 1768976227
17.732248 -10.087735 2.546266 1.880790849211783e-38 1768976227
17.693821 -10.065873 2.436717 1.880790849211783e-38 1768976227
17.902414 -10.184541 -0.119661 1.880790849211783e-38 1768976227
18.088617 -10.290470 -0.240020 1.880790849211783e-38 1768976227
17.775484 -10.112331 2.326731 1.880790849211783e-38 1768976227
17.787863 -10.119372 2.186118 1.880790849211783e-38 1768976227
17.470009 -9.938549 3.013964 1.880790849211783e-38 1768976227
17.499067 -9.955081 2.887284 1.880790849211783e-38 1768976227
17.682905 -10.059664 2.081729 1.880790849211783e-38 1768976227
17.901192 -10.183846 1.972708 1.880790849211783e-38 1768976227
17.872042 -10.167262 2.835339 1.880790849211783e-38 1768976227
18.130171 -10.314111 2.756903 1.880790849211783e-38 1768976227
18.135620 -10.317210 1.111398 1.880790849211783e-38 1768976227
18.178556 -10.341636 1.011424 1.880790849211783e-38 1768976227
17.953190 -10.213426 1.826438 1.880790849211783e-38 1768976227
17.774517 -10.111781 1.716297 1.880790849211783e-38 1768976227
17.772095 -10.110403 0.850882 1.880790849211783e-38 1768976227
17.274675 -9.827425 0.733626 1.880790849211783e-38 1768976227
17.784798 -10.117630 1.587629 1.880790849211783e-38 1768976227
18.054697 -10.271172 1.480094 1.880790849211783e-38 1768976227
17.819218 -10.137212 0.618458 1.880790849211783e-38 1768976227
18.331861 -10.428849 0.532781 1.880790849211783e-38 1768976227
18.319397 -10.421760 1.394085 1.880790849211783e-38 1768976227
18.081036 -10.286157 1.244125 1.880790849211783e-38 1768976227
17.893398 -10.179412 -0.367882 1.880790849211783e-38 1768976227
17.698511 -10.068542 -0.476257 1.880790849211783e-38 1768976227
17.841551 -10.149917 0.354889 1.880790849211783e-38 1768976227
17.990278 -10.234527 0.252074 1.880790849211783e-38 1768976227
17.420307 -9.910274 -0.591678 1.880790849211783e-38 1768976227
18.034967 -10.259950 -0.714349 1.880790849211783e-38 1768976227
17.670948 -10.052862 0.122924 1.880790849211783e-38 1768976227
18.155609 -10.328582 0.015280 1.880790849211783e-38 1768976227
17.982775 -10.230257 4.153440 1.880790849211783e-38 1768976227
17.878830 -10.171124 3.914992 1.880790849211783e-38 1768976227
17.942827 -10.207531 3.764434 1.880790849211783e-38 1768976227
17.840269 -10.149186 3.558309 1.880790849211783e-38 1768976227
17.408052 -9.903302 4.708491 1.880790849211783e-38 1768976227
17.591949 -10.007920 4.634113 1.880790849211783e-38 1768976227
17.660656 -10.047006 3.356348 1.880790849211783e-38 1768976227
18.088745 -10.290543 3.254779 1.880790849211783e-38 1768976227
18.171322 -10.337521 4.585878 1.880790849211783e-38 1768976227
18.077074 -10.283903 4.409045 1.880790849211783e-38 1768976227
17.750086 -10.168864 2.553219 1.880790849211783e-38 1768976227
17.927120 -10.270286 2.473101 1.880790849211783e-38 1768976227
17.700342 -10.140368 -0.118514 1.880790849211783e-38 1768976227
17.949377 -10.283037 -0.238582 1.880790849211783e-38 1768976227
17.929998 -10.271935 2.351001 1.880790849211783e-38 1768976227
17.824337 -10.211402 2.194376 1.880790849211783e-38 1768976227
18.137329 -10.390713 3.134484 1.880790849211783e-38 1768976227
17.897623 -10.253387 2.958133 1.880790849211783e-38 1768976227
18.005606 -10.315249 2.123372 1.880790849211783e-38 1768976227
17.779615 -10.185781 1.962686 1.880790849211783e-38 1768976227
17.941256 -10.278383 2.851225 1.880790849211783e-38 1768976227
17.622856 -10.095976 2.684378 1.880790849211783e-38 1768976227
17.624496 -10.096915 1.081936 1.880790849211783e-38 1768976227
18.122919 -10.382457 1.010066 1.880790849211783e-38 1768976227
17.845016 -10.223250 1.818562 1.880790849211783e-38 1768976227
17.634691 -10.102757 1.705730 1.880790849211783e-38 1768976227
17.476044 -10.011868 0.838149 1.880790849211783e-38 1768976227
17.537338 -10.046984 0.746064 1.880790849211783e-38 1768976227
17.686342 -10.132347 1.581561 1.880790849211783e-38 1768976227
17.859934 -10.231795 1.466651 1.880790849211783e-38 1768976227
17.343779 -9.936095 0.602995 1.880790849211783e-38 1768976227
17.556662 -10.058053 0.511130 1.880790849211783e-38 1768976227
18.147417 -10.396491 1.383378 1.880790849211783e-38 1768976227
17.725641 -10.154860 1.221773 1.880790849211783e-38 1768976227
17.889496 -10.248732 -0.368435 1.880790849211783e-38 1768976227
17.653143 -10.113326 -0.475855 1.880790849211783e-38 1768976227
17.245697 -9.879905 0.343628 1.880790849211783e-38 1768976227
17.921108 -10.266841 0.251537 1.880790849211783e-38 1768976227
17.755590 -10.172017 -0.604105 1.880790849211783e-38 1768976227
17.570145 -10.065777 -0.697137 1.880790849211783e-38 1768976227
18.008858 -10.317113 0.125491 1.880790849211783e-38 1768976227
17.269192 -9.893365 0.014559 1.880790849211783e-38 1768976227
17.512585 -10.032802 4.051812 1.880790849211783e-38 1768976227
17.942909 -10.279330 3.935794 1.880790849211783e-38 1768976227
18.049583 -10.340444 3.793358 1.880790849211783e-38 1768976227
17.642824 -10.107414 3.524992 1.880790849211783e-38 1768976227
17.923712 -10.268333 4.856319 1.880790849211783e-38 1768976227
17.535610 -10.045993 4.627233 1.880790849211783e-38 1768976227
17.356546 -9.943408 3.304237 1.880790849211783e-38 1768976227
17.893961 -10.251289 3.225279 1.880790849211783e-38 1768976227
17.834467 -10.217205 4.508623 1.880790849211783e-38 1768976227
17.765547 -10.177723 4.340530 1.880790849211783e-38 1768976227
17.526855 -10.111304 2.525484 1.880790849211783e-38 1768976227
18.045053 -10.410254 2.493690 1.880790849211783e-38 1768976227
17.566994 -10.134459 -0.117826 1.880790849211783e-38 1768976227
17.550112 -10.124721 -0.233680 1.880790849211783e-38 1768976227
17.633665 -10.172922 2.316158 1.880790849211783e-38 1768976227
17.775694 -10.254859 2.192185 1.880790849211783e-38 1768976227
17.731609 -10.229426 3.069685 1.880790849211783e-38 1768976227
17.696522 -10.209185 2.929970 1.880790849211783e-38 1768976227
18.167812 -10.481073 2.146219 1.880790849211783e-38 1768976227
17.644058 -10.178919 1.951102 1.880790849211783e-38 1768976227
16.931465 -9.767820 2.695418 1.880790849211783e-38 1768976227
18.170172 -10.482435 2.772550 1.880790849211783e-38 1768976227
17.812138 -10.275884 1.095352 1.880790849211783e-38 1768976227
17.585859 -10.145344 0.981834 1.880790849211783e-38 1768976227
17.846340 -10.295616 1.821853 1.880790849211783e-38 1768976227
17.822306 -10.281750 1.726868 1.880790849211783e-38 1768976227
18.084660 -10.433104 0.868844 1.880790849211783e-38 1768976227
17.797386 -10.267374 0.758441 1.880790849211783e-38 1768976227
17.643353 -10.178510 1.580454 1.880790849211783e-38 1768976227
17.859182 -10.303024 1.469134 1.880790849211783e-38 1768976227
17.679892 -10.199591 0.615747 1.880790849211783e-38 1768976227
17.819950 -10.280391 0.519696 1.880790849211783e-38 1768976227
17.885439 -10.318172 1.365773 1.880790849211783e-38 1768976227
17.937414 -10.348156 1.238515 1.880790849211783e-38 1768976227
17.808199 -10.273612 -0.367397 1.880790849211783e-38 1768976227
17.797432 -10.267400 -0.480577 1.880790849211783e-38 1768976227
17.660492 -10.188399 0.352503 1.880790849211783e-38 1768976227
17.632479 -10.172238 0.247916 1.880790849211783e-38 1768976227
17.716722 -10.220840 -0.603828 1.880790849211783e-38 1768976227
17.575680 -10.139470 -0.698567 1.880790849211783e-38 1768976227
18.063473 -10.420880 0.126090 1.880790849211783e-38 1768976227
17.450365 -10.067177 0.014738 1.880790849211783e-38 1768976227
17.449879 -10.066895 4.044310 1.880790849211783e-38 1768976227
18.082062 -10.431605 3.973200 1.880790849211783e-38 1768976227
17.845879 -10.295350 3.757055 1.880790849211783e-38 1768976227
17.265345 -9.960438 3.455558 1.880790849211783e-38 1768976227
18.059004 -10.418303 4.901466 1.880790849211783e-38 1768976227
17.749453 -10.239720 4.691788 1.880790849211783e-38 1768976227
17.705210 -10.214197 3.376462 1.880790849211783e-38 1768976227
17.450729 -10.067387 3.150848 1.880790849211783e-38 1768976227
17.273109 -9.964917 4.374287 1.880790849211783e-38 1768976227
17.575960 -10.139632 4.301661 1.880790849211783e-38 1768976227
17.692280 -10.277981 2.553775 1.880790849211783e-38 1768976227
17.856901 -10.373614 2.472001 1.880790849211783e-38 1768976227
17.453070 -10.139017 -0.117266 1.880790849211783e-38 1768976227
17.149384 -9.962596 -0.228743 1.880790849211783e-38 1768976227
17.245729 -10.018566 2.269161 1.880790849211783e-38 1768976227
18.092424 -10.510435 2.235145 1.880790849211783e-38 1768976227
17.610525 -10.230487 3.054051 1.880790849211783e-38 1768976227
17.384760 -10.099333 2.883382 1.880790849211783e-38 1768976227
17.432581 -10.127114 2.062962 1.880790849211783e-38 1768976227
17.517443 -10.176412 1.940486 1.880790849211783e-38 1768976227
17.236088 -10.012965 2.748708 1.880790849211783e-38 1768976227
17.349661 -10.078943 2.651976 1.880790849211783e-38 1768976227
17.689291 -10.276245 1.089699 1.880790849211783e-38 1768976227
17.704374 -10.285007 0.990178 1.880790849211783e-38 1768976227
17.636358 -10.245494 1.803563 1.880790849211783e-38 1768976227
17.403831 -10.110413 1.689268 1.880790849211783e-38 1768976227
17.164833 -9.971572 0.826094 1.880790849211783e-38 1768976227
17.341839 -10.074400 0.740319 1.880790849211783e-38 1768976227
17.360987 -10.085524 1.557878 1.880790849211783e-38 1768976227
17.638414 -10.246689 1.453508 1.880790849211783e-38 1768976227
17.902674 -10.400206 0.624595 1.880790849211783e-38 1768976227
17.487104 -10.158789 0.510880 1.880790849211783e-38 1768976227
17.740438 -10.305958 1.357068 1.880790849211783e-38 1768976227
17.806454 -10.344307 1.231622 1.880790849211783e-38 1768976227
17.643036 -10.249373 -0.364626 1.880790849211783e-38 1768976227
17.639055 -10.247062 -0.477133 1.880790849211783e-38 1768976227
17.495653 -10.163754 0.349823 1.880790849211783e-38 1768976227
17.580416 -10.212995 0.247615 1.880790849211783e-38 1768976227
17.705015 -10.285379 -0.604484 1.880790849211783e-38 1768976227
17.723797 -10.296290 -0.705685 1.880790849211783e-38 1768976227
18.055370 -10.488912 0.126254 1.880790849211783e-38 1768976227
17.946016 -10.425385 0.015183 1.880790849211783e-38 1768976227
17.614271 -10.232663 4.089545 1.880790849211783e-38 1768976227
17.428022 -10.124466 3.836179 1.880790849211783e-38 1768976227
17.675972 -10.268507 3.727787 1.880790849211783e-38 1768976227
17.615717 -10.233502 3.531844 1.880790849211783e-38 1768976227
17.477444 -10.153175 4.751913 1.880790849211783e-38 1768976227
17.612545 -10.231662 4.663734 1.880790849211783e-38 1768976227
17.738520 -10.304843 3.388727 1.880790849211783e-38 1768976227
17.030125 -9.893315 3.080278 1.880790849211783e-38 1768976227
17.946789 -10.425833 4.552834 1.880790849211783e-38 1768976227
17.875391 -10.384355 4.382591 1.880790849211783e-38 1768976227
17.584108 -10.286197 2.542628 1.880790849211783e-38 1768976227
17.468861 -10.218781 2.422539 1.880790849211783e-38 1768976227
17.633966 -10.315363 -0.118690 1.880790849211783e-38 1768976227
17.689341 -10.347755 -0.236361 1.880790849211783e-38 1768976227
17.200035 -10.061525 2.267131 1.880790849211783e-38 1768976227
17.790644 -10.407015 2.201730 1.880790849211783e-38 1768976227
17.338840 -10.142722 3.012226 1.880790849211783e-38 1768976227
17.390102 -10.172709 2.889344 1.880790849211783e-38 1768976227
17.889797 -10.465015 2.120795 1.880790849211783e-38 1768976227
17.628635 -10.312243 1.956240 1.880790849211783e-38 1768976227
17.232021 -10.080237 2.752895 1.880790849211783e-38 1768976227
16.938299 -9.908417 2.593653 1.880790849211783e-38 1768976227
17.322250 -10.133018 1.068966 1.880790849211783e-38 1768976227
17.819057 -10.423635 0.998346 1.880790849211783e-38 1768976227
17.287323 -10.112586 1.770980 1.880790849211783e-38 1768976227
17.713659 -10.361979 1.722366 1.880790849211783e-38 1768976227
17.421537 -10.191097 0.839923 1.880790849211783e-38 1768976227
17.319450 -10.131379 0.740664 1.880790849211783e-38 1768976227
17.938337 -10.493412 1.612519 1.880790849211783e-38 1768976227
17.521456 -10.249547 1.446411 1.880790849211783e-38 1768976227
17.265911 -10.100060 0.603440 1.880790849211783e-38 1768976227
17.532316 -10.255899 0.513102 1.880790849211783e-38 1768976227
17.367949 -10.159749 1.330912 1.880790849211783e-38 1768976227
17.431828 -10.197116 1.207832 1.880790849211783e-38 1768976227
17.179436 -10.049475 -0.355669 1.880790849211783e-38 1768976227
17.314241 -10.128331 -0.469171 1.880790849211783e-38 1768976227
17.346802 -10.147381 0.347457 1.880790849211783e-38 1768976227
17.988585 -10.522803 0.253810 1.880790849211783e-38 1768976227
17.479589 -10.225056 -0.597838 1.880790849211783e-38 1768976227
17.191771 -10.056691 -0.685707 1.880790849211783e-38 1768976227
17.834589 -10.432720 0.124929 1.880790849211783e-38 1768976227
17.520149 -10.248783 0.014849 1.880790849211783e-38 1768976227
17.429531 -10.195774 4.053774 1.880790849211783e-38 1768976227
17.529985 -10.254537 3.865413 1.880790849211783e-38 1768976227
17.751040 -10.383847 5.061800 1.880790849211783e-38 1768976227
17.507854 -10.241591 3.698830 1.880790849211783e-38 1768976227
16.674576 -9.754148 3.349035 1.880790849211783e-38 1768976227
17.780331 -10.400982 4.842771 1.880790849211783e-38 1768976227
17.306290 -10.123682 4.590703 1.880790849211783e-38 1768976227
17.778641 -10.399993 3.402368 1.880790849211783e-38 1768976227
17.271465 -10.103310 3.129427 1.880790849211783e-38 1768976227
17.784889 -10.403647 4.519701 1.880790849211783e-38 1768976227
17.206684 -10.065414 4.226064 1.880790849211783e-38 1768976227
17.732782 -10.445070 2.568669 1.880790849211783e-38 1768976227
17.451197 -10.279210 2.424377 1.880790849211783e-38 1768976227
17.229673 -10.148727 -0.116174 1.880790849211783e-38 1768976227
17.535055 -10.328604 -0.234714 1.880790849211783e-38 1768976227
17.437460 -10.271119 2.302499 1.880790849211783e-38 1768976227
18.011429 -10.609202 2.233004 1.880790849211783e-38 1768976227
17.732439 -10.444869 3.086063 1.880790849211783e-38 1768976227
17.820078 -10.496491 2.966030 1.880790849211783e-38 1768976227
