# .PCD v0.7 - Point Cloud Data file format
VERSION 0.7
FIELDS x y z rgb label
SIZE 4 4 4 4 4
TYPE F F F F U
COUNT 1 1 1 1 1
WIDTH 763
HEIGHT 1
VIEWPOINT 0 0 0 1 0 0 0
POINTS 763
DATA ascii
-5.531614 43.787277 9.356590 1.880790849211783e-38 1768976227
-6.306774 51.163815 6.434170 1.880790849211783e-38 1768976227
-6.398634 51.909035 6.260604 1.880790849211783e-38 1768976227
-6.781878 55.018112 6.306962 1.880790849211783e-38 1768976227
-5.566707 45.160015 4.860643 1.880790849211783e-38 1768976227
-4.623621 37.509212 5.667254 1.880790849211783e-38 1768976227
-4.591318 37.247147 5.382170 1.880790849211783e-38 1768976227
-6.429891 52.162609 5.377985 1.880790849211783e-38 1768976227
-6.710804 54.441521 5.254129 1.880790849211783e-38 1768976227
-4.564408 37.028847 5.144710 1.880790849211783e-38 1768976227
-4.536836 36.805168 4.901378 1.880790849211783e-38 1768976227
-6.796799 55.139156 4.912619 1.880790849211783e-38 1768976227
-5.230462 42.432213 17.811811 1.880790849211783e-38 1768976227
-4.579320 37.149818 15.288354 1.880790849211783e-38 1768976227
-5.596047 45.398037 9.182866 1.880790849211783e-38 1768976227
-5.109519 41.451073 7.949089 1.880790849211783e-38 1768976227
-4.657875 37.787098 15.184827 1.880790849211783e-38 1768976227
-4.546140 36.880646 14.410382 1.880790849211783e-38 1768976227
-4.683578 37.995609 17.765007 1.880790849211783e-38 1768976227
-4.862008 39.443134 17.913755 1.880790849211783e-38 1768976227
-4.461215 36.191692 13.753572 1.880790849211783e-38 1768976227
-5.010798 40.650185 14.920428 1.880790849211783e-38 1768976227
-5.140365 41.701305 18.484131 1.880790849211783e-38 1768976227
-5.201488 42.197166 18.104240 1.880790849211783e-38 1768976227
-5.247598 42.571236 12.635627 1.880790849211783e-38 1768976227
-5.028004 40.789772 11.796023 1.880790849211783e-38 1768976227
-4.924149 39.947247 14.193442 1.880790849211783e-38 1768976227
-5.001714 40.576496 14.157942 1.880790849211783e-38 1768976227
-5.124923 41.576035 11.612372 1.880790849211783e-38 1768976227
-5.187819 42.086285 11.373487 1.880790849211783e-38 1768976227
-5.087831 41.275124 14.036161 1.880790849211783e-38 1768976227
-5.146825 41.753712 13.794725 1.880790849211783e-38 1768976227
-5.355662 43.447910 11.294023 1.880790849211783e-38 1768976227
-5.559374 45.100525 11.184850 1.880790849211783e-38 1768976227
-5.209035 42.258400 13.500171 1.880790849211783e-38 1768976227
-5.240025 42.509800 13.090181 1.880790849211783e-38 1768976227
-5.627008 45.649208 8.387489 1.880790849211783e-38 1768976227
-5.097011 41.349594 7.222762 1.880790849211783e-38 1768976227
-5.179615 42.019722 9.953471 1.880790849211783e-38 1768976227
-5.267044 42.728996 9.857465 1.880790849211783e-38 1768976227
-4.972001 40.335445 6.713312 1.880790849211783e-38 1768976227
-4.678751 37.956455 5.981203 1.880790849211783e-38 1768976227
-5.363654 43.512741 9.617061 1.880790849211783e-38 1768976227
-5.405805 43.854698 9.367471 1.880790849211783e-38 1768976227
-4.396992 36.578930 4.598341 1.880790849211783e-38 1768976227
-6.249550 51.990509 6.268128 1.880790849211783e-38 1768976227
-6.596856 54.879776 6.288795 1.880790849211783e-38 1768976227
-5.420191 45.091003 4.851434 1.880790849211783e-38 1768976227
-4.538522 37.756332 5.702497 1.880790849211783e-38 1768976227
-4.484462 37.306602 5.388783 1.880790849211783e-38 1768976227
-6.281612 52.257233 5.385764 1.880790849211783e-38 1768976227
-6.537076 54.382462 5.246502 1.880790849211783e-38 1768976227
-4.458149 37.087700 5.150995 1.880790849211783e-38 1768976227
-4.431185 36.863384 4.907329 1.880790849211783e-38 1768976227
-6.623683 55.102955 4.907592 1.880790849211783e-38 1768976227
-5.101888 42.443012 17.809805 1.880790849211783e-38 1768976227
-4.435124 36.896156 15.178391 1.880790849211783e-38 1768976227
-5.772698 48.023540 9.710373 1.880790849211783e-38 1768976227
-4.993570 41.541912 7.963585 1.880790849211783e-38 1768976227
-4.519007 37.593983 15.101679 1.880790849211783e-38 1768976227
-4.458771 37.092880 14.487988 1.880790849211783e-38 1768976227
-4.561897 37.950790 17.737539 1.880790849211783e-38 1768976227
-4.732471 39.369804 17.873888 1.880790849211783e-38 1768976227
-4.351759 36.202633 13.752681 1.880790849211783e-38 1768976227
-4.268130 35.506920 13.027836 1.880790849211783e-38 1768976227
-5.016388 41.731739 18.490829 1.880790849211783e-38 1768976227
-5.072931 42.202122 18.099720 1.880790849211783e-38 1768976227
-5.101495 42.439751 12.591975 1.880790849211783e-38 1768976227
-4.895970 40.729973 11.774406 1.880790849211783e-38 1768976227
-4.807681 39.995483 14.205364 1.880790849211783e-38 1768976227
-4.885020 40.638882 14.174504 1.880790849211783e-38 1768976227
-4.990169 41.513618 11.590683 1.880790849211783e-38 1768976227
-5.049062 42.003563 11.346965 1.880790849211783e-38 1768976227
-4.970424 41.349358 14.056244 1.880790849211783e-38 1768976227
-5.017038 41.737144 13.784190 1.880790849211783e-38 1768976227
-5.257658 43.738884 11.365486 1.880790849211783e-38 1768976227
-5.436880 45.229843 11.212802 1.880790849211783e-38 1768976227
-5.073565 42.207394 13.478928 1.880790849211783e-38 1768976227
-5.102914 42.451557 13.067450 1.880790849211783e-38 1768976227
-5.557437 46.232769 8.491592 1.880790849211783e-38 1768976227
-4.975074 41.388046 7.226825 1.880790849211783e-38 1768976227
-5.062138 42.112331 9.971746 1.880790849211783e-38 1768976227
-5.141665 42.773926 9.864207 1.880790849211783e-38 1768976227
-4.861703 40.444897 6.729057 1.880790849211783e-38 1768976227
-4.812483 40.035435 6.306494 1.880790849211783e-38 1768976227
-5.236480 43.562702 9.624568 1.880790849211783e-38 1768976227
-5.279692 43.922184 9.378443 1.880790849211783e-38 1768976227
-4.291883 36.636539 4.603935 1.880790849211783e-38 1768976227
-6.100123 52.072121 6.275721 1.880790849211783e-38 1768976227
-5.268991 44.977371 5.152212 1.880790849211783e-38 1768976227
-4.485487 38.289192 5.780908 1.880790849211783e-38 1768976227
-4.398859 37.549709 5.421957 1.880790849211783e-38 1768976227
-6.361219 54.300896 5.236759 1.880790849211783e-38 1768976227
-4.351650 37.146732 5.157348 1.880790849211783e-38 1768976227
-4.325297 36.921780 4.913343 1.880790849211783e-38 1768976227
-6.450941 55.066776 4.902615 1.880790849211783e-38 1768976227
-4.973353 42.453732 17.807928 1.880790849211783e-38 1768976227
-4.269633 36.446613 14.988092 1.880790849211783e-38 1768976227
-5.630081 48.059719 9.714211 1.880790849211783e-38 1768976227
-5.977545 51.025753 9.778138 1.880790849211783e-38 1768976227
-4.381649 37.402805 15.019505 1.880790849211783e-38 1768976227
-4.741903 40.478020 15.804523 1.880790849211783e-38 1768976227
-4.440651 37.906460 17.710482 1.880790849211783e-38 1768976227
-4.603568 39.297157 17.834522 1.880790849211783e-38 1768976227
-4.252641 36.301567 13.785330 1.880790849211783e-38 1768976227
-4.160832 35.517860 13.027188 1.880790849211783e-38 1768976227
-4.889278 41.736057 18.486126 1.880790849211783e-38 1768976227
-4.943619 42.199913 18.092297 1.880790849211783e-38 1768976227
-5.186880 44.276451 13.132229 1.880790849211783e-38 1768976227
-4.755837 40.596962 11.731756 1.880790849211783e-38 1768976227
-4.683876 39.982685 14.195737 1.880790849211783e-38 1768976227
-4.768034 40.701077 14.191118 1.880790849211783e-38 1768976227
-4.855913 41.451244 11.569127 1.880790849211783e-38 1768976227
-4.910957 41.921108 11.320639 1.880790849211783e-38 1768976227
-4.852678 41.423622 14.076450 1.880790849211783e-38 1768976227
-4.894820 41.783356 13.794514 1.880790849211783e-38 1768976227
-5.156673 44.018604 11.434078 1.880790849211783e-38 1768976227
-5.287804 45.137962 11.186021 1.880790849211783e-38 1768976227
-4.937778 42.150055 13.455800 1.880790849211783e-38 1768976227
-4.966294 42.393482 13.044903 1.880790849211783e-38 1768976227
-5.400443 46.099476 8.464082 1.880790849211783e-38 1768976227
-4.853030 41.426628 7.230974 1.880790849211783e-38 1768976227
-4.944195 42.204838 9.990076 1.880790849211783e-38 1768976227
-5.016112 42.818741 9.871010 1.880790849211783e-38 1768976227
-4.753487 40.576904 6.748605 1.880790849211783e-38 1768976227
-4.702701 40.143379 6.321235 1.880790849211783e-38 1768976227
-5.108679 43.608906 9.631330 1.880790849211783e-38 1768976227
-5.153292 43.989735 9.389505 1.880790849211783e-38 1768976227
-4.186503 36.694332 4.609591 1.880790849211783e-38 1768976227
-5.950305 52.153900 6.283386 1.880790849211783e-38 1768976227
-5.119264 44.869900 5.138109 1.880790849211783e-38 1768976227
-5.374977 47.111198 7.110376 1.880790849211783e-38 1768976227
-4.332096 37.970440 5.480797 1.880790849211783e-38 1768976227
-6.185976 54.219528 5.227089 1.880790849211783e-38 1768976227
-4.271077 37.435616 5.195643 1.880790849211783e-38 1768976227
-4.219140 36.980389 4.919427 1.880790849211783e-38 1768976227
-4.828085 42.317741 17.744696 1.880790849211783e-38 1768976227
-4.244093 37.199100 15.292208 1.880790849211783e-38 1768976227
-5.087862 44.594666 9.010684 1.880790849211783e-38 1768976227
-5.808515 50.911118 9.752769 1.880790849211783e-38 1768976227
-4.245732 37.213467 14.938264 1.880790849211783e-38 1768976227
-4.639768 40.667152 15.872833 1.880790849211783e-38 1768976227
-4.323459 37.894733 17.698832 1.880790849211783e-38 1768976227
-4.475574 39.228016 17.796936 1.880790849211783e-38 1768976227
-4.156609 36.432312 13.830156 1.880790849211783e-38 1768976227
-4.053548 35.528988 13.026726 1.880790849211783e-38 1768976227
-4.758990 41.712124 18.469086 1.880790849211783e-38 1768976227
-4.811832 42.175285 18.075434 1.880790849211783e-38 1768976227
-5.270603 46.196365 13.696891 1.880790849211783e-38 1768976227
-4.616389 40.462242 11.688747 1.880790849211783e-38 1768976227
-4.560175 39.969532 14.186121 1.880790849211783e-38 1768976227
-4.642478 40.690899 14.182625 1.880790849211783e-38 1768976227
-4.722110 41.388874 11.547691 1.880790849211783e-38 1768976227
-4.773454 41.838902 11.294501 1.880790849211783e-38 1768976227
-4.723237 41.398754 14.063095 1.880790849211783e-38 1768976227
-4.762200 41.740261 13.775482 1.880790849211783e-38 1768976227
-5.014143 43.948517 11.411893 1.880790849211783e-38 1768976227
-4.993859 43.770737 10.843414 1.880790849211783e-38 1768976227
-4.802427 42.092850 13.432853 1.880790849211783e-38 1768976227
-4.829722 42.332092 13.021471 1.880790849211783e-38 1768976227
-5.086318 44.581123 8.182450 1.880790849211783e-38 1768976227
-5.328248 46.701622 8.148876 1.880790849211783e-38 1768976227
-4.825292 42.293255 10.007514 1.880790849211783e-38 1768976227
-4.890348 42.863468 9.877875 1.880790849211783e-38 1768976227
-4.668741 40.921101 6.803478 1.880790849211783e-38 1768976227
-4.592391 40.251907 6.336114 1.880790849211783e-38 1768976227
-4.980656 43.655010 9.638149 1.880790849211783e-38 1768976227
-5.026560 44.057354 9.400660 1.880790849211783e-38 1768976227
-4.080870 36.752319 4.615308 1.880790849211783e-38 1768976227
-4.059038 36.555702 4.402655 1.880790849211783e-38 1768976227
-4.969735 44.757435 5.123491 1.880790849211783e-38 1768976227
-5.226978 47.074169 7.102376 1.880790849211783e-38 1768976227
-4.287572 38.613876 5.571781 1.880790849211783e-38 1768976227
-6.011364 54.138355 5.217492 1.880790849211783e-38 1768976227
-4.198594 37.812546 5.246176 1.880790849211783e-38 1768976227
-4.142180 37.304482 4.960856 1.880790849211783e-38 1768976227
-4.567562 41.135468 17.243090 1.880790849211783e-38 1768976227
-4.125818 37.157120 15.269765 1.880790849211783e-38 1768976227
-4.959342 44.663841 9.021598 1.880790849211783e-38 1768976227
-4.942088 44.508450 8.523350 1.880790849211783e-38 1768976227
-4.111257 37.025986 14.857960 1.880790849211783e-38 1768976227
-4.536189 40.852921 15.939929 1.880790849211783e-38 1768976227
-4.211236 37.926395 17.707603 1.880790849211783e-38 1768976227
-4.353207 39.204983 17.780451 1.880790849211783e-38 1768976227
-4.059981 36.564190 13.875507 1.880790849211783e-38 1768976227
-3.949927 35.573048 13.038453 1.880790849211783e-38 1768976227
-4.180498 37.649567 16.664629 1.880790849211783e-38 1768976227
-4.675288 42.105652 18.039463 1.880790849211783e-38 1768976227
-4.808771 43.307796 12.836092 1.880790849211783e-38 1768976227
-4.477894 40.327911 11.645989 1.880790849211783e-38 1768976227
-4.436602 39.956047 14.176520 1.880790849211783e-38 1768976227
-4.516619 40.676678 14.172853 1.880790849211783e-38 1768976227
-4.586992 41.310459 11.521901 1.880790849211783e-38 1768976227
-4.643855 41.822563 11.286258 1.880790849211783e-38 1768976227
-4.593661 41.370518 14.048733 1.880790849211783e-38 1768976227
-4.629326 41.691715 13.754790 1.880790849211783e-38 1768976227
-4.872164 43.878712 11.389899 1.880790849211783e-38 1768976227
-4.928415 44.385315 10.991933 1.880790849211783e-38 1768976227
-4.667529 42.035774 13.410086 1.880790849211783e-38 1768976227
-4.686033 42.202415 12.977177 1.880790849211783e-38 1768976227
-5.057635 45.549072 8.357270 1.880790849211783e-38 1768976227
-5.173043 46.588432 8.126367 1.880790849211783e-38 1768976227
-4.650812 41.885220 9.907600 1.880790849211783e-38 1768976227
-4.761595 42.882931 9.879006 1.880790849211783e-38 1768976227
-4.547986 40.959164 6.807495 1.880790849211783e-38 1768976227
-5.219516 47.006969 7.396928 1.880790849211783e-38 1768976227
-4.852433 43.701019 9.645033 1.880790849211783e-38 1768976227
-4.899516 44.125046 9.411908 1.880790849211783e-38 1768976227
-3.998987 37.032837 4.648999 1.880790849211783e-38 1768976227
-3.953685 36.613316 4.408138 1.880790849211783e-38 1768976227
-5.079307 47.037193 7.094454 1.880790849211783e-38 1768976227
-5.165644 47.836720 6.900310 1.880790849211783e-38 1768976227
-5.837380 54.057369 5.207967 1.880790849211783e-38 1768976227
-4.151097 38.441456 5.331670 1.880790849211783e-38 1768976227
-4.068740 37.678787 5.008978 1.880790849211783e-38 1768976227
-4.447262 41.184101 17.257776 1.880790849211783e-38 1768976227
-4.007943 37.115772 15.247737 1.880790849211783e-38 1768976227
-4.798009 44.432220 8.971849 1.880790849211783e-38 1768976227
-5.734327 53.103039 10.165853 1.880790849211783e-38 1768976227
-3.978197 36.840309 14.778569 1.880790849211783e-38 1768976227
-4.431691 41.039913 16.007601 1.880790849211783e-38 1768976227
-4.098956 37.958603 17.716791 1.880790849211783e-38 1768976227
-4.231106 39.182388 17.764334 1.880790849211783e-38 1768976227
-3.962746 36.697220 13.921391 1.880790849211783e-38 1768976227
-3.854981 35.699261 13.080391 1.880790849211783e-38 1768976227
-4.073151 37.719631 16.690128 1.880790849211783e-38 1768976227
-4.532484 41.973305 17.976824 1.880790849211783e-38 1768976227
-4.675096 43.293980 12.827760 1.880790849211783e-38 1768976227
-4.340344 40.193989 11.603480 1.880790849211783e-38 1768976227
-4.313159 39.942234 14.166940 1.880790849211783e-38 1768976227
-4.390894 40.662109 14.163099 1.880790849211783e-38 1768976227
-4.452286 41.230640 11.495841 1.880790849211783e-38 1768976227
-4.742113 43.914597 11.846901 1.880790849211783e-38 1768976227
-4.462245 41.322857 14.027915 1.880790849211783e-38 1768976227
-4.496838 41.643208 13.734249 1.880790849211783e-38 1768976227
-4.730734 43.809216 11.368104 1.880790849211783e-38 1768976227
-4.825679 44.688454 11.063351 1.880790849211783e-38 1768976227
-4.533081 41.978844 13.387501 1.880790849211783e-38 1768976227
-4.543319 42.073647 12.933308 1.880790849211783e-38 1768976227
-4.935325 45.703842 8.382898 1.880790849211783e-38 1768976227
-5.016187 46.452667 8.100010 1.880790849211783e-38 1768976227
-4.405183 40.794426 9.646396 1.880790849211783e-38 1768976227
-4.600983 42.607647 9.812347 1.880790849211783e-38 1768976227
-5.051569 46.780323 7.772416 1.880790849211783e-38 1768976227
-5.071393 46.963905 7.387712 1.880790849211783e-38 1768976227
-4.697411 43.500626 9.597635 1.880790849211783e-38 1768976227
-4.754314 44.027580 9.388017 1.880790849211783e-38 1768976227
-3.924743 37.401756 4.693805 1.880790849211783e-38 1768976227
-5.498601 52.400211 6.306808 1.880790849211783e-38 1768976227
-4.931963 47.000298 7.086613 1.880790849211783e-38 1768976227
-5.020977 47.848579 6.899804 1.880790849211783e-38 1768976227
-5.327857 50.773064 7.039752 1.880790849211783e-38 1768976227
-4.012786 38.240784 5.082057 1.880790849211783e-38 1768976227
-4.326733 41.232616 17.272556 1.880790849211783e-38 1768976227
-3.942322 37.569279 15.429090 1.880790849211783e-38 1768976227
-4.661964 44.427273 8.967971 1.880790849211783e-38 1768976227
-4.770445 45.461075 8.700109 1.880790849211783e-38 1768976227
-3.843737 36.629791 14.689402 1.880790849211783e-38 1768976227
-4.323124 41.198219 16.064190 1.880790849211783e-38 1768976227
-3.986611 37.991341 17.726377 1.880790849211783e-38 1768976227
-4.109269 39.160240 17.748594 1.880790849211783e-38 1768976227
-3.871666 36.895947 13.992287 1.880790849211783e-38 1768976227
-3.759449 35.826553 13.122818 1.880790849211783e-38 1768976227
-3.965383 37.789043 16.715471 1.880790849211783e-38 1768976227
-4.389807 41.833691 17.911278 1.880790849211783e-38 1768976227
-4.579130 43.637886 12.925507 1.880790849211783e-38 1768976227
-4.203734 40.060463 11.561220 1.880790849211783e-38 1768976227
-4.189840 39.928062 14.157367 1.880790849211783e-38 1768976227
-4.265302 40.647194 14.153359 1.880790849211783e-38 1768976227
-4.318175 41.151058 11.469970 1.880790849211783e-38 1768976227
-4.448370 42.391788 11.432420 1.880790849211783e-38 1768976227
-4.331207 41.275246 14.007255 1.880790849211783e-38 1768976227
-4.364734 41.594753 13.713865 1.880790849211783e-38 1768976227
-4.589845 43.740002 11.346500 1.880790849211783e-38 1768976227
-5.149707 49.075340 12.145494 1.880790849211783e-38 1768976227
-4.399076 41.922035 13.365091 1.880790849211783e-38 1768976227
-4.395617 41.889053 12.872430 1.880790849211783e-38 1768976227
-4.762407 45.384480 8.321650 1.880790849211783e-38 1768976227
-4.860330 46.317654 8.073874 1.880790849211783e-38 1768976227
-4.696859 44.759815 10.580667 1.880790849211783e-38 1768976227
-4.442502 42.335869 9.746628 1.880790849211783e-38 1768976227
-4.901560 46.710556 7.758333 1.880790849211783e-38 1768976227
-4.923538 46.920002 7.378436 1.880790849211783e-38 1768976227
-4.534973 43.217083 9.532015 1.880790849211783e-38 1768976227
-4.590070 43.742149 9.324160 1.880790849211783e-38 1768976227
-4.509704 44.262043 5.553017 1.880790849211783e-38 1768976227
-5.347271 52.482639 6.314760 1.880790849211783e-38 1768976227
-5.405890 53.057972 6.067826 1.880790849211783e-38 1768976227
-4.784943 46.963470 7.078852 1.880790849211783e-38 1768976227
-4.943312 48.517845 6.994132 1.880790849211783e-38 1768976227
-5.167503 50.718243 7.029959 1.880790849211783e-38 1768976227
-3.962704 38.893326 5.167165 1.880790849211783e-38 1768976227
-4.205975 41.280994 17.287430 1.880790849211783e-38 1768976227
-3.874367 38.026314 15.611917 1.880790849211783e-38 1768976227
-4.499609 44.162960 8.911838 1.880790849211783e-38 1768976227
-5.535560 54.330666 10.394283 1.880790849211783e-38 1768976227
-4.265460 41.864822 16.783537 1.880790849211783e-38 1768976227
-4.093838 40.180386 15.662425 1.880790849211783e-38 1768976227
-3.874195 38.024624 17.736376 1.880790849211783e-38 1768976227
-3.987688 39.138542 17.733227 1.880790849211783e-38 1768976227
-3.786238 37.161346 14.088541 1.880790849211783e-38 1768976227
-3.663319 35.954910 13.165728 1.880790849211783e-38 1768976227
-3.857198 37.857800 16.740664 1.880790849211783e-38 1768976227
-4.248163 41.695065 17.846357 1.880790849211783e-38 1768976227
-4.448070 43.657116 12.927169 1.880790849211783e-38 1768976227
-4.460455 43.778679 12.630336 1.880790849211783e-38 1768976227
-4.066651 39.913551 14.147809 1.880790849211783e-38 1768976227
-4.136384 40.597973 14.131812 1.880790849211783e-38 1768976227
-4.184652 41.071712 11.444283 1.880790849211783e-38 1768976227
-4.318812 42.388470 11.427960 1.880790849211783e-38 1768976227
-4.198523 41.207851 13.980022 1.880790849211783e-38 1768976227
-4.233009 41.546329 13.693628 1.880790849211783e-38 1768976227
-4.449492 43.671078 11.325089 1.880790849211783e-38 1768976227
-5.037081 49.438168 12.231474 1.880790849211783e-38 1768976227
-4.265513 41.865353 13.342859 1.880790849211783e-38 1768976227
-4.303693 42.240089 12.976254 1.880790849211783e-38 1768976227
-4.618102 45.325958 8.308328 1.880790849211783e-38 1768976227
-4.705460 46.183361 8.047955 1.880790849211783e-38 1768976227
-4.753772 46.657532 11.025826 1.880790849211783e-38 1768976227
-4.277469 41.982689 9.662305 1.880790849211783e-38 1768976227
-4.751259 46.632877 7.743015 1.880790849211783e-38 1768976227
-4.773356 46.849758 7.365092 1.880790849211783e-38 1768976227
-4.374720 42.937202 9.467331 1.880790849211783e-38 1768976227
-4.428033 43.460461 9.261226 1.880790849211783e-38 1768976227
-5.121076 51.811729 6.498216 1.880790849211783e-38 1768976227
-5.195554 52.565243 6.322785 1.880790849211783e-38 1768976227
-5.217524 52.787525 6.035069 1.880790849211783e-38 1768976227
-4.638242 46.926727 7.071173 1.880790849211783e-38 1768976227
-4.791537 48.477669 6.986225 1.880790849211783e-38 1768976227
-5.007582 50.663464 7.020240 1.880790849211783e-38 1768976227
-4.353286 44.043724 5.849650 1.880790849211783e-38 1768976227
-4.084988 41.329262 17.302404 1.880790849211783e-38 1768976227
-4.118579 41.669113 17.102310 1.880790849211783e-38 1768976227
-4.654082 47.086983 9.499013 1.880790849211783e-38 1768976227
-5.381088 54.442352 10.412499 1.880790849211783e-38 1768976227
-4.284318 43.345951 17.372061 1.880790849211783e-38 1768976227
-4.013526 40.606255 15.823640 1.880790849211783e-38 1768976227
-3.761701 38.058449 17.746778 1.880790849211783e-38 1768976227
-3.866356 39.117283 17.718229 1.880790849211783e-38 1768976227
-3.699675 37.430916 14.186444 1.880790849211783e-38 1768976227
-3.566583 36.084373 13.209134 1.880790849211783e-38 1768976227
-3.748599 37.925888 16.765697 1.880790849211783e-38 1768976227
-4.107539 41.557415 17.782057 1.880790849211783e-38 1768976227
-4.316970 43.676304 12.928937 1.880790849211783e-38 1768976227
-4.176280 42.252895 12.186453 1.880790849211783e-38 1768976227
-3.943594 39.898727 14.138273 1.880790849211783e-38 1768976227
-4.005400 40.524036 14.101807 1.880790849211783e-38 1768976227
-4.051712 40.992596 11.418781 1.880790849211783e-38 1768976227
-4.189543 42.387081 11.424128 1.880790849211783e-38 1768976227
-4.065255 41.129608 13.949254 1.880790849211783e-38 1768976227
-4.101662 41.497955 13.673546 1.880790849211783e-38 1768976227
-4.309669 43.602432 11.303864 1.880790849211783e-38 1768976227
-4.892639 49.500546 12.243201 1.880790849211783e-38 1768976227
-4.132387 41.808811 13.320807 1.880790849211783e-38 1768976227
-4.217389 42.668812 13.103992 1.880790849211783e-38 1768976227
-4.474262 45.267677 8.295134 1.880790849211783e-38 1768976227
-4.551568 46.049812 8.022254 1.880790849211783e-38 1768976227
-4.449450 45.016647 10.634842 1.880790849211783e-38 1768976227
-4.083931 41.318573 9.506579 1.880790849211783e-38 1768976227
-4.600871 46.548622 7.726686 1.880790849211783e-38 1768976227
-4.623713 46.779736 7.351858 1.880790849211783e-38 1768976227
-4.216609 42.660912 9.403563 1.880790849211783e-38 1768976227
-4.268156 43.182430 9.199194 1.880790849211783e-38 1768976227
-4.957841 51.754143 6.489089 1.880790849211783e-38 1768976227
-5.037766 52.588463 6.323722 1.880790849211783e-38 1768976227
-5.064823 52.870914 6.042830 1.880790849211783e-38 1768976227
-4.640164 48.437962 6.978454 1.880790849211783e-38 1768976227
-4.847113 50.598267 7.009149 1.880790849211783e-38 1768976227
-4.208815 43.935177 5.833521 1.880790849211783e-38 1768976227
-3.973614 41.479950 17.360395 1.880790849211783e-38 1768976227
-3.977552 41.521049 17.036541 1.880790849211783e-38 1768976227
-4.342286 45.328453 9.141576 1.880790849211783e-38 1768976227
-5.226107 54.554531 10.430891 1.880790849211783e-38 1768976227
-4.155237 43.375885 17.378956 1.880790849211783e-38 1768976227
-3.890149 40.608669 15.819937 1.880790849211783e-38 1768976227
-3.661025 38.216877 17.815426 1.880790849211783e-38 1768976227
-3.745949 39.103386 17.706739 1.880790849211783e-38 1768976227
-3.960719 41.345341 15.665427 1.880790849211783e-38 1768976227
-3.469247 36.214935 13.253039 1.880790849211783e-38 1768976227
-3.655972 38.164131 16.866064 1.880790849211783e-38 1768976227
-3.915024 40.868340 17.482077 1.880790849211783e-38 1768976227
-4.185852 43.695465 12.930814 1.880790849211783e-38 1768976227
-4.197509 43.817158 12.633904 1.880790849211783e-38 1768976227
-3.820685 39.883545 14.128746 1.880790849211783e-38 1768976227
-3.874967 40.450195 14.071980 1.880790849211783e-38 1768976227
-3.927460 40.998158 11.416980 1.880790849211783e-38 1768976227
-4.095889 42.756359 11.520273 1.880790849211783e-38 1768976227
-3.932574 41.051540 13.918692 1.880790849211783e-38 1768976227
-3.970709 41.449627 13.653612 1.880790849211783e-38 1768976227
-4.170391 43.534077 11.282832 1.880790849211783e-38 1768976227
-4.305043 44.939690 11.111881 1.880790849211783e-38 1768976227
-3.999439 41.749535 13.298017 1.880790849211783e-38 1768976227
-4.111903 42.923531 13.178351 1.880790849211783e-38 1768976227
-4.330907 45.209675 8.282074 1.880790849211783e-38 1768976227
-4.398665 45.917000 7.996769 1.880790849211783e-38 1768976227
-4.485178 46.820087 11.057645 1.880790849211783e-38 1768976227
-4.441276 46.361794 10.663795 1.880790849211783e-38 1768976227
-4.451133 46.464695 7.710492 1.880790849211783e-38 1768976227
-4.474626 46.709938 7.338735 1.880790849211783e-38 1768976227
-4.060620 42.388191 9.340707 1.880790849211783e-38 1768976227
-4.110418 42.908028 9.138056 1.880790849211783e-38 1768976227
-4.080520 43.993301 5.514444 1.880790849211783e-38 1768976227
-4.879547 52.607841 6.324254 1.880790849211783e-38 1768976227
-4.911701 52.954502 6.050663 1.880790849211783e-38 1768976227
-4.057318 43.743145 6.057817 1.880790849211783e-38 1768976227
-4.656940 50.207844 6.664483 1.880790849211783e-38 1768976227
-3.834744 41.343521 17.298376 1.880790849211783e-38 1768976227
-3.985066 42.964176 17.623659 1.880790849211783e-38 1768976227
-4.199914 45.280510 9.129312 1.880790849211783e-38 1768976227
-5.072377 54.686806 10.453210 1.880790849211783e-38 1768976227
-3.698582 39.875519 15.971958 1.880790849211783e-38 1768976227
-3.767005 40.613205 15.817206 1.880790849211783e-38 1768976227
-3.545597 38.226135 17.814674 1.880790849211783e-38 1768976227
-3.644441 39.291798 17.786999 1.880790849211783e-38 1768976227
-3.835330 41.349831 15.662676 1.880790849211783e-38 1768976227
-3.756514 40.500092 14.816998 1.880790849211783e-38 1768976227
-3.571238 38.502583 17.010801 1.880790849211783e-38 1768976227
-3.800823 40.977802 17.523916 1.880790849211783e-38 1768976227
-3.981868 42.929707 12.700590 1.880790849211783e-38 1768976227
-4.065962 43.836349 12.635844 1.880790849211783e-38 1768976227
-3.697888 39.868034 14.119237 1.880790849211783e-38 1768976227
-3.745042 40.376408 14.042317 1.880790849211783e-38 1768976227
-3.887411 41.911331 11.667958 1.880790849211783e-38 1768976227
-4.000605 43.131714 11.618105 1.880790849211783e-38 1768976227
-3.800434 40.973610 13.888321 1.880790849211783e-38 1768976227
-3.840108 41.401340 13.633830 1.880790849211783e-38 1768976227
-4.031611 43.465992 11.261984 1.880790849211783e-38 1768976227
-4.602915 49.625393 12.266991 1.880790849211783e-38 1768976227
-3.858116 41.595497 13.245186 1.880790849211783e-38 1768976227
-4.020989 43.351475 13.305954 1.880790849211783e-38 1768976227
-4.187984 45.151909 8.269139 1.880790849211783e-38 1768976227
-3.767169 40.614967 7.071373 1.880790849211783e-38 1768976227
-4.174760 45.009331 10.626971 1.880790849211783e-38 1768976227
-4.123603 44.457787 10.222942 1.880790849211783e-38 1768976227
-3.839424 41.393970 6.867086 1.880790849211783e-38 1768976227
-3.906660 42.118858 9.278718 1.880790849211783e-38 1768976227
-3.954727 42.637096 9.077774 1.880790849211783e-38 1768976227
-3.945501 43.979580 5.511207 1.880790849211783e-38 1768976227
-4.721293 52.627155 6.324835 1.880790849211783e-38 1768976227
-4.758175 53.038265 6.058567 1.880790849211783e-38 1768976227
-3.914694 43.636181 6.041342 1.880790849211783e-38 1768976227
-4.522332 50.409374 6.689393 1.880790849211783e-38 1768976227
-3.673570 40.948433 17.128355 1.880790849211783e-38 1768976227
-3.870110 43.139206 17.690586 1.880790849211783e-38 1768976227
-4.250967 47.384537 9.550890 1.880790849211783e-38 1768976227
-4.079966 45.478428 8.690666 1.880790849211783e-38 1768976227
-3.577707 39.879860 15.969303 1.880790849211783e-38 1768976227
-3.643882 40.617500 15.814528 1.880790849211783e-38 1768976227
-3.444772 38.398075 17.889883 1.880790849211783e-38 1768976227
-3.542124 39.483223 17.868738 1.880790849211783e-38 1768976227
-3.709963 41.354084 15.659976 1.880790849211783e-38 1768976227
-3.711084 41.366577 15.129842 1.880790849211783e-38 1768976227
-3.484996 38.846436 17.157997 1.880790849211783e-38 1768976227
-3.686811 41.096020 17.569637 1.880790849211783e-38 1768976227
-3.773093 42.057789 12.439214 1.880790849211783e-38 1768976227
-3.934369 43.855492 12.637884 1.880790849211783e-38 1768976227
-3.573322 39.830990 14.102237 1.880790849211783e-38 1768976227
-3.615639 40.302685 14.012822 1.880790849211783e-38 1768976227
-3.787224 42.215309 11.749351 1.880790849211783e-38 1768976227
-3.903662 43.513214 11.717643 1.880790849211783e-38 1768976227
-3.668852 40.895840 13.858146 1.880790849211783e-38 1768976227
-3.709874 41.353092 13.614195 1.880790849211783e-38 1768976227
-3.893341 43.398170 11.241318 1.880790849211783e-38 1768976227
-4.457604 49.687874 12.279056 1.880790849211783e-38 1768976227
-3.735605 41.639912 13.255681 1.880790849211783e-38 1768976227
-3.906426 43.544018 13.361376 1.880790849211783e-38 1768976227
-4.045513 45.094379 8.256332 1.880790849211783e-38 1768976227
-3.640824 40.583416 7.063935 1.880790849211783e-38 1768976227
-3.977652 44.337959 10.465576 1.880790849211783e-38 1768976227
-4.056001 45.211292 10.393349 1.880790849211783e-38 1768976227
-3.710581 41.360977 6.859726 1.880790849211783e-38 1768976227
-3.788613 42.230785 6.631290 1.880790849211783e-38 1768976227
-3.754712 41.852894 9.217590 1.880790849211783e-38 1768976227
-3.801068 42.369614 9.018343 1.880790849211783e-38 1768976227
-3.810645 43.965942 5.508033 1.880790849211783e-38 1768976227
-3.864399 44.586136 5.357024 1.880790849211783e-38 1768976227
-4.599393 53.066254 6.060151 1.880790849211783e-38 1768976227
-3.714435 42.855896 6.450537 1.880790849211783e-38 1768976227
-3.765913 43.449841 6.254651 1.880790849211783e-38 1768976227
-4.345767 50.140003 6.939937 1.880790849211783e-38 1768976227
-4.406201 50.837265 6.744380 1.880790849211783e-38 1768976227
-3.676705 42.420589 17.739428 1.880790849211783e-38 1768976227
-3.741534 43.168560 17.697916 1.880790849211783e-38 1768976227
-4.115600 47.484409 9.568475 1.880790849211783e-38 1768976227
-3.937874 45.433865 8.679841 1.880790849211783e-38 1768976227
-3.456849 39.883961 15.966697 1.880790849211783e-38 1768976227
-3.520779 40.621559 15.811902 1.880790849211783e-38 1768976227
-3.343072 38.571243 17.965784 1.880790849211783e-38 1768976227
-3.416361 39.416824 17.833942 1.880790849211783e-38 1768976227
-3.641839 42.018311 15.907274 1.880790849211783e-38 1768976227
-3.600499 41.541340 15.189720 1.880790849211783e-38 1768976227
-3.397208 39.195839 17.307720 1.880790849211783e-38 1768976227
-3.519624 40.608231 17.356478 1.880790849211783e-38 1768976227
-3.792162 43.752693 12.937066 1.880790849211783e-38 1768976227
-3.802729 43.874611 12.640031 1.880790849211783e-38 1768976227
-3.446034 39.759182 14.073069 1.880790849211783e-38 1768976227
-3.486758 40.229042 13.983498 1.880790849211783e-38 1768976227
-3.685584 42.523022 11.831846 1.880790849211783e-38 1768976227
-3.767082 43.463326 11.701095 1.880790849211783e-38 1768976227
-3.537823 40.818214 13.828163 1.880790849211783e-38 1768976227
-3.580004 41.304878 13.594706 1.880790849211783e-38 1768976227
-3.755581 43.330627 11.220838 1.880790849211783e-38 1768976227
-3.873233 44.688065 11.040546 1.880790849211783e-38 1768976227
-3.607158 41.618176 13.245237 1.880790849211783e-38 1768976227
-3.764045 43.428288 13.322319 1.880790849211783e-38 1768976227
-3.456946 39.885078 7.300619 1.880790849211783e-38 1768976227
-3.541398 40.859463 7.110092 1.880790849211783e-38 1768976227
-3.896003 44.950771 10.607403 1.880790849211783e-38 1768976227
-3.925572 45.291931 10.409117 1.880790849211783e-38 1768976227
-3.596516 41.495392 6.880188 1.880790849211783e-38 1768976227
-3.657713 42.201466 6.624925 1.880790849211783e-38 1768976227
-3.600255 41.538528 9.145923 1.880790849211783e-38 1768976227
-3.649394 42.105484 8.959741 1.880790849211783e-38 1768976227
-3.675949 43.952396 5.504922 1.880790849211783e-38 1768976227
-3.647438 43.611496 5.238575 1.880790849211783e-38 1768976227
-4.437411 53.056995 6.057538 1.880790849211783e-38 1768976227
-3.219836 38.498760 5.793226 1.880790849211783e-38 1768976227
-4.167867 49.834129 6.895829 1.880790849211783e-38 1768976227
-4.239635 50.692245 6.723414 1.880790849211783e-38 1768976227
-3.565364 42.630150 17.822483 1.880790849211783e-38 1768976227
-3.612839 43.197807 17.705359 1.880790849211783e-38 1768976227
-3.979731 47.584633 9.586208 1.880790849211783e-38 1768976227
-3.796147 45.389565 8.669151 1.880790849211783e-38 1768976227
-3.336010 39.887825 15.964145 1.880790849211783e-38 1768976227
-3.397695 40.625370 15.809324 1.880790849211783e-38 1768976227
-3.240485 38.745663 18.042389 1.880790849211783e-38 1768976227
-3.126565 37.383533 16.909649 1.880790849211783e-38 1768976227
-3.531099 42.220451 15.979697 1.880790849211783e-38 1768976227
-3.470888 41.500523 15.170897 1.880790849211783e-38 1768976227
-3.307833 39.550926 17.460030 1.880790849211783e-38 1768976227
-3.437008 41.095432 17.560204 1.880790849211783e-38 1768976227
-3.660837 43.771702 12.939363 1.880790849211783e-38 1768976227
-3.671041 43.893700 12.642282 1.880790849211783e-38 1768976227
-3.319250 39.687435 14.044066 1.880790849211783e-38 1768976227
-3.358394 40.155472 13.954340 1.880790849211783e-38 1768976227
-3.582460 42.834560 11.915470 1.880790849211783e-38 1768976227
-3.630218 43.405594 11.682552 1.880790849211783e-38 1768976227
-3.407344 40.740749 13.798375 1.880790849211783e-38 1768976227
-3.450496 41.256710 13.575364 1.880790849211783e-38 1768976227
-3.618322 43.263355 11.200541 1.880790849211783e-38 1768976227
-3.718066 44.455967 10.980385 1.880790849211783e-38 1768976227
-3.480194 41.611790 13.239805 1.880790849211783e-38 1768976227
-3.642911 43.557362 13.358483 1.880790849211783e-38 1768976227
-3.369511 40.288391 7.372547 1.880790849211783e-38 1768976227
-3.451944 41.274010 7.180385 1.880790849211783e-38 1768976227
-3.766109 45.030407 10.623466 1.880790849211783e-38 1768976227
-3.794735 45.372677 10.424997 1.880790849211783e-38 1768976227
-3.506208 41.922844 6.949277 1.880790849211783e-38 1768976227
-3.566479 42.643478 6.692594 1.880790849211783e-38 1768976227
-3.933532 47.032242 10.352865 1.880790849211783e-38 1768976227
-3.508727 41.952950 8.924990 1.880790849211783e-38 1768976227
-3.541411 43.938938 5.501874 1.880790849211783e-38 1768976227
-3.513958 43.598335 5.235698 1.880790849211783e-38 1768976227
-4.266274 52.932457 6.041823 1.880790849211783e-38 1768976227
-3.096646 38.420658 5.780041 1.880790849211783e-38 1768976227
-3.992190 49.531837 6.852302 1.880790849211783e-38 1768976227
-4.074090 50.547997 6.702621 1.880790849211783e-38 1768976227
-3.436258 42.634296 17.819801 1.880790849211783e-38 1768976227
-3.358322 41.667320 17.073835 1.880790849211783e-38 1768976227
-3.842732 47.677479 9.602534 1.880790849211783e-38 1768976227
-3.654781 45.345551 8.658601 1.880790849211783e-38 1768976227
-3.215189 39.891449 15.961640 1.880790849211783e-38 1768976227
-3.330091 41.317051 16.074511 1.880790849211783e-38 1768976227
-3.137001 38.921352 18.119713 1.880790849211783e-38 1768976227
-3.000903 37.232765 16.837280 1.880790849211783e-38 1768976227
-3.404861 42.244740 15.984929 1.880790849211783e-38 1768976227
-3.331584 41.335571 15.106856 1.880790849211783e-38 1768976227
-3.206854 39.788029 17.560352 1.880790849211783e-38 1768976227
-3.312130 41.094204 17.555330 1.880790849211783e-38 1768976227
-3.529461 43.790672 12.941765 1.880790849211783e-38 1768976227
-3.539300 43.912750 12.644639 1.880790849211783e-38 1768976227
-3.192969 39.615749 14.015228 1.880790849211783e-38 1768976227
-3.230546 40.081978 13.925352 1.880790849211783e-38 1768976227
-3.477823 43.149994 12.000243 1.880790849211783e-38 1768976227
-3.493790 43.348099 11.664187 1.880790849211783e-38 1768976227
-3.277410 40.663433 13.768779 1.880790849211783e-38 1768976227
-3.321348 41.208580 13.556170 1.880790849211783e-38 1768976227
-3.481559 43.196350 11.180423 1.880790849211783e-38 1768976227
-3.606695 44.748932 11.050009 1.880790849211783e-38 1768976227
-3.353320 41.605259 13.234450 1.880790849211783e-38 1768976227
-3.207164 39.791878 12.200636 1.880790849211783e-38 1768976227
-3.269505 40.565353 7.421392 1.880790849211783e-38 1768976227
-3.354953 41.625523 7.239744 1.880790849211783e-38 1768976227
-3.635809 45.110161 10.639647 1.880790849211783e-38 1768976227
-3.663488 45.453571 10.440998 1.880790849211783e-38 1768976227
-3.414058 42.358849 7.019813 1.880790849211783e-38 1768976227
-3.473350 43.094498 6.761703 1.880790849211783e-38 1768976227
-3.807246 47.237206 10.395407 1.880790849211783e-38 1768976227
-3.369979 41.811954 8.892792 1.880790849211783e-38 1768976227
-3.407027 43.925583 5.498890 1.880790849211783e-38 1768976227
-3.380629 43.585251 5.232879 1.880790849211783e-38 1768976227
-3.479060 44.854286 5.118542 1.880790849211783e-38 1768976227
-2.974020 38.342987 5.766981 1.880790849211783e-38 1768976227
-2.937338 37.870060 5.447386 1.880790849211783e-38 1768976227
-3.909554 50.404491 6.681999 1.880790849211783e-38 1768976227
-3.211662 41.406815 17.302626 1.880790849211783e-38 1768976227
-3.189744 41.124237 16.847279 1.880790849211783e-38 1768976227
-3.511780 45.276127 9.116713 1.880790849211783e-38 1768976227
-3.513770 45.301788 8.648181 1.880790849211783e-38 1768976227
-3.094620 39.897835 15.960389 1.880790849211783e-38 1768976227
-3.217291 41.479389 16.133820 1.880790849211783e-38 1768976227
-3.032606 39.098324 18.197760 1.880790849211783e-38 1768976227
-2.876371 37.084026 16.766018 1.880790849211783e-38 1768976227
-3.278529 42.268921 15.990264 1.880790849211783e-38 1768976227
-2.906154 37.468014 13.690119 1.880790849211783e-38 1768976227
-3.089886 39.836807 17.577686 1.880790849211783e-38 1768976227
-3.439931 44.349808 18.941597 1.880790849211783e-38 1768976227
-3.398031 43.809608 12.944273 1.880790849211783e-38 1768976227
-3.407505 43.931751 12.647093 1.880790849211783e-38 1768976227
-3.272066 42.185585 14.920823 1.880790849211783e-38 1768976227
-3.103207 40.008545 13.896523 1.880790849211783e-38 1768976227
-3.371644 43.469406 12.086191 1.880790849211783e-38 1768976227
-3.357793 43.290840 11.646003 1.880790849211783e-38 1768976227
-3.148017 40.586266 13.739372 1.880790849211783e-38 1768976227
-3.192471 41.159397 13.536762 1.880790849211783e-38 1768976227
-3.344925 43.124939 11.159278 1.880790849211783e-38 1768976227
-3.424801 44.154743 10.900683 1.880790849211783e-38 1768976227
-3.226537 41.598591 13.229173 1.880790849211783e-38 1768976227
-3.086063 39.787521 12.196390 1.880790849211783e-38 1768976227
-3.168149 40.845818 7.470921 1.880790849211783e-38 1768976227
-3.251516 41.920643 7.289334 1.880790849211783e-38 1768976227
-3.505102 45.190041 10.655945 1.880790849211783e-38 1768976227
-3.575406 46.096439 10.586143 1.880790849211783e-38 1768976227
-3.320007 42.803669 7.091838 1.880790849211783e-38 1768976227
-3.009898 38.805546 6.087297 1.880790849211783e-38 1768976227
-3.493416 45.039375 9.909371 1.880790849211783e-38 1768976227
-3.683766 47.493488 10.098763 1.880790849211783e-38 1768976227
-3.272813 43.912319 5.495968 1.880790849211783e-38 1768976227
-3.247469 43.572273 5.230121 1.880790849211783e-38 1768976227
-3.217284 43.167274 4.924900 1.880790849211783e-38 1768976227
-2.851973 38.265785 5.754049 1.880790849211783e-38 1768976227
-2.815216 37.772598 5.432121 1.880790849211783e-38 1768976227
-3.739711 50.176826 6.650293 1.880790849211783e-38 1768976227
-3.034459 40.714249 17.009323 1.880790849211783e-38 1768976227
-3.168911 42.518227 17.414356 1.880790849211783e-38 1768976227
-3.370620 45.224628 9.104255 1.880790849211783e-38 1768976227
-3.373131 45.258308 8.637899 1.880790849211783e-38 1768976227
-2.994041 40.171947 16.066359 1.880790849211783e-38 1768976227
-3.103636 41.642418 16.193516 1.880790849211783e-38 1768976227
-2.921963 39.204853 18.243162 1.880790849211783e-38 1768976227
-2.752960 36.937286 16.695847 1.880790849211783e-38 1768976227
-3.152124 42.292995 15.995704 1.880790849211783e-38 1768976227
-2.813184 37.745342 13.788287 1.880790849211783e-38 1768976227
-2.964978 39.781994 17.549479 1.880790849211783e-38 1768976227
-3.301598 44.298527 18.915356 1.880790849211783e-38 1768976227
-3.266567 43.828503 12.946887 1.880790849211783e-38 1768976227
-3.275676 43.950726 12.649654 1.880790849211783e-38 1768976227
-3.136649 42.085361 14.881962 1.880790849211783e-38 1768976227
-3.171383 42.551403 14.776369 1.880790849211783e-38 1768976227
-3.238543 43.452496 12.078719 1.880790849211783e-38 1768976227
-3.222244 43.233810 11.627995 1.880790849211783e-38 1768976227
-3.019181 40.509262 13.710161 1.880790849211783e-38 1768976227
-3.061724 41.080067 13.507573 1.880790849211783e-38 1768976227
-3.208826 43.053787 11.138312 1.880790849211783e-38 1768976227
-3.280840 44.020016 10.864930 1.880790849211783e-38 1768976227
-3.085430 41.398148 13.162409 1.880790849211783e-38 1768976227
-2.965082 39.783390 12.192329 1.880790849211783e-38 1768976227
-3.065433 41.129826 7.521142 1.880790849211783e-38 1768976227
-3.146652 42.219578 7.339630 1.880790849211783e-38 1768976227
-3.374005 45.270039 10.672361 1.880790849211783e-38 1768976227
-3.450337 46.294209 10.629125 1.880790849211783e-38 1768976227
-3.199790 42.932541 7.111558 1.880790849211783e-38 1768976227
-2.886300 38.726357 6.073482 1.880790849211783e-38 1768976227
-3.335101 44.748047 9.843017 1.880790849211783e-38 1768976227
-3.545927 47.576771 10.114151 1.880790849211783e-38 1768976227
-3.138725 43.899136 5.493109 1.880790849211783e-38 1768976227
-3.114432 43.559368 5.227420 1.880790849211783e-38 1768976227
-3.086720 43.171768 4.924328 1.880790849211783e-38 1768976227
-2.711658 37.926041 5.701706 1.880790849211783e-38 1768976227
-2.693759 37.675713 5.416995 1.880790849211783e-38 1768976227
-3.565612 49.869701 6.608132 1.880790849211783e-38 1768976227
-2.989989 41.818871 17.466957 1.880790849211783e-38 1768976227
-3.023463 42.287048 17.315859 1.880790849211783e-38 1768976227
-3.229834 45.173405 9.091941 1.880790849211783e-38 1768976227
-3.232814 45.215084 8.627750 1.880790849211783e-38 1768976227
-2.883156 40.324661 16.123884 1.880790849211783e-38 1768976227
-2.975189 41.611870 16.178074 1.880790849211783e-38 1768976227
-2.801442 39.181793 18.228415 1.880790849211783e-38 1768976227
-2.630610 36.792484 16.626734 1.880790849211783e-38 1768976227
-3.025603 42.316971 16.001247 1.880790849211783e-38 1768976227
-2.920343 40.844776 14.917218 1.880790849211783e-38 1768976227
-2.840435 39.727165 17.521429 1.880790849211783e-38 1768976227
-2.876962 40.238037 17.177755 1.880790849211783e-38 1768976227
-3.135024 43.847374 12.949609 1.880790849211783e-38 1768976227
-3.143767 43.969658 12.652317 1.880790849211783e-38 1768976227
-3.001896 41.985401 14.843346 1.880790849211783e-38 1768976227
-3.035051 42.449120 14.737604 1.880790849211783e-38 1768976227
-3.105311 43.431793 12.070306 1.880790849211783e-38 1768976227
-3.087594 43.183998 11.612040 1.880790849211783e-38 1768976227
-3.015648 42.177742 14.271706 1.880790849211783e-38 1768976227
-2.985288 41.753117 13.725856 1.880790849211783e-38 1768976227
-3.073225 42.983036 11.117559 1.880790849211783e-38 1768976227
-3.137805 43.886269 10.829535 1.880790849211783e-38 1768976227
-2.948509 41.238720 13.108832 1.880790849211783e-38 1768976227
-2.844176 39.779488 12.188448 1.880790849211783e-38 1768976227
-2.961293 41.417515 7.572083 1.880790849211783e-38 1768976227
-3.040299 42.522530 7.390669 1.880790849211783e-38 1768976227
-3.253247 45.500870 10.724417 1.880790849211783e-38 1768976227
-3.194141 44.674198 10.254911 1.880790849211783e-38 1768976227
-3.070912 42.950687 7.112998 1.880790849211783e-38 1768976227
-2.763250 38.647621 6.059800 1.880790849211783e-38 1768976227
-3.225763 45.116474 9.921872 1.880790849211783e-38 1768976227
-3.407641 47.660271 10.129672 1.880790849211783e-38 1768976227
-3.007303 43.922878 5.494920 1.880790849211783e-38 1768976227
-2.981537 43.546551 5.224780 1.880790849211783e-38 1768976227
-2.955019 43.159260 4.921862 1.880790849211783e-38 1768976227
-2.590028 37.828415 5.685829 1.880790849211783e-38 1768976227
-2.572979 37.579414 5.402009 1.880790849211783e-38 1768976227
-2.868669 41.898079 17.496347 1.880790849211783e-38 1768976227
-2.895503 42.290001 17.313414 1.880790849211783e-38 1768976227
-3.089437 45.122490 9.079776 1.880790849211783e-38 1768976227
-3.092835 45.172112 8.617731 1.880790849211783e-38 1768976227
-2.771439 40.477997 16.181780 1.880790849211783e-38 1768976227
-2.844041 41.538372 16.146091 1.880790849211783e-38 1768976227
-2.681105 39.158627 18.213793 1.880790849211783e-38 1768976227
-2.511661 36.683823 16.574129 1.880790849211783e-38 1768976227
-2.898985 42.340851 16.006897 1.880790849211783e-38 1768976227
-2.785442 40.682514 14.854821 1.880790849211783e-38 1768976227
-2.716276 39.672314 17.493546 1.880790849211783e-38 1768976227
-2.826055 41.275684 17.617012 1.880790849211783e-38 1768976227
-3.003422 43.866199 12.952435 1.880790849211783e-38 1768976227
-3.011801 43.988571 12.655088 1.880790849211783e-38 1768976227
-2.867823 41.885727 14.804980 1.880790849211783e-38 1768976227
-2.899112 42.342701 14.697556 1.880790849211783e-38 1768976227
-2.972268 43.411179 12.062030 1.880790849211783e-38 1768976227
-2.955322 43.163673 11.604125 1.880790849211783e-38 1768976227
-2.879856 42.061459 14.229356 1.880790849211783e-38 1768976227
-2.864923 41.843365 13.752622 1.880790849211783e-38 1768976227
-2.938138 42.912701 11.097025 1.880790849211783e-38 1768976227
-2.960803 43.243725 10.668726 1.880790849211783e-38 1768976227
-2.812739 41.081192 13.056002 1.880790849211783e-38 1768976227
-2.723363 39.775822 12.184753 1.880790849211783e-38 1768976227
-2.855719 41.708931 7.623752 1.880790849211783e-38 1768976227
-2.918249 42.622211 7.406431 1.880790849211783e-38 1768976227
-3.045106 44.475018 10.480415 1.880790849211783e-38 1768976227
-3.041092 44.416382 10.193579 1.880790849211783e-38 1768976227
-2.941980 42.968807 7.114497 1.880790849211783e-38 1768976227
-2.640758 38.569344 6.046250 1.880790849211783e-38 1768976227
-3.249287 47.457150 10.434424 1.880790849211783e-38 1768976227
-3.268925 47.743980 10.145322 1.880790849211783e-38 1768976227
-3.316758 50.685284 6.339642 1.880790849211783e-38 1768976227
-2.848778 43.533817 5.222197 1.880790849211783e-38 1768976227
-2.823454 43.146828 4.919451 1.880790849211783e-38 1768976227
-2.955172 45.159679 4.834413 1.880790849211783e-38 1768976227
-2.469075 37.731365 5.670097 1.880790849211783e-38 1768976227
-2.452869 37.483700 5.387162 1.880790849211783e-38 1768976227
-2.754469 42.092621 17.574038 1.880790849211783e-38 1768976227
-2.789348 42.625626 17.447294 1.880790849211783e-38 1768976227
-2.950683 45.091076 9.071624 1.880790849211783e-38 1768976227
-2.891862 44.192196 8.429086 1.880790849211783e-38 1768976227
-2.658124 40.620319 16.235395 1.880790849211783e-38 1768976227
-2.713380 41.464725 16.114210 1.880790849211783e-38 1768976227
-2.560951 39.135361 18.199295 1.880790849211783e-38 1768976227
-2.396461 36.621708 16.542725 1.880790849211783e-38 1768976227
-2.772268 42.364616 16.012650 1.880790849211783e-38 1768976227
-2.651618 40.520901 14.792823 1.880790849211783e-38 1768976227
-2.592498 39.617451 17.465826 1.880790849211783e-38 1768976227
-2.710466 41.420197 17.675121 1.880790849211783e-38 1768976227
-2.871424 43.879890 12.953860 1.880790849211783e-38 1768976227
-2.879772 44.007450 12.657963 1.880790849211783e-38 1768976227
-2.734426 41.786343 14.766871 1.880790849211783e-38 1768976227
-2.761973 42.207294 14.647596 1.880790849211783e-38 1768976227
-2.840133 43.401707 12.056963 1.880790849211783e-38 1768976227
