# .PCD v0.7 - Point Cloud Data file format
VERSION 0.7
FIELDS x y z rgb label
SIZE 4 4 4 4 4
TYPE F F F F U
COUNT 1 1 1 1 1
WIDTH 755
HEIGHT 1
VIEWPOINT 0 0 0 1 0 0 0
POINTS 755
DATA ascii
-15.844003 -8.411920 -0.206893 1.880790849211783e-38 1768976227
-16.673693 -8.852421 0.476884 1.880790849211783e-38 1768976227
-15.755127 -8.364733 -0.318769 1.880790849211783e-38 1768976227
-15.678529 -8.324066 -0.415192 1.880790849211783e-38 1768976227
-16.382963 -8.698066 0.320694 1.880790849211783e-38 1768976227
-16.271584 -8.638931 0.224367 1.880790849211783e-38 1768976227
-15.594291 -8.279343 -0.521235 1.880790849211783e-38 1768976227
-15.527544 -8.243905 -0.605253 1.880790849211783e-38 1768976227
-16.139912 -8.569025 0.110489 1.880790849211783e-38 1768976227
-16.027508 -8.509347 0.013275 1.880790849211783e-38 1768976227
-16.033503 -8.450650 -0.105297 1.880790849211783e-38 1768976227
-15.941002 -8.401896 -0.207827 1.880790849211783e-38 1768976227
-15.851185 -8.354557 -0.320201 1.880790849211783e-38 1768976227
-15.773773 -8.313757 -0.417048 1.880790849211783e-38 1768976227
-16.607307 -8.753081 0.324567 1.880790849211783e-38 1768976227
-16.420078 -8.654401 0.226053 1.880790849211783e-38 1768976227
-15.688643 -8.268888 -0.523553 1.880790849211783e-38 1768976227
-15.621202 -8.233342 -0.607933 1.880790849211783e-38 1768976227
-16.286215 -8.583845 0.111313 1.880790849211783e-38 1768976227
-16.171953 -8.523622 0.013373 1.880790849211783e-38 1768976227
-16.177839 -8.464477 -0.106077 1.880790849211783e-38 1768976227
-16.056671 -8.401080 -0.209004 1.880790849211783e-38 1768976227
-15.948119 -8.344285 -0.321649 1.880790849211783e-38 1768976227
-15.869886 -8.303352 -0.418926 1.880790849211783e-38 1768976227
-16.672304 -8.723188 0.229162 1.880790849211783e-38 1768976227
-15.783859 -8.258341 -0.525897 1.880790849211783e-38 1768976227
-15.715702 -8.222681 -0.610643 1.880790849211783e-38 1768976227
-16.434742 -8.598892 0.112150 1.880790849211783e-38 1768976227
-16.318579 -8.538114 0.013473 1.880790849211783e-38 1768976227
-16.324329 -8.478509 -0.106869 1.880790849211783e-38 1768976227
-16.201157 -8.414536 -0.210554 1.880790849211783e-38 1768976227
-16.066935 -8.344824 -0.323537 1.880790849211783e-38 1768976227
-15.966867 -8.292851 -0.420824 1.880790849211783e-38 1768976227
-15.879921 -8.247693 -0.528266 1.880790849211783e-38 1768976227
-15.811044 -8.211920 -0.613382 1.880790849211783e-38 1768976227
-16.690441 -8.668660 0.113716 1.880790849211783e-38 1768976227
-16.467409 -8.552822 0.013574 1.880790849211783e-38 1768976227
-16.473022 -8.492752 -0.107674 1.880790849211783e-38 1768976227
-16.347795 -8.428190 -0.212128 1.880790849211783e-38 1768976227
-16.211359 -8.357848 -0.325936 1.880790849211783e-38 1768976227
-16.094372 -8.297535 -0.423523 1.880790849211783e-38 1768976227
-15.976855 -8.236949 -0.530662 1.880790849211783e-38 1768976227
-15.907242 -8.201059 -0.616152 1.880790849211783e-38 1768976227
-16.746298 -8.633640 0.013783 1.880790849211783e-38 1768976227
-16.745533 -8.569416 -0.109286 1.880790849211783e-38 1768976227
-16.496649 -8.442051 -0.213728 1.880790849211783e-38 1768976227
-16.357937 -8.371067 -0.328374 1.880790849211783e-38 1768976227
-16.239014 -8.310207 -0.426667 1.880790849211783e-38 1768976227
-16.108883 -8.243614 -0.534219 1.880790849211783e-38 1768976227
-16.006273 -8.191105 -0.619028 1.880790849211783e-38 1768976227
-16.782539 -8.524580 -0.217098 1.880790849211783e-38 1768976227
-16.506725 -8.384482 -0.330851 1.880790849211783e-38 1768976227
-16.385815 -8.323068 -0.429863 1.880790849211783e-38 1768976227
-16.253536 -8.255877 -0.538188 1.880790849211783e-38 1768976227
-16.149240 -8.202900 -0.623597 1.880790849211783e-38 1768976227
-16.791161 -8.465349 -0.336039 1.880790849211783e-38 1768976227
-16.539484 -8.338465 -0.433233 1.880790849211783e-38 1768976227
-16.400352 -8.268321 -0.542221 1.880790849211783e-38 1768976227
-16.294329 -8.214869 -0.628240 1.880790849211783e-38 1768976227
-16.837627 -8.425192 -0.440375 1.880790849211783e-38 1768976227
-16.557331 -8.284938 -0.546583 1.880790849211783e-38 1768976227
-16.441566 -8.227012 -0.632958 1.880790849211783e-38 1768976227
-16.855671 -8.370752 -0.555595 1.880790849211783e-38 1768976227
-16.630545 -8.258951 -0.639271 1.880790849211783e-38 1768976227
-16.930964 -8.344581 -0.649849 1.880790849211783e-38 1768976227
-38.556271 21.272266 -0.255835 1.880790849211783e-38 1768976227
-38.556267 21.272264 -0.507876 1.880790849211783e-38 1768976227
-38.556259 21.272261 4.703970 1.880790849211783e-38 1768976227
-38.556271 21.272264 4.505939 1.880790849211783e-38 1768976227
-38.556274 21.272266 4.217893 1.880790849211783e-38 1768976227
-38.556248 21.272255 2.345587 1.880790849211783e-38 1768976227
-38.556259 21.272261 2.129552 1.880790849211783e-38 1768976227
-38.556271 21.272266 3.893839 1.880790849211783e-38 1768976227
-38.556271 21.272266 3.695807 1.880790849211783e-38 1768976227
-38.556255 21.272259 1.832504 1.880790849211783e-38 1768976227
-38.556271 21.272266 1.625471 1.880790849211783e-38 1768976227
-38.556255 21.272257 3.416761 1.880790849211783e-38 1768976227
-38.556248 21.272253 3.137715 1.880790849211783e-38 1768976227
-38.556259 21.272259 1.328422 1.880790849211783e-38 1768976227
-38.556259 21.272261 1.112387 1.880790849211783e-38 1768976227
-38.556255 21.272259 2.912679 1.880790849211783e-38 1768976227
-38.556259 21.272259 2.633634 1.880790849211783e-38 1768976227
-38.556267 21.272264 -0.786921 1.880790849211783e-38 1768976227
-38.556259 21.272261 -1.029961 1.880790849211783e-38 1768976227
-38.556259 21.272261 0.761330 1.880790849211783e-38 1768976227
-38.556259 21.272259 0.536294 1.880790849211783e-38 1768976227
-38.556248 21.272253 -1.300004 1.880790849211783e-38 1768976227
-38.556267 21.272264 -1.516040 1.880790849211783e-38 1768976227
-38.556255 21.272261 0.266250 1.880790849211783e-38 1768976227
-38.556259 21.272259 0.032212 1.880790849211783e-38 1768976227
-37.963661 21.094912 -0.252323 1.880790849211783e-38 1768976227
-37.963657 21.094910 -0.500906 1.880790849211783e-38 1768976227
-37.963661 21.094912 4.941262 1.880790849211783e-38 1768976227
-37.963661 21.094910 4.639412 1.880790849211783e-38 1768976227
-37.963661 21.094912 4.444098 1.880790849211783e-38 1768976227
-37.963661 21.094913 4.160005 1.880790849211783e-38 1768976227
-37.963665 21.094913 2.313396 1.880790849211783e-38 1768976227
-37.963654 21.094908 2.100325 1.880790849211783e-38 1768976227
-37.963665 21.094913 3.840399 1.880790849211783e-38 1768976227
-37.963665 21.094913 3.645085 1.880790849211783e-38 1768976227
-37.963657 21.094912 1.807355 1.880790849211783e-38 1768976227
-37.963661 21.094913 1.603162 1.880790849211783e-38 1768976227
-37.963661 21.094912 3.369870 1.880790849211783e-38 1768976227
-37.963657 21.094910 3.094653 1.880790849211783e-38 1768976227
-37.963657 21.094912 1.310191 1.880790849211783e-38 1768976227
-37.963665 21.094913 1.097121 1.880790849211783e-38 1768976227
-37.963661 21.094912 2.872705 1.880790849211783e-38 1768976227
-37.963661 21.094912 2.597490 1.880790849211783e-38 1768976227
-37.963665 21.094913 -0.776121 1.880790849211783e-38 1768976227
-37.963657 21.094912 -1.015826 1.880790849211783e-38 1768976227
-37.963665 21.094912 0.750882 1.880790849211783e-38 1768976227
-37.963661 21.094912 0.528934 1.880790849211783e-38 1768976227
-37.963661 21.094910 -1.282163 1.880790849211783e-38 1768976227
-37.963661 21.094913 -1.495234 1.880790849211783e-38 1768976227
-37.963665 21.094913 0.262596 1.880790849211783e-38 1768976227
-37.963657 21.094910 0.031770 1.880790849211783e-38 1768976227
-37.638142 21.062851 -0.250581 1.880790849211783e-38 1768976227
-37.638149 21.062853 -0.497447 1.880790849211783e-38 1768976227
-37.638145 21.062849 4.907139 1.880790849211783e-38 1768976227
-37.638142 21.062849 4.607374 1.880790849211783e-38 1768976227
-37.638145 21.062851 4.413409 1.880790849211783e-38 1768976227
-37.638142 21.062849 4.131277 1.880790849211783e-38 1768976227
-37.638145 21.062851 2.297421 1.880790849211783e-38 1768976227
-37.638145 21.062851 2.085822 1.880790849211783e-38 1768976227
-37.638145 21.062851 3.813879 1.880790849211783e-38 1768976227
-37.638145 21.062851 3.619913 1.880790849211783e-38 1768976227
-37.638142 21.062849 1.794874 1.880790849211783e-38 1768976227
-37.638145 21.062853 1.592092 1.880790849211783e-38 1768976227
-37.638145 21.062851 3.346598 1.880790849211783e-38 1768976227
-37.638145 21.062853 3.073283 1.880790849211783e-38 1768976227
-37.638149 21.062853 1.301143 1.880790849211783e-38 1768976227
-37.638145 21.062851 1.089544 1.880790849211783e-38 1768976227
-37.638145 21.062853 2.852868 1.880790849211783e-38 1768976227
-37.638142 21.062847 2.579552 1.880790849211783e-38 1768976227
-37.638149 21.062853 -0.770762 1.880790849211783e-38 1768976227
-37.638145 21.062851 -1.008811 1.880790849211783e-38 1768976227
-37.638145 21.062851 0.745697 1.880790849211783e-38 1768976227
-37.638145 21.062851 0.525281 1.880790849211783e-38 1768976227
-37.638145 21.062851 -1.273309 1.880790849211783e-38 1768976227
-37.638145 21.062851 -1.484908 1.880790849211783e-38 1768976227
-37.638145 21.062851 0.260783 1.880790849211783e-38 1768976227
-37.638145 21.062851 0.031550 1.880790849211783e-38 1768976227
-37.317093 21.031231 -0.248865 1.880790849211783e-38 1768976227
-37.317101 21.031233 -0.494040 1.880790849211783e-38 1768976227
-37.317089 21.031227 4.873529 1.880790849211783e-38 1768976227
-37.317089 21.031229 4.575817 1.880790849211783e-38 1768976227
-37.317097 21.031233 4.383182 1.880790849211783e-38 1768976227
-37.317089 21.031229 4.102981 1.880790849211783e-38 1768976227
-37.317089 21.031229 2.281685 1.880790849211783e-38 1768976227
-37.317097 21.031235 2.071536 1.880790849211783e-38 1768976227
-37.317097 21.031233 3.787757 1.880790849211783e-38 1768976227
-37.317097 21.031233 3.595120 1.880790849211783e-38 1768976227
-37.317097 21.031233 1.782580 1.880790849211783e-38 1768976227
-37.317097 21.031233 1.581187 1.880790849211783e-38 1768976227
-37.317089 21.031229 3.323677 1.880790849211783e-38 1768976227
-37.317093 21.031231 3.052233 1.880790849211783e-38 1768976227
-37.317093 21.031231 1.292231 1.880790849211783e-38 1768976227
-37.317093 21.031231 1.082082 1.880790849211783e-38 1768976227
-37.317089 21.031231 2.833328 1.880790849211783e-38 1768976227
-37.317101 21.031233 2.561885 1.880790849211783e-38 1768976227
-37.317093 21.031231 -0.765482 1.880790849211783e-38 1768976227
-37.317097 21.031233 -1.001901 1.880790849211783e-38 1768976227
-37.317101 21.031235 0.740589 1.880790849211783e-38 1768976227
-37.317093 21.031231 0.521684 1.880790849211783e-38 1768976227
-37.317101 21.031235 -1.264588 1.880790849211783e-38 1768976227
-37.317097 21.031233 -1.474738 1.880790849211783e-38 1768976227
-37.317089 21.031231 0.258997 1.880790849211783e-38 1768976227
-37.317104 21.031237 0.031334 1.880790849211783e-38 1768976227
-37.000454 21.000046 -0.247174 1.880790849211783e-38 1768976227
-37.000458 21.000046 -0.490684 1.880790849211783e-38 1768976227
-37.000458 21.000046 4.840425 1.880790849211783e-38 1768976227
-37.000458 21.000046 4.544736 1.880790849211783e-38 1768976227
-37.000462 21.000050 4.353408 1.880790849211783e-38 1768976227
-37.000458 21.000044 4.075111 1.880790849211783e-38 1768976227
-37.000458 21.000046 2.266187 1.880790849211783e-38 1768976227
-37.000450 21.000042 2.057464 1.880790849211783e-38 1768976227
-37.000462 21.000050 3.762028 1.880790849211783e-38 1768976227
-37.000450 21.000044 3.570699 1.880790849211783e-38 1768976227
-37.000458 21.000044 1.770472 1.880790849211783e-38 1768976227
-37.000458 21.000046 1.570447 1.880790849211783e-38 1768976227
-37.000458 21.000044 3.301100 1.880790849211783e-38 1768976227
-37.000458 21.000048 3.031501 1.880790849211783e-38 1768976227
-37.000458 21.000046 1.283454 1.880790849211783e-38 1768976227
-37.000454 21.000044 1.074732 1.880790849211783e-38 1768976227
-37.000458 21.000046 2.814082 1.880790849211783e-38 1768976227
-37.000458 21.000046 2.544483 1.880790849211783e-38 1768976227
-37.000458 21.000046 -0.760283 1.880790849211783e-38 1768976227
-37.000458 21.000048 -0.995096 1.880790849211783e-38 1768976227
-37.000454 21.000046 0.735559 1.880790849211783e-38 1768976227
-37.000458 21.000044 0.518140 1.880790849211783e-38 1768976227
-37.000454 21.000046 -1.255998 1.880790849211783e-38 1768976227
-37.000458 21.000046 -1.464720 1.880790849211783e-38 1768976227
-37.000458 21.000046 0.257237 1.880790849211783e-38 1768976227
-37.000458 21.000044 0.031121 1.880790849211783e-38 1768976227
-36.779751 21.021694 -0.246122 1.880790849211783e-38 1768976227
-36.779751 21.021692 -0.488596 1.880790849211783e-38 1768976227
-36.779751 21.021694 4.819825 1.880790849211783e-38 1768976227
-36.779751 21.021692 4.525393 1.880790849211783e-38 1768976227
-36.779751 21.021694 4.334880 1.880790849211783e-38 1768976227
-36.779751 21.021692 4.057768 1.880790849211783e-38 1768976227
-36.779755 21.021694 2.256542 1.880790849211783e-38 1768976227
-36.779747 21.021692 2.048708 1.880790849211783e-38 1768976227
-36.779755 21.021694 3.746017 1.880790849211783e-38 1768976227
-36.779751 21.021692 3.555503 1.880790849211783e-38 1768976227
-36.779747 21.021692 1.762937 1.880790849211783e-38 1768976227
-36.779751 21.021692 1.563763 1.880790849211783e-38 1768976227
-36.779751 21.021694 3.287051 1.880790849211783e-38 1768976227
-36.779751 21.021694 3.018599 1.880790849211783e-38 1768976227
-36.779751 21.021694 1.277991 1.880790849211783e-38 1768976227
-36.779755 21.021694 1.070158 1.880790849211783e-38 1768976227
-36.779747 21.021690 2.802105 1.880790849211783e-38 1768976227
-36.779751 21.021692 2.533653 1.880790849211783e-38 1768976227
-36.779751 21.021694 -0.757047 1.880790849211783e-38 1768976227
-36.779747 21.021692 -0.990860 1.880790849211783e-38 1768976227
-36.779751 21.021692 0.732428 1.880790849211783e-38 1768976227
-36.779747 21.021690 0.515935 1.880790849211783e-38 1768976227
-36.779747 21.021690 -1.250652 1.880790849211783e-38 1768976227
-36.779743 21.021690 -1.458486 1.880790849211783e-38 1768976227
-36.779755 21.021694 0.256142 1.880790849211783e-38 1768976227
-36.779747 21.021690 0.030989 1.880790849211783e-38 1768976227
-36.561043 21.043232 -0.245082 1.880790849211783e-38 1768976227
-36.561043 21.043232 -0.486531 1.880790849211783e-38 1768976227
-36.561039 21.043230 4.799459 1.880790849211783e-38 1768976227
-36.561043 21.043232 4.506272 1.880790849211783e-38 1768976227
-36.561047 21.043234 4.316564 1.880790849211783e-38 1768976227
-36.561043 21.043234 4.040623 1.880790849211783e-38 1768976227
-36.561047 21.043234 2.247007 1.880790849211783e-38 1768976227
-36.561047 21.043236 2.040052 1.880790849211783e-38 1768976227
-36.561047 21.043236 3.730189 1.880790849211783e-38 1768976227
-36.561047 21.043234 3.540480 1.880790849211783e-38 1768976227
-36.561043 21.043232 1.755488 1.880790849211783e-38 1768976227
-36.561043 21.043234 1.557155 1.880790849211783e-38 1768976227
-36.561043 21.043232 3.273162 1.880790849211783e-38 1768976227
-36.561043 21.043232 3.005844 1.880790849211783e-38 1768976227
-36.561047 21.043234 1.272591 1.880790849211783e-38 1768976227
-36.561043 21.043232 1.065636 1.880790849211783e-38 1768976227
-36.561043 21.043234 2.790266 1.880790849211783e-38 1768976227
-36.561047 21.043234 2.522948 1.880790849211783e-38 1768976227
-36.561054 21.043238 -0.753848 1.880790849211783e-38 1768976227
-36.561043 21.043234 -0.986674 1.880790849211783e-38 1768976227
-36.561043 21.043234 0.729333 1.880790849211783e-38 1768976227
-36.561043 21.043234 0.513755 1.880790849211783e-38 1768976227
-36.561043 21.043232 -1.245368 1.880790849211783e-38 1768976227
-36.561047 21.043234 -1.452324 1.880790849211783e-38 1768976227
-36.561043 21.043234 0.255060 1.880790849211783e-38 1768976227
-36.561047 21.043234 0.030858 1.880790849211783e-38 1768976227
-36.344177 21.064592 -0.244053 1.880790849211783e-38 1768976227
-36.344181 21.064592 -0.484488 1.880790849211783e-38 1768976227
-36.344185 21.064594 4.779310 1.880790849211783e-38 1768976227
-36.344181 21.064594 4.487353 1.880790849211783e-38 1768976227
-36.344177 21.064592 4.298440 1.880790849211783e-38 1768976227
-36.344177 21.064592 4.023658 1.880790849211783e-38 1768976227
-36.344181 21.064594 2.237573 1.880790849211783e-38 1768976227
-36.344177 21.064594 2.031487 1.880790849211783e-38 1768976227
-36.344173 21.064592 3.714527 1.880790849211783e-38 1768976227
-36.344181 21.064596 3.525615 1.880790849211783e-38 1768976227
-36.344181 21.064594 1.748118 1.880790849211783e-38 1768976227
-36.344181 21.064594 1.550618 1.880790849211783e-38 1768976227
-36.344173 21.064590 3.259420 1.880790849211783e-38 1768976227
-36.344177 21.064592 2.993224 1.880790849211783e-38 1768976227
-36.344181 21.064596 1.267249 1.880790849211783e-38 1768976227
-36.344173 21.064592 1.061162 1.880790849211783e-38 1768976227
-36.344177 21.064592 2.778551 1.880790849211783e-38 1768976227
-36.344177 21.064594 2.512355 1.880790849211783e-38 1768976227
-36.344173 21.064592 -0.750683 1.880790849211783e-38 1768976227
-36.344177 21.064592 -0.982531 1.880790849211783e-38 1768976227
-36.344177 21.064592 0.726271 1.880790849211783e-38 1768976227
-36.344173 21.064590 0.511598 1.880790849211783e-38 1768976227
-36.344173 21.064592 -1.240139 1.880790849211783e-38 1768976227
-36.344181 21.064594 -1.446226 1.880790849211783e-38 1768976227
-36.344177 21.064592 0.253989 1.880790849211783e-38 1768976227
-36.344181 21.064594 0.030728 1.880790849211783e-38 1768976227
-36.129124 21.085773 -0.243035 1.880790849211783e-38 1768976227
-36.129116 21.085772 -0.482467 1.880790849211783e-38 1768976227
-36.129112 21.085770 4.759369 1.880790849211783e-38 1768976227
-36.129124 21.085773 4.468632 1.880790849211783e-38 1768976227
-36.129124 21.085773 4.280508 1.880790849211783e-38 1768976227
-36.129116 21.085772 4.006871 1.880790849211783e-38 1768976227
-36.129116 21.085770 2.228238 1.880790849211783e-38 1768976227
-36.129124 21.085775 2.023011 1.880790849211783e-38 1768976227
-36.129124 21.085773 3.699031 1.880790849211783e-38 1768976227
-36.129116 21.085770 3.510906 1.880790849211783e-38 1768976227
-36.129116 21.085772 1.740824 1.880790849211783e-38 1768976227
-36.129124 21.085773 1.544149 1.880790849211783e-38 1768976227
-36.129120 21.085772 3.245822 1.880790849211783e-38 1768976227
-36.129120 21.085773 2.980737 1.880790849211783e-38 1768976227
-36.129120 21.085773 1.261962 1.880790849211783e-38 1768976227
-36.129116 21.085772 1.056735 1.880790849211783e-38 1768976227
-36.129124 21.085775 2.766959 1.880790849211783e-38 1768976227
-36.129128 21.085775 2.501874 1.880790849211783e-38 1768976227
-36.129116 21.085772 -0.747551 1.880790849211783e-38 1768976227
-36.129120 21.085772 -0.978432 1.880790849211783e-38 1768976227
-36.129124 21.085773 0.723241 1.880790849211783e-38 1768976227
-36.129112 21.085770 0.509463 1.880790849211783e-38 1768976227
-36.129124 21.085773 -1.234966 1.880790849211783e-38 1768976227
-36.129124 21.085773 -1.440193 1.880790849211783e-38 1768976227
-36.129124 21.085775 0.252930 1.880790849211783e-38 1768976227
-36.129120 21.085772 0.030600 1.880790849211783e-38 1768976227
-35.940845 21.121466 4.990065 1.880790849211783e-38 1768976227
-35.940845 21.121468 -0.242196 1.880790849211783e-38 1768976227
-35.940838 21.121464 -0.480801 1.880790849211783e-38 1768976227
-35.940845 21.121469 4.742939 1.880790849211783e-38 1768976227
-35.940849 21.121469 4.453204 1.880790849211783e-38 1768976227
-35.940849 21.121468 4.265729 1.880790849211783e-38 1768976227
-35.940842 21.121466 3.993037 1.880790849211783e-38 1768976227
-35.940845 21.121466 2.220545 1.880790849211783e-38 1768976227
-35.940845 21.121464 2.016026 1.880790849211783e-38 1768976227
-35.940838 21.121464 3.686259 1.880790849211783e-38 1768976227
-35.940842 21.121464 3.498784 1.880790849211783e-38 1768976227
-35.940842 21.121466 1.734814 1.880790849211783e-38 1768976227
-35.940845 21.121468 1.538817 1.880790849211783e-38 1768976227
-35.940845 21.121468 3.234616 1.880790849211783e-38 1768976227
-35.940845 21.121464 2.970446 1.880790849211783e-38 1768976227
-35.940842 21.121466 1.257604 1.880790849211783e-38 1768976227
-35.940845 21.121466 1.053086 1.880790849211783e-38 1768976227
-35.940849 21.121469 2.757406 1.880790849211783e-38 1768976227
-35.940842 21.121464 2.493236 1.880790849211783e-38 1768976227
-35.940849 21.121469 -0.744971 1.880790849211783e-38 1768976227
-35.940838 21.121464 -0.975054 1.880790849211783e-38 1768976227
-35.940845 21.121466 0.720744 1.880790849211783e-38 1768976227
-35.940842 21.121468 0.507704 1.880790849211783e-38 1768976227
-35.940845 21.121468 -1.230702 1.880790849211783e-38 1768976227
-35.940845 21.121468 -1.435220 1.880790849211783e-38 1768976227
-35.940845 21.121466 0.252056 1.880790849211783e-38 1768976227
-35.940845 21.121468 0.030494 1.880790849211783e-38 1768976227
-35.777626 21.170977 4.976246 1.880790849211783e-38 1768976227
-35.777618 21.170975 -0.241525 1.880790849211783e-38 1768976227
-35.777622 21.170977 -0.479470 1.880790849211783e-38 1768976227
-35.777626 21.170977 4.729804 1.880790849211783e-38 1768976227
-35.777622 21.170977 4.440871 1.880790849211783e-38 1768976227
-35.777622 21.170975 4.253916 1.880790849211783e-38 1768976227
-35.777622 21.170975 3.981980 1.880790849211783e-38 1768976227
-35.777622 21.170977 2.214396 1.880790849211783e-38 1768976227
-35.777630 21.170979 2.010444 1.880790849211783e-38 1768976227
-35.777622 21.170975 3.676051 1.880790849211783e-38 1768976227
-35.777630 21.170979 3.489096 1.880790849211783e-38 1768976227
-35.777630 21.170979 1.730010 1.880790849211783e-38 1768976227
-35.777618 21.170973 1.534556 1.880790849211783e-38 1768976227
-35.777626 21.170977 3.225658 1.880790849211783e-38 1768976227
-35.777626 21.170977 2.962219 1.880790849211783e-38 1768976227
-35.777622 21.170977 1.254122 1.880790849211783e-38 1768976227
-35.777630 21.170979 1.050170 1.880790849211783e-38 1768976227
-35.777622 21.170977 2.749770 1.880790849211783e-38 1768976227
-35.777622 21.170977 2.486331 1.880790849211783e-38 1768976227
-35.777622 21.170977 -0.742908 1.880790849211783e-38 1768976227
-35.777626 21.170979 -0.972354 1.880790849211783e-38 1768976227
-35.777626 21.170975 0.718748 1.880790849211783e-38 1768976227
-35.777626 21.170977 0.506298 1.880790849211783e-38 1768976227
-35.777626 21.170979 -1.227294 1.880790849211783e-38 1768976227
-35.777626 21.170979 -1.431246 1.880790849211783e-38 1768976227
-35.777626 21.170979 0.251358 1.880790849211783e-38 1768976227
-35.777626 21.170977 0.030410 1.880790849211783e-38 1768976227
-35.615334 21.220209 4.962551 1.880790849211783e-38 1768976227
-35.615334 21.220207 -0.240861 1.880790849211783e-38 1768976227
-35.615334 21.220205 -0.478150 1.880790849211783e-38 1768976227
-35.615337 21.220207 4.716787 1.880790849211783e-38 1768976227
-35.615330 21.220203 4.428649 1.880790849211783e-38 1768976227
-35.615337 21.220209 4.242209 1.880790849211783e-38 1768976227
-35.615334 21.220207 3.971021 1.880790849211783e-38 1768976227
-35.615334 21.220207 2.208302 1.880790849211783e-38 1768976227
-35.615334 21.220207 2.004911 1.880790849211783e-38 1768976227
-35.615334 21.220207 3.665934 1.880790849211783e-38 1768976227
-35.615330 21.220205 3.479493 1.880790849211783e-38 1768976227
-35.615330 21.220205 1.725249 1.880790849211783e-38 1768976227
-35.615330 21.220205 1.530333 1.880790849211783e-38 1768976227
-35.615334 21.220205 3.216780 1.880790849211783e-38 1768976227
-35.615330 21.220205 2.954067 1.880790849211783e-38 1768976227
-35.615334 21.220205 1.250670 1.880790849211783e-38 1768976227
-35.615337 21.220211 1.047280 1.880790849211783e-38 1768976227
-35.615330 21.220205 2.742202 1.880790849211783e-38 1768976227
-35.615334 21.220207 2.479489 1.880790849211783e-38 1768976227
-35.615334 21.220207 -0.740863 1.880790849211783e-38 1768976227
-35.615330 21.220205 -0.969678 1.880790849211783e-38 1768976227
-35.615337 21.220209 0.716770 1.880790849211783e-38 1768976227
-35.615334 21.220205 0.504905 1.880790849211783e-38 1768976227
-35.615334 21.220205 -1.223916 1.880790849211783e-38 1768976227
-35.615334 21.220205 -1.427307 1.880790849211783e-38 1768976227
-35.615330 21.220205 0.250667 1.880790849211783e-38 1768976227
-35.615334 21.220207 0.030326 1.880790849211783e-38 1768976227
-35.453907 21.269176 4.948974 1.880790849211783e-38 1768976227
-35.453899 21.269173 -0.240202 1.880790849211783e-38 1768976227
-35.453907 21.269176 -0.476842 1.880790849211783e-38 1768976227
-35.453903 21.269175 4.703881 1.880790849211783e-38 1768976227
-35.453903 21.269175 4.416533 1.880790849211783e-38 1768976227
-35.453903 21.269173 4.230602 1.880790849211783e-38 1768976227
-35.453899 21.269173 3.960156 1.880790849211783e-38 1768976227
-35.453907 21.269176 2.202260 1.880790849211783e-38 1768976227
-35.453907 21.269175 1.999425 1.880790849211783e-38 1768976227
-35.453907 21.269176 3.655905 1.880790849211783e-38 1768976227
-35.453911 21.269178 3.469974 1.880790849211783e-38 1768976227
-35.453903 21.269171 1.720528 1.880790849211783e-38 1768976227
-35.453907 21.269175 1.526146 1.880790849211783e-38 1768976227
-35.453903 21.269173 3.207979 1.880790849211783e-38 1768976227
-35.453907 21.269176 2.945985 1.880790849211783e-38 1768976227
-35.453907 21.269175 1.247249 1.880790849211783e-38 1768976227
-35.453907 21.269175 1.044415 1.880790849211783e-38 1768976227
-35.453907 21.269175 2.734700 1.880790849211783e-38 1768976227
-35.453911 21.269176 2.472705 1.880790849211783e-38 1768976227
-35.453911 21.269176 -0.738836 1.880790849211783e-38 1768976227
-35.453907 21.269175 -0.967025 1.880790849211783e-38 1768976227
-35.453903 21.269175 0.714809 1.880790849211783e-38 1768976227
-35.453907 21.269176 0.503524 1.880790849211783e-38 1768976227
-35.453903 21.269171 -1.220567 1.880790849211783e-38 1768976227
-35.453903 21.269175 -1.423402 1.880790849211783e-38 1768976227
-35.453907 21.269176 0.249981 1.880790849211783e-38 1768976227
-35.453903 21.269176 0.030243 1.880790849211783e-38 1768976227
-35.293358 21.317879 4.935515 1.880790849211783e-38 1768976227
-35.293358 21.317877 -0.239549 1.880790849211783e-38 1768976227
-35.293358 21.317879 -0.475545 1.880790849211783e-38 1768976227
-35.293362 21.317881 4.691091 1.880790849211783e-38 1768976227
-35.293358 21.317877 4.404522 1.880790849211783e-38 1768976227
-35.293354 21.317877 4.219098 1.880790849211783e-38 1768976227
-35.293358 21.317877 3.949387 1.880790849211783e-38 1768976227
-35.293365 21.317879 2.196271 1.880790849211783e-38 1768976227
-35.293354 21.317875 1.993988 1.880790849211783e-38 1768976227
-35.293358 21.317877 3.645963 1.880790849211783e-38 1768976227
-35.293362 21.317877 3.460537 1.880790849211783e-38 1768976227
-35.293358 21.317877 1.715850 1.880790849211783e-38 1768976227
-35.293362 21.317879 1.521996 1.880790849211783e-38 1768976227
-35.293362 21.317879 3.199256 1.880790849211783e-38 1768976227
-35.293362 21.317877 2.937974 1.880790849211783e-38 1768976227
-35.293358 21.317875 1.243857 1.880790849211783e-38 1768976227
-35.293362 21.317879 1.041574 1.880790849211783e-38 1768976227
-35.293354 21.317875 2.727263 1.880790849211783e-38 1768976227
-35.293362 21.317879 2.465981 1.880790849211783e-38 1768976227
-35.293358 21.317877 -0.736827 1.880790849211783e-38 1768976227
-35.293358 21.317877 -0.964395 1.880790849211783e-38 1768976227
-35.293358 21.317877 0.712865 1.880790849211783e-38 1768976227
-35.293362 21.317879 0.502154 1.880790849211783e-38 1768976227
-35.293358 21.317877 -1.217248 1.880790849211783e-38 1768976227
-35.293358 21.317877 -1.419531 1.880790849211783e-38 1768976227
-35.293358 21.317875 0.249301 1.880790849211783e-38 1768976227
-35.293354 21.317875 0.030161 1.880790849211783e-38 1768976227
-35.133675 21.366314 4.922174 1.880790849211783e-38 1768976227
-35.133682 21.366316 -0.238901 1.880790849211783e-38 1768976227
-35.133678 21.366314 -0.474260 1.880790849211783e-38 1768976227
-35.133678 21.366312 4.678410 1.880790849211783e-38 1768976227
-35.133678 21.366310 4.392617 1.880790849211783e-38 1768976227
-35.133678 21.366316 4.207693 1.880790849211783e-38 1768976227
-35.133682 21.366316 3.938712 1.880790849211783e-38 1768976227
-35.133682 21.366318 2.190335 1.880790849211783e-38 1768976227
-35.133682 21.366316 1.988598 1.880790849211783e-38 1768976227
-35.133671 21.366310 3.636107 1.880790849211783e-38 1768976227
-35.133678 21.366314 3.451184 1.880790849211783e-38 1768976227
-35.133675 21.366314 1.711212 1.880790849211783e-38 1768976227
-35.133682 21.366314 1.517882 1.880790849211783e-38 1768976227
-35.133678 21.366314 3.190608 1.880790849211783e-38 1768976227
-35.133678 21.366314 2.930032 1.880790849211783e-38 1768976227
-35.133678 21.366314 1.240495 1.880790849211783e-38 1768976227
-35.133682 21.366316 1.038759 1.880790849211783e-38 1768976227
-35.133678 21.366314 2.719891 1.880790849211783e-38 1768976227
-35.133678 21.366316 2.459316 1.880790849211783e-38 1768976227
-35.133682 21.366318 -0.734835 1.880790849211783e-38 1768976227
-35.133686 21.366320 -0.961789 1.880790849211783e-38 1768976227
-35.133678 21.366314 0.710938 1.880790849211783e-38 1768976227
-35.133678 21.366314 0.500797 1.880790849211783e-38 1768976227
-35.133678 21.366314 -1.213958 1.880790849211783e-38 1768976227
-35.133682 21.366314 -1.415694 1.880790849211783e-38 1768976227
-35.133682 21.366316 0.248627 1.880790849211783e-38 1768976227
-35.133675 21.366314 0.030080 1.880790849211783e-38 1768976227
-34.997383 21.428284 4.912112 1.880790849211783e-38 1768976227
-34.997383 21.428284 -0.238413 1.880790849211783e-38 1768976227
-34.997383 21.428282 -0.473290 1.880790849211783e-38 1768976227
-34.997383 21.428280 4.668845 1.880790849211783e-38 1768976227
-34.997383 21.428278 4.383636 1.880790849211783e-38 1768976227
-34.997379 21.428280 4.199090 1.880790849211783e-38 1768976227
-34.997375 21.428278 3.930659 1.880790849211783e-38 1768976227
-34.997379 21.428280 2.185856 1.880790849211783e-38 1768976227
-34.997375 21.428278 1.984532 1.880790849211783e-38 1768976227
-34.997379 21.428280 3.628674 1.880790849211783e-38 1768976227
-34.997387 21.428282 3.444128 1.880790849211783e-38 1768976227
-34.997379 21.428280 1.707713 1.880790849211783e-38 1768976227
-34.997375 21.428278 1.514778 1.880790849211783e-38 1768976227
-34.997375 21.428278 3.184085 1.880790849211783e-38 1768976227
-34.997379 21.428282 2.924042 1.880790849211783e-38 1768976227
-34.997383 21.428282 1.237959 1.880790849211783e-38 1768976227
-34.997379 21.428280 1.036635 1.880790849211783e-38 1768976227
-34.997375 21.428280 2.714330 1.880790849211783e-38 1768976227
-34.997379 21.428278 2.454287 1.880790849211783e-38 1768976227
-34.997379 21.428282 -0.733333 1.880790849211783e-38 1768976227
-34.997383 21.428282 -0.959822 1.880790849211783e-38 1768976227
-34.997379 21.428280 0.709485 1.880790849211783e-38 1768976227
-34.997379 21.428280 0.499773 1.880790849211783e-38 1768976227
-34.997375 21.428278 -1.211476 1.880790849211783e-38 1768976227
-34.997379 21.428282 -1.412800 1.880790849211783e-38 1768976227
-34.997379 21.428280 0.248119 1.880790849211783e-38 1768976227
-34.997387 21.428284 0.030018 1.880790849211783e-38 1768976227
-34.871059 21.495802 4.903458 1.880790849211783e-38 1768976227
-34.871056 21.495800 -0.237993 1.880790849211783e-38 1768976227
-34.871056 21.495800 -0.472457 1.880790849211783e-38 1768976227
-34.871059 21.495802 4.660621 1.880790849211783e-38 1768976227
-34.871056 21.495802 4.375915 1.880790849211783e-38 1768976227
-34.871056 21.495800 4.191693 1.880790849211783e-38 1768976227
-34.871056 21.495802 3.923735 1.880790849211783e-38 1768976227
-34.871056 21.495798 2.182005 1.880790849211783e-38 1768976227
-34.871052 21.495798 1.981036 1.880790849211783e-38 1768976227
-34.871056 21.495802 3.622282 1.880790849211783e-38 1768976227
-34.871056 21.495802 3.438061 1.880790849211783e-38 1768976227
-34.871056 21.495800 1.704705 1.880790849211783e-38 1768976227
-34.871056 21.495802 1.512110 1.880790849211783e-38 1768976227
-34.871056 21.495802 3.178476 1.880790849211783e-38 1768976227
-34.871056 21.495798 2.918891 1.880790849211783e-38 1768976227
-34.871063 21.495804 1.235778 1.880790849211783e-38 1768976227
-34.871059 21.495804 1.034809 1.880790849211783e-38 1768976227
-34.871056 21.495800 2.709549 1.880790849211783e-38 1768976227
-34.871056 21.495800 2.449964 1.880790849211783e-38 1768976227
-34.871056 21.495802 -0.732041 1.880790849211783e-38 1768976227
-34.871059 21.495804 -0.958131 1.880790849211783e-38 1768976227
-34.871056 21.495802 0.708235 1.880790849211783e-38 1768976227
-34.871056 21.495800 0.498893 1.880790849211783e-38 1768976227
-34.871059 21.495800 -1.209342 1.880790849211783e-38 1768976227
-34.871056 21.495800 -1.410311 1.880790849211783e-38 1768976227
-34.871059 21.495802 0.247682 1.880790849211783e-38 1768976227
-34.871056 21.495802 0.029965 1.880790849211783e-38 1768976227
-34.745178 21.563086 4.894880 1.880790849211783e-38 1768976227
-34.745178 21.563084 -0.237576 1.880790849211783e-38 1768976227
-34.745178 21.563084 -0.471630 1.880790849211783e-38 1768976227
-34.745174 21.563082 4.652466 1.880790849211783e-38 1768976227
-34.745178 21.563084 4.368259 1.880790849211783e-38 1768976227
-34.745178 21.563084 4.184361 1.880790849211783e-38 1768976227
-34.745178 21.563086 3.916871 1.880790849211783e-38 1768976227
-34.745178 21.563086 2.178188 1.880790849211783e-38 1768976227
-34.745178 21.563086 1.977571 1.880790849211783e-38 1768976227
-34.745174 21.563084 3.615944 1.880790849211783e-38 1768976227
-34.745182 21.563087 3.432046 1.880790849211783e-38 1768976227
-34.745178 21.563086 1.701723 1.880790849211783e-38 1768976227
-34.745178 21.563087 1.509465 1.880790849211783e-38 1768976227
-34.745174 21.563084 3.172915 1.880790849211783e-38 1768976227
-34.745178 21.563086 2.913785 1.880790849211783e-38 1768976227
-34.745178 21.563086 1.233616 1.880790849211783e-38 1768976227
-34.745178 21.563086 1.032999 1.880790849211783e-38 1768976227
-34.745178 21.563087 2.704809 1.880790849211783e-38 1768976227
-34.745178 21.563086 2.445678 1.880790849211783e-38 1768976227
-34.745182 21.563086 -0.730760 1.880790849211783e-38 1768976227
-34.745174 21.563084 -0.956455 1.880790849211783e-38 1768976227
-34.745174 21.563086 0.706996 1.880790849211783e-38 1768976227
-34.745174 21.563086 0.498020 1.880790849211783e-38 1768976227
-34.745174 21.563084 -1.207226 1.880790849211783e-38 1768976227
-34.745178 21.563084 -1.407844 1.880790849211783e-38 1768976227
-34.745178 21.563086 0.247248 1.880790849211783e-38 1768976227
-34.745178 21.563086 0.029913 1.880790849211783e-38 1768976227
-34.619732 21.630133 4.886375 1.880790849211783e-38 1768976227
-34.619736 21.630136 -0.237164 1.880790849211783e-38 1768976227
-34.619736 21.630138 -0.470811 1.880790849211783e-38 1768976227
-34.619732 21.630135 4.644384 1.880790849211783e-38 1768976227
-34.619732 21.630133 4.360670 1.880790849211783e-38 1768976227
-34.619736 21.630135 4.177091 1.880790849211783e-38 1768976227
-34.619736 21.630135 3.910066 1.880790849211783e-38 1768976227
-34.619736 21.630135 2.174404 1.880790849211783e-38 1768976227
-34.619736 21.630138 1.974136 1.880790849211783e-38 1768976227
-34.619736 21.630135 3.609663 1.880790849211783e-38 1768976227
-34.619736 21.630135 3.426083 1.880790849211783e-38 1768976227
-34.619740 21.630138 1.698767 1.880790849211783e-38 1768976227
-34.619736 21.630136 1.506842 1.880790849211783e-38 1768976227
-34.619732 21.630135 3.167403 1.880790849211783e-38 1768976227
-34.619732 21.630135 2.908722 1.880790849211783e-38 1768976227
-34.619740 21.630136 1.231473 1.880790849211783e-38 1768976227
-34.619732 21.630133 1.031204 1.880790849211783e-38 1768976227
-34.619736 21.630136 2.700110 1.880790849211783e-38 1768976227
-34.619736 21.630136 2.441429 1.880790849211783e-38 1768976227
-34.619736 21.630136 -0.729491 1.880790849211783e-38 1768976227
-34.619736 21.630136 -0.954794 1.880790849211783e-38 1768976227
-34.619736 21.630135 0.705768 1.880790849211783e-38 1768976227
-34.619736 21.630136 0.497155 1.880790849211783e-38 1768976227
-34.619736 21.630135 -1.205129 1.880790849211783e-38 1768976227
-34.619736 21.630135 -1.405398 1.880790849211783e-38 1768976227
-34.619736 21.630136 0.246819 1.880790849211783e-38 1768976227
-34.619736 21.630135 0.029861 1.880790849211783e-38 1768976227
-34.494751 21.696943 4.877947 1.880790849211783e-38 1768976227
-34.494751 21.696945 -0.236755 1.880790849211783e-38 1768976227
-34.494751 21.696945 -0.469999 1.880790849211783e-38 1768976227
-34.494751 21.696945 4.636374 1.880790849211783e-38 1768976227
-34.494751 21.696943 4.353149 1.880790849211783e-38 1768976227
-34.494751 21.696947 4.169887 1.880790849211783e-38 1768976227
-34.494751 21.696943 3.903322 1.880790849211783e-38 1768976227
-34.494747 21.696943 2.170654 1.880790849211783e-38 1768976227
-34.494751 21.696945 1.970730 1.880790849211783e-38 1768976227
-34.494755 21.696945 3.603437 1.880790849211783e-38 1768976227
-34.494751 21.696947 3.420174 1.880790849211783e-38 1768976227
-34.494751 21.696945 1.695836 1.880790849211783e-38 1768976227
-34.494747 21.696941 1.504243 1.880790849211783e-38 1768976227
-34.494751 21.696943 3.161940 1.880790849211783e-38 1768976227
-34.494751 21.696945 2.903706 1.880790849211783e-38 1768976227
-34.494747 21.696941 1.229349 1.880790849211783e-38 1768976227
-34.494755 21.696947 1.029426 1.880790849211783e-38 1768976227
-34.494747 21.696941 2.695452 1.880790849211783e-38 1768976227
-34.494751 21.696945 2.437218 1.880790849211783e-38 1768976227
-34.494747 21.696943 -0.728233 1.880790849211783e-38 1768976227
-34.494743 21.696941 -0.953146 1.880790849211783e-38 1768976227
-34.494751 21.696947 0.704551 1.880790849211783e-38 1768976227
-34.494755 21.696945 0.496297 1.880790849211783e-38 1768976227
-34.494755 21.696945 -1.203050 1.880790849211783e-38 1768976227
-34.494751 21.696943 -1.402974 1.880790849211783e-38 1768976227
-34.494751 21.696943 0.246393 1.880790849211783e-38 1768976227
-34.494751 21.696945 0.029809 1.880790849211783e-38 1768976227
-34.370171 21.763529 4.869590 1.880790849211783e-38 1768976227
-34.370171 21.763533 -0.236349 1.880790849211783e-38 1768976227
-34.370171 21.763535 -0.469194 1.880790849211783e-38 1768976227
-34.370171 21.763533 4.628430 1.880790849211783e-38 1768976227
-34.370174 21.763535 4.345691 1.880790849211783e-38 1768976227
-34.370167 21.763531 4.162742 1.880790849211783e-38 1768976227
-34.370174 21.763531 3.896635 1.880790849211783e-38 1768976227
-34.370171 21.763529 2.166935 1.880790849211783e-38 1768976227
-34.370171 21.763531 1.967354 1.880790849211783e-38 1768976227
-34.370174 21.763535 3.597263 1.880790849211783e-38 1768976227
-34.370171 21.763531 3.414314 1.880790849211783e-38 1768976227
-34.370174 21.763533 1.692931 1.880790849211783e-38 1768976227
-34.370174 21.763535 1.501666 1.880790849211783e-38 1768976227
-34.370174 21.763533 3.156523 1.880790849211783e-38 1768976227
-34.370171 21.763531 2.898731 1.880790849211783e-38 1768976227
-34.370171 21.763529 1.227242 1.880790849211783e-38 1768976227
-34.370174 21.763533 1.027662 1.880790849211783e-38 1768976227
-34.370171 21.763529 2.690834 1.880790849211783e-38 1768976227
-34.370171 21.763533 2.433042 1.880790849211783e-38 1768976227
-34.370174 21.763533 -0.726985 1.880790849211783e-38 1768976227
-34.370174 21.763535 -0.951514 1.880790849211783e-38 1768976227
-34.370171 21.763531 0.703343 1.880790849211783e-38 1768976227
-34.370171 21.763533 0.495447 1.880790849211783e-38 1768976227
-34.370167 21.763533 -1.200989 1.880790849211783e-38 1768976227
-34.370171 21.763531 -1.400570 1.880790849211783e-38 1768976227
-34.370171 21.763531 0.245971 1.880790849211783e-38 1768976227
-34.370171 21.763531 0.029758 1.880790849211783e-38 1768976227
-34.246014 21.829889 4.861306 1.880790849211783e-38 1768976227
-34.246014 21.829891 -0.235947 1.880790849211783e-38 1768976227
-34.246017 21.829891 -0.468395 1.880790849211783e-38 1768976227
-34.246017 21.829893 4.620557 1.880790849211783e-38 1768976227
-34.246017 21.829893 4.338298 1.880790849211783e-38 1768976227
-34.246021 21.829895 4.155661 1.880790849211783e-38 1768976227
-34.246021 21.829897 3.890006 1.880790849211783e-38 1768976227
-34.246017 21.829893 2.163249 1.880790849211783e-38 1768976227
-34.246014 21.829891 1.964007 1.880790849211783e-38 1768976227
-34.246017 21.829893 3.591143 1.880790849211783e-38 1768976227
-34.246017 21.829893 3.408506 1.880790849211783e-38 1768976227
-34.246021 21.829893 1.690051 1.880790849211783e-38 1768976227
-34.246014 21.829893 1.499111 1.880790849211783e-38 1768976227
-34.246014 21.829891 3.151153 1.880790849211783e-38 1768976227
-34.246017 21.829891 2.893799 1.880790849211783e-38 1768976227
-34.246017 21.829891 1.225155 1.880790849211783e-38 1768976227
-34.246014 21.829893 1.025913 1.880790849211783e-38 1768976227
-34.246014 21.829893 2.686256 1.880790849211783e-38 1768976227
-34.246021 21.829893 2.428903 1.880790849211783e-38 1768976227
-34.246017 21.829893 -0.725748 1.880790849211783e-38 1768976227
-34.246017 21.829893 -0.949895 1.880790849211783e-38 1768976227
-34.246017 21.829891 0.702147 1.880790849211783e-38 1768976227
-34.246017 21.829893 0.494604 1.880790849211783e-38 1768976227
-34.246017 21.829891 -1.198946 1.880790849211783e-38 1768976227
-34.246014 21.829891 -1.398188 1.880790849211783e-38 1768976227
-34.246017 21.829893 0.245553 1.880790849211783e-38 1768976227
-34.246017 21.829891 0.029708 1.880790849211783e-38 1768976227
-34.141830 21.908569 4.855874 1.880790849211783e-38 1768976227
-34.141827 21.908567 -0.235683 1.880790849211783e-38 1768976227
-34.141830 21.908569 -0.467872 1.880790849211783e-38 1768976227
-34.141827 21.908569 4.615393 1.880790849211783e-38 1768976227
-34.141827 21.908567 4.333450 1.880790849211783e-38 1768976227
-34.141830 21.908567 4.151017 1.880790849211783e-38 1768976227
-34.141830 21.908571 3.885659 1.880790849211783e-38 1768976227
-34.141827 21.908566 2.160831 1.880790849211783e-38 1768976227
-34.141827 21.908567 1.961812 1.880790849211783e-38 1768976227
-34.141827 21.908567 3.587130 1.880790849211783e-38 1768976227
-34.141823 21.908566 3.404696 1.880790849211783e-38 1768976227
-34.141827 21.908567 1.688162 1.880790849211783e-38 1768976227
-34.141830 21.908569 1.497436 1.880790849211783e-38 1768976227
-34.141827 21.908569 3.147632 1.880790849211783e-38 1768976227
-34.141830 21.908571 2.890566 1.880790849211783e-38 1768976227
-34.141827 21.908569 1.223786 1.880790849211783e-38 1768976227
-34.141830 21.908567 1.024767 1.880790849211783e-38 1768976227
-34.141830 21.908571 2.683255 1.880790849211783e-38 1768976227
-34.141830 21.908569 2.426189 1.880790849211783e-38 1768976227
-34.141827 21.908569 -0.724937 1.880790849211783e-38 1768976227
-34.141827 21.908571 -0.948833 1.880790849211783e-38 1768976227
-34.141827 21.908567 0.701362 1.880790849211783e-38 1768976227
-34.141827 21.908569 0.494051 1.880790849211783e-38 1768976227
-34.141827 21.908567 -1.197606 1.880790849211783e-38 1768976227
-34.141830 21.908569 -1.396625 1.880790849211783e-38 1768976227
-34.141830 21.908567 0.245278 1.880790849211783e-38 1768976227
-34.141827 21.908569 0.029674 1.880790849211783e-38 1768976227
-34.042519 21.990074 4.851161 1.880790849211783e-38 1768976227
-34.042519 21.990072 -0.235454 1.880790849211783e-38 1768976227
-34.042515 21.990072 -0.467418 1.880790849211783e-38 1768976227
-34.042519 21.990074 4.610913 1.880790849211783e-38 1768976227
-34.042515 21.990070 4.329243 1.880790849211783e-38 1768976227
-34.042519 21.990072 4.146987 1.880790849211783e-38 1768976227
-34.042515 21.990072 3.881886 1.880790849211783e-38 1768976227
-34.042519 21.990074 2.158734 1.880790849211783e-38 1768976227
-34.042511 21.990068 1.959908 1.880790849211783e-38 1768976227
-34.042515 21.990070 3.583648 1.880790849211783e-38 1768976227
-34.042519 21.990072 3.401392 1.880790849211783e-38 1768976227
-34.042515 21.990074 1.686523 1.880790849211783e-38 1768976227
-34.042515 21.990072 1.495983 1.880790849211783e-38 1768976227
-34.042511 21.990070 3.144576 1.880790849211783e-38 1768976227
-34.042515 21.990074 2.887759 1.880790849211783e-38 1768976227
-34.042522 21.990074 1.222598 1.880790849211783e-38 1768976227
-34.042515 21.990074 1.023772 1.880790849211783e-38 1768976227
-34.042519 21.990072 2.680650 1.880790849211783e-38 1768976227
-34.042507 21.990068 2.423833 1.880790849211783e-38 1768976227
-34.042515 21.990074 -0.724233 1.880790849211783e-38 1768976227
-34.042515 21.990072 -0.947912 1.880790849211783e-38 1768976227
-34.042515 21.990072 0.700681 1.880790849211783e-38 1768976227
-34.042519 21.990074 0.493572 1.880790849211783e-38 1768976227
-34.042515 21.990070 -1.196444 1.880790849211783e-38 1768976227
-34.042515 21.990074 -1.395269 1.880790849211783e-38 1768976227
-34.042519 21.990072 0.245040 1.880790849211783e-38 1768976227
-34.042515 21.990070 0.029646 1.880790849211783e-38 1768976227
-33.943398 22.071419 4.846499 1.880790849211783e-38 1768976227
-33.943394 22.071419 -0.235228 1.880790849211783e-38 1768976227
-33.943390 22.071417 -0.466969 1.880790849211783e-38 1768976227
-33.943398 22.071419 4.606483 1.880790849211783e-38 1768976227
-33.943394 22.071419 4.325084 1.880790849211783e-38 1768976227
-33.943401 22.071421 4.143003 1.880790849211783e-38 1768976227
-33.943398 22.071421 3.878157 1.880790849211783e-38 1768976227
-33.943398 22.071419 2.156659 1.880790849211783e-38 1768976227
-33.943394 22.071417 1.958025 1.880790849211783e-38 1768976227
-33.943398 22.071419 3.580205 1.880790849211783e-38 1768976227
-33.943398 22.071421 3.398124 1.880790849211783e-38 1768976227
-33.943401 22.071421 1.684903 1.880790849211783e-38 1768976227
-33.943401 22.071421 1.494545 1.880790849211783e-38 1768976227
-33.943398 22.071421 3.141555 1.880790849211783e-38 1768976227
-33.943398 22.071419 2.884985 1.880790849211783e-38 1768976227
-33.943398 22.071419 1.221423 1.880790849211783e-38 1768976227
-33.943394 22.071417 1.022789 1.880790849211783e-38 1768976227
-33.943398 22.071421 2.678075 1.880790849211783e-38 1768976227
-33.943394 22.071417 2.421505 1.880790849211783e-38 1768976227
-33.943398 22.071417 -0.723538 1.880790849211783e-38 1768976227
-33.943398 22.071417 -0.947002 1.880790849211783e-38 1768976227
-33.943394 22.071415 0.700008 1.880790849211783e-38 1768976227
-33.943398 22.071421 0.493098 1.880790849211783e-38 1768976227
-33.943390 22.071415 -1.195294 1.880790849211783e-38 1768976227
-33.943398 22.071419 -1.393929 1.880790849211783e-38 1768976227
-33.943394 22.071417 0.244805 1.880790849211783e-38 1768976227
-33.943398 22.071417 0.029617 1.880790849211783e-38 1768976227
-33.844467 22.152611 4.841891 1.880790849211783e-38 1768976227
-33.844463 22.152611 -0.235005 1.880790849211783e-38 1768976227
-33.844463 22.152607 -0.466525 1.880790849211783e-38 1768976227
-33.844460 22.152607 4.602102 1.880790849211783e-38 1768976227
-33.844467 22.152609 4.320971 1.880790849211783e-38 1768976227
-33.844467 22.152609 4.139063 1.880790849211783e-38 1768976227
-33.844467 22.152609 3.874470 1.880790849211783e-38 1768976227
-33.844467 22.152611 2.154609 1.880790849211783e-38 1768976227
-33.844463 22.152607 1.956163 1.880790849211783e-38 1768976227
-33.844463 22.152609 3.576801 1.880790849211783e-38 1768976227
-33.844467 22.152609 3.394893 1.880790849211783e-38 1768976227
-33.844467 22.152609 1.683301 1.880790849211783e-38 1768976227
-33.844471 22.152611 1.493124 1.880790849211783e-38 1768976227
-33.844467 22.152611 3.138568 1.880790849211783e-38 1768976227
-33.844467 22.152609 2.882242 1.880790849211783e-38 1768976227
-33.844467 22.152609 1.220262 1.880790849211783e-38 1768976227
-33.844467 22.152613 1.021816 1.880790849211783e-38 1768976227
-33.844467 22.152609 2.675528 1.880790849211783e-38 1768976227
-33.844467 22.152609 2.419203 1.880790849211783e-38 1768976227
-33.844467 22.152611 -0.722850 1.880790849211783e-38 1768976227
-33.844467 22.152611 -0.946101 1.880790849211783e-38 1768976227
-33.844463 22.152607 0.699343 1.880790849211783e-38 1768976227
-33.844467 22.152611 0.492629 1.880790849211783e-38 1768976227
-33.844471 22.152611 -1.194158 1.880790849211783e-38 1768976227
-33.844471 22.152611 -1.392604 1.880790849211783e-38 1768976227
