# .PCD v0.7 - Point Cloud Data file format
VERSION 0.7
FIELDS x y z rgb label
SIZE 4 4 4 4 4
TYPE F F F F U
COUNT 1 1 1 1 1
WIDTH 752
HEIGHT 1
VIEWPOINT 0 0 0 1 0 0 0
POINTS 752
DATA ascii
26.051371 -71.850113 10.960687 1.880790849211783e-38 1768976227
28.643064 -78.998062 8.598503 1.880790849211783e-38 1768976227
29.858124 -82.349213 8.390271 1.880790849211783e-38 1768976227
26.179090 -72.202377 10.590540 1.880790849211783e-38 1768976227
26.112053 -72.017479 10.124959 1.880790849211783e-38 1768976227
29.434769 -81.181587 4.599710 1.880790849211783e-38 1768976227
30.502768 -84.127151 4.327588 1.880790849211783e-38 1768976227
30.405802 -83.859718 7.887738 1.880790849211783e-38 1768976227
27.184237 -74.974586 6.693365 1.880790849211783e-38 1768976227
33.100998 -91.293114 4.041146 1.880790849211783e-38 1768976227
34.309208 -94.625374 3.715423 1.880790849211783e-38 1768976227
26.907875 -74.212372 6.125086 1.880790849211783e-38 1768976227
30.795395 -84.934212 6.437504 1.880790849211783e-38 1768976227
34.445267 -95.000626 3.048487 1.880790849211783e-38 1768976227
34.512295 -95.185486 2.557694 1.880790849211783e-38 1768976227
30.946299 -85.350418 6.005092 1.880790849211783e-38 1768976227
32.269569 -89.000015 5.661960 1.880790849211783e-38 1768976227
12.560246 -34.641373 -0.658484 1.880790849211783e-38 1768976227
12.509525 -34.501480 -0.858377 1.880790849211783e-38 1768976227
34.615761 -95.470848 1.755765 1.880790849211783e-38 1768976227
34.682407 -95.654663 1.239174 1.880790849211783e-38 1768976227
12.453645 -34.347366 -1.078594 1.880790849211783e-38 1768976227
12.409296 -34.225052 -1.253357 1.880790849211783e-38 1768976227
12.896344 -35.568336 0.228759 1.880790849211783e-38 1768976227
12.793783 -35.285473 0.027458 1.880790849211783e-38 1768976227
26.265854 -72.441666 15.469470 1.880790849211783e-38 1768976227
26.003462 -71.717987 14.519631 1.880790849211783e-38 1768976227
29.114687 -80.298798 22.909096 1.880790849211783e-38 1768976227
28.601099 -78.882317 21.647377 1.880790849211783e-38 1768976227
26.010658 -71.737839 18.782036 1.880790849211783e-38 1768976227
25.192772 -69.482094 13.477753 1.880790849211783e-38 1768976227
25.244114 -69.623688 12.839113 1.880790849211783e-38 1768976227
25.585022 -70.563927 17.646151 1.880790849211783e-38 1768976227
25.379187 -69.996223 17.047590 1.880790849211783e-38 1768976227
25.559378 -70.493195 12.386342 1.880790849211783e-38 1768976227
23.947140 -66.046608 10.987513 1.880790849211783e-38 1768976227
27.011503 -74.498184 17.382708 1.880790849211783e-38 1768976227
27.632456 -76.210777 17.185751 1.880790849211783e-38 1768976227
25.867558 -72.020248 9.551191 1.880790849211783e-38 1768976227
28.509310 -79.375404 10.095610 1.880790849211783e-38 1768976227
12.536356 -34.903625 -0.215463 1.880790849211783e-38 1768976227
12.472524 -34.725906 -0.425556 1.880790849211783e-38 1768976227
28.419456 -79.125237 9.565395 1.880790849211783e-38 1768976227
25.802887 -71.840195 11.446573 1.880790849211783e-38 1768976227
25.869211 -72.024857 10.975392 1.880790849211783e-38 1768976227
28.537022 -79.452553 8.638564 1.880790849211783e-38 1768976227
29.562643 -82.308083 8.376959 1.880790849211783e-38 1768976227
25.978268 -72.328499 10.597499 1.880790849211783e-38 1768976227
25.923573 -72.176216 10.136237 1.880790849211783e-38 1768976227
29.296053 -81.565842 4.616455 1.880790849211783e-38 1768976227
30.312155 -84.394867 4.336637 1.880790849211783e-38 1768976227
32.167870 -89.561546 8.414881 1.880790849211783e-38 1768976227
26.937031 -74.997879 6.688161 1.880790849211783e-38 1768976227
33.004219 -91.890106 4.063147 1.880790849211783e-38 1768976227
33.950165 -94.523788 3.707397 1.880790849211783e-38 1768976227
26.699877 -74.337593 6.128747 1.880790849211783e-38 1768976227
30.481770 -84.867111 6.425421 1.880790849211783e-38 1768976227
34.094845 -94.926605 3.042798 1.880790849211783e-38 1768976227
34.167728 -95.129532 2.553410 1.880790849211783e-38 1768976227
32.107227 -89.392700 6.282657 1.880790849211783e-38 1768976227
32.014980 -89.135864 5.664433 1.880790849211783e-38 1768976227
12.414649 -34.564774 -0.656314 1.880790849211783e-38 1768976227
12.364679 -34.425648 -0.855559 1.880790849211783e-38 1768976227
12.966540 -36.101345 0.663203 1.880790849211783e-38 1768976227
12.797119 -35.629642 0.461068 1.880790849211783e-38 1768976227
12.309627 -34.272369 -1.075069 1.880790849211783e-38 1768976227
12.265936 -34.150726 -1.249274 1.880790849211783e-38 1768976227
12.681353 -35.307323 0.226834 1.880790849211783e-38 1768976227
12.615943 -35.125217 0.027303 1.880790849211783e-38 1768976227
26.023081 -72.453270 15.455117 1.880790849211783e-38 1768976227
25.704729 -71.566917 14.473284 1.880790849211783e-38 1768976227
28.902273 -80.469490 22.932821 1.880790849211783e-38 1768976227
25.192062 -70.139549 19.227194 1.880790849211783e-38 1768976227
25.849936 -71.971191 18.822634 1.880790849211783e-38 1768976227
24.830486 -69.132851 13.395421 1.880790849211783e-38 1768976227
25.336269 -70.541046 12.994129 1.880790849211783e-38 1768976227
25.338417 -70.547035 17.622736 1.880790849211783e-38 1768976227
25.172194 -70.084236 17.050457 1.880790849211783e-38 1768976227
25.331930 -70.528969 12.379147 1.880790849211783e-38 1768976227
23.573383 -65.632835 10.906798 1.880790849211783e-38 1768976227
26.590004 -74.031693 17.255070 1.880790849211783e-38 1768976227
27.049665 -75.311470 16.964479 1.880790849211783e-38 1768976227
25.685577 -72.197250 9.564348 1.880790849211783e-38 1768976227
28.292646 -79.525223 10.103766 1.880790849211783e-38 1768976227
12.378981 -34.794952 -0.214561 1.880790849211783e-38 1768976227
12.327029 -34.648930 -0.424156 1.880790849211783e-38 1768976227
28.203409 -79.274406 9.573101 1.880790849211783e-38 1768976227
25.565723 -71.860367 11.437451 1.880790849211783e-38 1768976227
25.680899 -72.184097 10.987805 1.880790849211783e-38 1768976227
28.440174 -79.939896 8.682186 1.880790849211783e-38 1768976227
29.268089 -82.267014 8.363757 1.880790849211783e-38 1768976227
25.789059 -72.488113 10.609442 1.880790849211783e-38 1768976227
25.734697 -72.335320 10.147635 1.880790849211783e-38 1768976227
29.860134 -83.931137 4.745208 1.880790849211783e-38 1768976227
30.086092 -84.566261 4.340762 1.880790849211783e-38 1768976227
25.744728 -72.363518 6.791691 1.880790849211783e-38 1768976227
26.690268 -75.021248 6.683037 1.880790849211783e-38 1768976227
33.455135 -94.036003 4.153553 1.880790849211783e-38 1768976227
33.576572 -94.377335 3.697665 1.880790849211783e-38 1768976227
26.383135 -74.157959 6.107349 1.880790849211783e-38 1768976227
30.169334 -84.800240 6.413441 1.880790849211783e-38 1768976227
33.737137 -94.828644 3.036383 1.880790849211783e-38 1768976227
33.817757 -95.055260 2.548667 1.880790849211783e-38 1768976227
25.752577 -72.385574 5.081889 1.880790849211783e-38 1768976227
29.442089 -82.756096 5.253344 1.880790849211783e-38 1768976227
12.270020 -34.488682 -0.654163 1.880790849211783e-38 1768976227
12.220794 -34.350315 -0.852767 1.880790849211783e-38 1768976227
12.678218 -35.636051 0.653950 1.880790849211783e-38 1768976227
12.586298 -35.377678 0.457314 1.880790849211783e-38 1768976227
12.166557 -34.197868 -1.071576 1.880790849211783e-38 1768976227
12.129966 -34.095016 -1.245893 1.880790849211783e-38 1768976227
12.511380 -35.167103 0.225689 1.880790849211783e-38 1768976227
12.447165 -34.986603 0.027166 1.880790849211783e-38 1768976227
25.780735 -72.464722 15.440906 1.880790849211783e-38 1768976227
25.408001 -71.417038 14.427412 1.880790849211783e-38 1768976227
28.693699 -80.652504 22.960213 1.880790849211783e-38 1768976227
25.163240 -70.729057 19.367905 1.880790849211783e-38 1768976227
25.721943 -72.299469 18.888115 1.880790849211783e-38 1768976227
25.502283 -71.682045 13.874396 1.880790849211783e-38 1768976227
25.086548 -70.513496 12.975060 1.880790849211783e-38 1768976227
25.130093 -70.635887 17.625921 1.880790849211783e-38 1768976227
24.965199 -70.172409 17.053516 1.880790849211783e-38 1768976227
23.729256 -66.698410 11.694199 1.880790849211783e-38 1768976227
25.120529 -70.609016 11.721092 1.880790849211783e-38 1768976227
26.410519 -74.234924 17.283798 1.880790849211783e-38 1768976227
26.994755 -75.877098 17.073477 1.880790849211783e-38 1768976227
25.497879 -72.360001 9.575678 1.880790849211783e-38 1768976227
28.075636 -79.675369 10.112039 1.880790849211783e-38 1768976227
12.233650 -34.717667 -0.213856 1.880790849211783e-38 1768976227
12.182479 -34.572449 -0.422768 1.880790849211783e-38 1768976227
27.991497 -79.436592 9.582449 1.880790849211783e-38 1768976227
25.328835 -71.880264 11.428407 1.880790849211783e-38 1768976227
25.469593 -72.279724 10.990619 1.880790849211783e-38 1768976227
28.342503 -80.432701 8.726386 1.880790849211783e-38 1768976227
28.957987 -82.179382 8.345931 1.880790849211783e-38 1768976227
25.599409 -72.648125 10.621513 1.880790849211783e-38 1768976227
25.545391 -72.494827 10.159159 1.880790849211783e-38 1768976227
29.630833 -84.088829 4.749049 1.880790849211783e-38 1768976227
29.823923 -84.636803 4.339746 1.880790849211783e-38 1768976227
25.338863 -71.908730 6.741803 1.880790849211783e-38 1768976227
26.443893 -75.044678 6.677989 1.880790849211783e-38 1768976227
33.360485 -94.673149 4.177233 1.880790849211783e-38 1768976227
33.213371 -94.255653 3.688956 1.880790849211783e-38 1768976227
26.248383 -74.489838 6.128134 1.880790849211783e-38 1768976227
31.387697 -89.074615 6.729520 1.880790849211783e-38 1768976227
33.379318 -94.726593 3.029878 1.880790849211783e-38 1768976227
12.613900 -35.796772 0.958776 1.880790849211783e-38 1768976227
25.451756 -72.229103 5.065491 1.880790849211783e-38 1768976227
29.042048 -82.417938 5.226294 1.880790849211783e-38 1768976227
12.126319 -34.413074 -0.652033 1.880790849211783e-38 1768976227
12.081560 -34.286053 -0.850263 1.880790849211783e-38 1768976227
12.478592 -35.412785 0.649159 1.880790849211783e-38 1768976227
12.416636 -35.236961 0.455009 1.880790849211783e-38 1768976227
12.036643 -34.158585 -1.069202 1.880790849211783e-38 1768976227
12.000949 -34.057289 -1.243186 1.880790849211783e-38 1768976227
12.343098 -35.028263 0.224558 1.880790849211783e-38 1768976227
12.292665 -34.885143 0.027059 1.880790849211783e-38 1768976227
25.632803 -72.742905 15.483637 1.880790849211783e-38 1768976227
25.473618 -72.291145 14.588409 1.880790849211783e-38 1768976227
28.531067 -80.967834 23.025377 1.880790849211783e-38 1768976227
25.133614 -71.326248 19.510590 1.880790849211783e-38 1768976227
25.568661 -72.560875 18.936172 1.880790849211783e-38 1768976227
25.343166 -71.920944 13.905779 1.880790849211783e-38 1768976227
24.802202 -70.385742 12.937729 1.880790849211783e-38 1768976227
24.921728 -70.724945 17.629307 1.880790849211783e-38 1768976227
24.758167 -70.260780 17.056768 1.880790849211783e-38 1768976227
23.417513 -66.456154 11.639289 1.880790849211783e-38 1768976227
24.854788 -70.534981 11.696306 1.880790849211783e-38 1768976227
26.173849 -74.278313 17.275442 1.880790849211783e-38 1768976227
26.164600 -74.252075 16.689991 1.880790849211783e-38 1768976227
25.309732 -72.523117 9.587119 1.880790849211783e-38 1768976227
25.852745 -74.079079 9.391844 1.880790849211783e-38 1768976227
12.089272 -34.640896 -0.213157 1.880790849211783e-38 1768976227
12.038868 -34.496464 -0.421392 1.880790849211783e-38 1768976227
27.780184 -79.602013 9.592253 1.880790849211783e-38 1768976227
24.839592 -71.175972 11.304467 1.880790849211783e-38 1768976227
25.258074 -72.375099 10.993487 1.880790849211783e-38 1768976227
28.243998 -80.931038 8.771170 1.880790849211783e-38 1768976227
28.647663 -82.087715 8.327808 1.880790849211783e-38 1768976227
25.409348 -72.808563 10.633718 1.880790849211783e-38 1768976227
25.355667 -72.654747 10.170806 1.880790849211783e-38 1768976227
29.345900 -84.088448 4.744008 1.880790849211783e-38 1768976227
29.640862 -84.933655 4.350363 1.880790849211783e-38 1768976227
25.084385 -71.877411 6.731743 1.880790849211783e-38 1768976227
25.372646 -72.703400 6.462807 1.880790849211783e-38 1768976227
33.043377 -94.683296 4.173265 1.880790849211783e-38 1768976227
33.164204 -95.029518 3.715312 1.880790849211783e-38 1768976227
29.258986 -83.839409 6.890015 1.880790849211783e-38 1768976227
31.131762 -89.205711 6.732301 1.880790849211783e-38 1768976227
12.490990 -35.791985 1.143615 1.880790849211783e-38 1768976227
12.405564 -35.547203 0.951085 1.880790849211783e-38 1768976227
25.172726 -72.130547 5.053232 1.880790849211783e-38 1768976227
28.733999 -82.335106 5.215522 1.880790849211783e-38 1768976227
11.992249 -34.362885 -0.650393 1.880790849211783e-38 1768976227
11.952063 -34.247734 -0.848415 1.880790849211783e-38 1768976227
12.309484 -35.271893 0.645893 1.880790849211783e-38 1768976227
12.250469 -35.102795 0.452797 1.880790849211783e-38 1768976227
11.907722 -34.120678 -1.066887 1.880790849211783e-38 1768976227
11.872488 -34.019714 -1.240502 1.880790849211783e-38 1768976227
12.195032 -34.943943 0.223781 1.880790849211783e-38 1768976227
12.147397 -34.807446 0.026970 1.880790849211783e-38 1768976227
25.339106 -72.607292 15.438435 1.880790849211783e-38 1768976227
25.149446 -72.063835 14.527165 1.880790849211783e-38 1768976227
27.542418 -78.920715 22.419500 1.880790849211783e-38 1768976227
25.075346 -71.851509 19.633492 1.880790849211783e-38 1768976227
25.414549 -72.823471 18.984613 1.880790849211783e-38 1768976227
25.183455 -72.161285 13.937499 1.880790849211783e-38 1768976227
23.530668 -67.425354 12.380472 1.880790849211783e-38 1768976227
24.717766 -70.826889 17.636055 1.880790849211783e-38 1768976227
24.551111 -70.349350 17.060217 1.880790849211783e-38 1768976227
23.156620 -66.353539 11.609031 1.880790849211783e-38 1768976227
24.846989 -71.197159 11.793631 1.880790849211783e-38 1768976227
26.057434 -74.665596 17.347158 1.880790849211783e-38 1768976227
27.979990 -80.174545 18.002161 1.880790849211783e-38 1768976227
25.121145 -72.686668 9.598680 1.880790849211783e-38 1768976227
25.635262 -74.174240 9.394063 1.880790849211783e-38 1768976227
11.950413 -34.577869 -0.212547 1.880790849211783e-38 1768976227
11.908670 -34.457088 -0.420471 1.880790849211783e-38 1768976227
27.568443 -79.767792 9.602167 1.880790849211783e-38 1768976227
24.623968 -71.248123 11.304079 1.880790849211783e-38 1768976227
24.990618 -72.308998 10.971949 1.880790849211783e-38 1768976227
28.343613 -82.010712 8.878878 1.880790849211783e-38 1768976227
28.338663 -81.996384 8.309834 1.880790849211783e-38 1768976227
25.218853 -72.969383 10.646048 1.880790849211783e-38 1768976227
25.165516 -72.815056 10.182576 1.880790849211783e-38 1768976227
29.071442 -84.116638 4.740630 1.880790849211783e-38 1768976227
24.830725 -71.846359 6.721791 1.880790849211783e-38 1768976227
24.813881 -71.797630 6.375608 1.880790849211783e-38 1768976227
12.546557 -36.302784 1.598408 1.880790849211783e-38 1768976227
12.402818 -35.886883 1.401579 1.880790849211783e-38 1768976227
28.988510 -83.876686 6.885861 1.880790849211783e-38 1768976227
25.292675 -73.182991 5.517294 1.880790849211783e-38 1768976227
12.295123 -35.575275 1.135500 1.880790849211783e-38 1768976227
12.236364 -35.405254 0.946295 1.880790849211783e-38 1768976227
24.895084 -72.032578 5.041086 1.880790849211783e-38 1768976227
28.386059 -82.133530 5.197307 1.880790849211783e-38 1768976227
11.862795 -34.324352 -0.648984 1.880790849211783e-38 1768976227
11.823127 -34.209576 -0.846582 1.880790849211783e-38 1768976227
12.150467 -35.156715 0.643110 1.880790849211783e-38 1768976227
12.104592 -35.023983 0.451308 1.880790849211783e-38 1768976227
11.779357 -34.082932 -1.064591 1.880790849211783e-38 1768976227
11.744576 -33.982296 -1.237840 1.880790849211783e-38 1768976227
12.049994 -34.866009 0.223048 1.880790849211783e-38 1768976227
12.003077 -34.730251 0.026882 1.880790849211783e-38 1768976227
25.078032 -72.561935 15.412639 1.880790849211783e-38 1768976227
25.270021 -73.117439 14.724127 1.880790849211783e-38 1768976227
27.170059 -78.615097 22.309301 1.880790849211783e-38 1768976227
24.966919 -72.240425 19.719099 1.880790849211783e-38 1768976227
25.259613 -73.087326 19.033453 1.880790849211783e-38 1768976227
25.023159 -72.403160 13.969576 1.880790849211783e-38 1768976227
23.282043 -67.365341 12.356503 1.880790849211783e-38 1768976227
24.533062 -70.985085 17.656942 1.880790849211783e-38 1768976227
24.355244 -70.470581 17.071724 1.880790849211783e-38 1768976227
22.897150 -66.251663 11.579072 1.880790849211783e-38 1768976227
24.627174 -71.257393 11.791250 1.880790849211783e-38 1768976227
25.940052 -75.056137 17.419636 1.880790849211783e-38 1768976227
25.903679 -74.950890 16.811638 1.880790849211783e-38 1768976227
24.932116 -72.850609 9.610355 1.880790849211783e-38 1768976227
25.417698 -74.269463 9.396372 1.880790849211783e-38 1768976227
11.820384 -34.538673 -0.212086 1.880790849211783e-38 1768976227
11.779183 -34.418285 -0.419562 1.880790849211783e-38 1768976227
25.417767 -74.269653 8.931052 1.880790849211783e-38 1768976227
24.406858 -71.315826 11.303092 1.880790849211783e-38 1768976227
24.621037 -71.941650 10.904892 1.880790849211783e-38 1768976227
27.141102 -79.305168 8.577063 1.880790849211783e-38 1768976227
28.030998 -81.905411 8.292010 1.880790849211783e-38 1768976227
25.002230 -73.055481 10.647559 1.880790849211783e-38 1768976227
24.974949 -72.975754 10.194469 1.880790849211783e-38 1768976227
30.984404 -90.535149 5.097073 1.880790849211783e-38 1768976227
24.578634 -71.817757 6.712149 1.880790849211783e-38 1768976227
24.529545 -71.674309 6.358060 1.880790849211783e-38 1768976227
12.276339 -35.870953 1.577757 1.880790849211783e-38 1768976227
12.206733 -35.667568 1.391569 1.880790849211783e-38 1768976227
28.718397 -83.913963 6.881781 1.880790849211783e-38 1768976227
24.964499 -72.945236 5.493669 1.880790849211783e-38 1768976227
12.126542 -35.433254 1.129795 1.880790849211783e-38 1768976227
12.076021 -35.285633 0.942121 1.880790849211783e-38 1768976227
24.650560 -72.027916 5.035533 1.880790849211783e-38 1768976227
28.529385 -83.361679 5.269554 1.880790849211783e-38 1768976227
11.733904 -34.285980 -0.647586 1.880790849211783e-38 1768976227
11.694751 -34.171577 -0.844765 1.880790849211783e-38 1768976227
12.004859 -35.077698 0.640999 1.880790849211783e-38 1768976227
11.959682 -34.945694 0.449832 1.880790849211783e-38 1768976227
11.651550 -34.045345 -1.062315 1.880790849211783e-38 1768976227
11.617221 -33.945038 -1.235201 1.880790849211783e-38 1768976227
11.906646 -34.790726 0.222336 1.880790849211783e-38 1768976227
11.867820 -34.677277 0.026813 1.880790849211783e-38 1768976227
24.817968 -72.517075 15.387143 1.880790849211783e-38 1768976227
25.801769 -75.391701 15.166372 1.880790849211783e-38 1768976227
26.792015 -78.285156 22.192642 1.880790849211783e-38 1768976227
24.755499 -72.334541 19.724319 1.880790849211783e-38 1768976227
24.878819 -72.694870 18.911625 1.880790849211783e-38 1768976227
25.196608 -73.623444 14.190293 1.880790849211783e-38 1768976227
23.039837 -67.321449 12.335651 1.880790849211783e-38 1768976227
24.347994 -71.143837 17.678085 1.880790849211783e-38 1768976227
24.171310 -70.627563 17.092016 1.880790849211783e-38 1768976227
22.639103 -66.150520 11.549411 1.880790849211783e-38 1768976227
24.407438 -71.317520 11.788966 1.880790849211783e-38 1768976227
25.790453 -75.358635 17.471712 1.880790849211783e-38 1768976227
25.785347 -75.343712 16.882231 1.880790849211783e-38 1768976227
24.742617 -73.014977 9.622150 1.880790849211783e-38 1768976227
25.200312 -74.365631 9.398880 1.880790849211783e-38 1768976227
11.690902 -34.499622 -0.211629 1.880790849211783e-38 1768976227
11.650242 -34.379639 -0.418661 1.880790849211783e-38 1768976227
25.203741 -74.375740 8.934628 1.880790849211783e-38 1768976227
24.149302 -71.264107 11.283300 1.880790849211783e-38 1768976227
24.340498 -71.828331 10.876539 1.880790849211783e-38 1768976227
26.940788 -79.501732 8.589495 1.880790849211783e-38 1768976227
27.370298 -80.769218 8.168589 1.880790849211783e-38 1768976227
24.687626 -72.852699 10.607104 1.880790849211783e-38 1768976227
24.783928 -73.136879 10.206490 1.880790849211783e-38 1768976227
12.313330 -36.336395 2.043617 1.880790849211783e-38 1768976227
12.187826 -35.966038 1.836483 1.880790849211783e-38 1768976227
24.341118 -71.830162 6.706418 1.880790849211783e-38 1768976227
24.246803 -71.551834 6.340680 1.880790849211783e-38 1768976227
12.093783 -35.688519 1.568121 1.880790849211783e-38 1768976227
12.038325 -35.524857 1.384579 1.880790849211783e-38 1768976227
28.562834 -84.288361 6.905389 1.880790849211783e-38 1768976227
24.684898 -72.844650 5.480462 1.880790849211783e-38 1768976227
11.973803 -35.334457 1.125488 1.880790849211783e-38 1768976227
11.930264 -35.205978 0.939029 1.880790849211783e-38 1768976227
24.445930 -72.139458 5.038155 1.880790849211783e-38 1768976227
28.244801 -83.349854 5.263398 1.880790849211783e-38 1768976227
11.605554 -34.247765 -0.646200 1.880790849211783e-38 1768976227
11.567127 -34.134365 -0.842979 1.880790849211783e-38 1768976227
11.860189 -34.999191 0.638908 1.880790849211783e-38 1768976227
11.820561 -34.882248 0.448554 1.880790849211783e-38 1768976227
11.529001 -34.021854 -1.060492 1.880790849211783e-38 1768976227
11.498680 -33.932381 -1.233473 1.880790849211783e-38 1768976227
11.776037 -34.750854 0.221853 1.880790849211783e-38 1768976227
11.737722 -34.637791 0.026755 1.880790849211783e-38 1768976227
24.558840 -72.472656 15.361932 1.880790849211783e-38 1768976227
25.677435 -75.773613 15.227551 1.880790849211783e-38 1768976227
26.417692 -77.958092 22.077236 1.880790849211783e-38 1768976227
24.539633 -72.415977 19.726255 1.880790849211783e-38 1768976227
24.947227 -73.618782 19.132318 1.880790849211783e-38 1768976227
24.900728 -73.481552 14.148407 1.880790849211783e-38 1768976227
22.798527 -67.278008 12.315036 1.880790849211783e-38 1768976227
24.162533 -71.303154 17.699486 1.880790849211783e-38 1768976227
23.986982 -70.785110 17.112560 1.880790849211783e-38 1768976227
23.340786 -68.878204 12.013300 1.880790849211783e-38 1768976227
24.187746 -71.377571 11.786779 1.880790849211783e-38 1768976227
25.946638 -76.568024 17.733883 1.880790849211783e-38 1768976227
26.051130 -76.876373 17.207968 1.880790849211783e-38 1768976227
24.552656 -73.179771 9.634066 1.880790849211783e-38 1768976227
24.982805 -74.461845 9.401475 1.880790849211783e-38 1768976227
11.561980 -34.460758 -0.211175 1.880790849211783e-38 1768976227
11.522322 -34.342556 -0.417784 1.880790849211783e-38 1768976227
24.985897 -74.471062 8.936984 1.880790849211783e-38 1768976227
26.888901 -80.142998 9.030134 1.880790849211783e-38 1768976227
23.892574 -71.212379 11.263650 1.880790849211783e-38 1768976227
23.996586 -71.522385 10.819202 1.880790849211783e-38 1768976227
26.739826 -79.698685 8.602021 1.880790849211783e-38 1768976227
27.126471 -80.851089 8.168558 1.880790849211783e-38 1768976227
24.248489 -72.273201 10.512036 1.880790849211783e-38 1768976227
24.592464 -73.298424 10.218636 1.880790849211783e-38 1768976227
12.065372 -35.961124 2.020455 1.880790849211783e-38 1768976227
12.004976 -35.781113 1.825183 1.880790849211783e-38 1768976227
24.104059 -71.842720 6.700771 1.880790849211783e-38 1768976227
23.965656 -71.430199 6.323467 1.880790849211783e-38 1768976227
11.929576 -35.556385 1.560727 1.880790849211783e-38 1768976227
11.887783 -35.431820 1.379549 1.880790849211783e-38 1768976227
28.509178 -84.972275 6.954343 1.880790849211783e-38 1768976227
24.451048 -72.876923 5.477317 1.880790849211783e-38 1768976227
11.828329 -35.254616 1.121804 1.880790849211783e-38 1768976227
11.785465 -35.126858 0.935966 1.880790849211783e-38 1768976227
24.241106 -72.251190 5.040829 1.880790849211783e-38 1768976227
12.228715 -36.447968 2.299286 1.880790849211783e-38 1768976227
11.482881 -34.224998 -0.645115 1.880790849211783e-38 1768976227
11.448750 -34.123272 -0.841849 1.880790849211783e-38 1768976227
11.726796 -34.951992 0.637398 1.880790849211783e-38 1768976227
11.689929 -34.842110 0.447583 1.880790849211783e-38 1768976227
11.411066 -34.010952 -1.059075 1.880790849211783e-38 1768976227
11.381095 -33.921619 -1.231828 1.880790849211783e-38 1768976227
11.645993 -34.711159 0.221374 1.880790849211783e-38 1768976227
11.608181 -34.598457 0.026698 1.880790849211783e-38 1768976227
24.300659 -72.428688 15.337006 1.880790849211783e-38 1768976227
24.200851 -72.131210 14.480837 1.880790849211783e-38 1768976227
27.759594 -82.738129 23.407095 1.880790849211783e-38 1768976227
24.323610 -72.497101 19.728279 1.880790849211783e-38 1768976227
24.789753 -73.886452 19.182364 1.880790849211783e-38 1768976227
24.606524 -73.340332 14.106861 1.880790849211783e-38 1768976227
22.558121 -67.235008 12.294657 1.880790849211783e-38 1768976227
24.000904 -71.535271 17.739052 1.880790849211783e-38 1768976227
23.802271 -70.943222 17.133350 1.880790849211783e-38 1768976227
23.339825 -69.564896 12.120735 1.880790849211783e-38 1768976227
23.364058 -69.637123 11.487687 1.880790849211783e-38 1768976227
25.681067 -76.543030 17.710073 1.880790849211783e-38 1768976227
25.790264 -76.868492 17.188715 1.880790849211783e-38 1768976227
24.362228 -73.344986 9.646099 1.880790849211783e-38 1768976227
24.765181 -74.558121 9.404158 1.880790849211783e-38 1768976227
11.438844 -34.437809 -0.210822 1.880790849211783e-38 1768976227
11.403404 -34.331120 -0.417225 1.880790849211783e-38 1768976227
24.767942 -74.566437 8.939425 1.880790849211783e-38 1768976227
24.772259 -74.579430 8.394800 1.880790849211783e-38 1768976227
22.940723 -69.065407 10.913070 1.880790849211783e-38 1768976227
23.757160 -71.523369 10.808463 1.880790849211783e-38 1768976227
25.881802 -77.919830 8.401563 1.880790849211783e-38 1768976227
24.370417 -73.369644 7.405232 1.880790849211783e-38 1768976227
23.920740 -72.015846 10.464064 1.880790849211783e-38 1768976227
24.381990 -73.404488 10.223125 1.880790849211783e-38 1768976227
11.894380 -35.809250 2.009897 1.880790849211783e-38 1768976227
11.843031 -35.654663 1.816903 1.880790849211783e-38 1768976227
23.867451 -71.855408 6.695211 1.880790849211783e-38 1768976227
23.762215 -71.538589 6.326689 1.880790849211783e-38 1768976227
11.783489 -35.475407 1.555606 1.880790849211783e-38 1768976227
11.742344 -35.351536 1.375038 1.880790849211783e-38 1768976227
28.454782 -85.666054 7.004068 1.880790849211783e-38 1768976227
24.244368 -72.990166 5.480307 1.880790849211783e-38 1768976227
11.688937 -35.190746 1.118644 1.880790849211783e-38 1768976227
11.653451 -35.083912 0.933881 1.880790849211783e-38 1768976227
24.036089 -72.363106 5.043557 1.880790849211783e-38 1768976227
11.972782 -36.045288 2.271595 1.880790849211783e-38 1768976227
11.364426 -34.213768 -0.644254 1.880790849211783e-38 1768976227
11.330689 -34.112206 -0.840729 1.880790849211783e-38 1768976227
11.596241 -34.911674 0.636022 1.880790849211783e-38 1768976227
11.559861 -34.802151 0.446620 1.880790849211783e-38 1768976227
11.293442 -34.000065 -1.057670 1.880790849211783e-38 1768976227
11.263820 -33.910889 -1.230199 1.880790849211783e-38 1768976227
11.516510 -34.671635 0.220900 1.880790849211783e-38 1768976227
11.479615 -34.560558 0.026641 1.880790849211783e-38 1768976227
24.043423 -72.385201 15.312373 1.880790849211783e-38 1768976227
23.973305 -72.174088 14.474864 1.880790849211783e-38 1768976227
24.107424 -72.577881 19.730387 1.880790849211783e-38 1768976227
24.564520 -73.954010 19.180582 1.880790849211783e-38 1768976227
24.313984 -73.199753 14.065653 1.880790849211783e-38 1768976227
22.318602 -67.192451 12.274508 1.880790849211783e-38 1768976227
23.859781 -71.832329 17.794790 1.880790849211783e-38 1768976227
23.617155 -71.101868 17.154383 1.880790849211783e-38 1768976227
24.482166 -73.706078 12.829356 1.880790849211783e-38 1768976227
23.710098 -71.381683 11.763628 1.880790849211783e-38 1768976227
25.149427 -75.714943 17.500845 1.880790849211783e-38 1768976227
25.529966 -76.860588 17.169653 1.880790849211783e-38 1768976227
24.171343 -73.510620 9.658253 1.880790849211783e-38 1768976227
24.142981 -73.424370 9.251929 1.880790849211783e-38 1768976227
11.319837 -34.426231 -0.210542 1.880790849211783e-38 1768976227
11.284811 -34.319717 -0.416670 1.880790849211783e-38 1768976227
24.549881 -74.661850 8.941947 1.880790849211783e-38 1768976227
24.554157 -74.674858 8.397169 1.880790849211783e-38 1768976227
22.969828 -69.856537 11.027081 1.880790849211783e-38 1768976227
23.518188 -71.524239 10.797827 1.880790849211783e-38 1768976227
25.525206 -77.628036 8.361763 1.880790849211783e-38 1768976227
24.849279 -75.572388 7.619957 1.880790849211783e-38 1768976227
23.679962 -72.016228 10.453694 1.880790849211783e-38 1768976227
23.850098 -72.533646 10.091779 1.880790849211783e-38 1768976227
11.739990 -35.704018 2.001995 1.880790849211783e-38 1768976227
11.696986 -35.573235 1.810948 1.880790849211783e-38 1768976227
23.631304 -71.868240 6.689736 1.880790849211783e-38 1768976227
23.581924 -71.718071 6.336243 1.880790849211783e-38 1768976227
11.640250 -35.400688 1.550783 1.880790849211783e-38 1768976227
11.606213 -35.297169 1.371556 1.880790849211783e-38 1768976227
28.399647 -86.369873 7.054578 1.880790849211783e-38 1768976227
11.986839 -36.454742 2.734398 1.880790849211783e-38 1768976227
11.557719 -35.149693 1.116226 1.880790849211783e-38 1768976227
11.522705 -35.043205 0.931868 1.880790849211783e-38 1768976227
11.876736 -36.119892 2.514973 1.880790849211783e-38 1768976227
11.802781 -35.894981 2.259869 1.880790849211783e-38 1768976227
11.246288 -34.202557 -0.643401 1.880790849211783e-38 1768976227
11.212949 -34.101162 -0.839619 1.880790849211783e-38 1768976227
11.466257 -34.871532 0.634658 1.880790849211783e-38 1768976227
11.431338 -34.765335 0.445703 1.880790849211783e-38 1768976227
11.176136 -33.989208 -1.056279 1.880790849211783e-38 1768976227
11.146858 -33.900169 -1.228585 1.880790849211783e-38 1768976227
11.393080 -34.648983 0.220536 1.880790849211783e-38 1768976227
11.360129 -34.548775 0.026606 1.880790849211783e-38 1768976227
23.787132 -72.342148 15.288022 1.880790849211783e-38 1768976227
23.768702 -72.286110 14.482887 1.880790849211783e-38 1768976227
23.891096 -72.658333 19.732580 1.880790849211783e-38 1768976227
24.304836 -73.916611 19.151785 1.880790849211783e-38 1768976227
24.023109 -73.059822 14.024779 1.880790849211783e-38 1768976227
22.079990 -67.150337 12.254597 1.880790849211783e-38 1768976227
23.871332 -72.598221 17.966608 1.880790849211783e-38 1768976227
23.431667 -71.261116 17.175676 1.880790849211783e-38 1768976227
24.341721 -74.028786 12.872690 1.880790849211783e-38 1768976227
23.179247 -70.493431 11.605673 1.880790849211783e-38 1768976227
24.953840 -75.890381 17.523922 1.880790849211783e-38 1768976227
24.344175 -74.036247 16.522257 1.880790849211783e-38 1768976227
23.874004 -73.351166 9.627797 1.880790849211783e-38 1768976227
23.957554 -73.607857 9.265903 1.880790849211783e-38 1768976227
11.201134 -34.414680 -0.210263 1.880790849211783e-38 1768976227
11.166524 -34.308342 -0.416122 1.880790849211783e-38 1768976227
24.331900 -74.758011 8.944634 1.880790849211783e-38 1768976227
24.198792 -74.349037 8.352285 1.880790849211783e-38 1768976227
22.889618 -70.326706 11.090351 1.880790849211783e-38 1768976227
23.424128 -71.968948 10.854249 1.880790849211783e-38 1768976227
24.338661 -74.778786 8.046909 1.880790849211783e-38 1768976227
26.000629 -79.885071 8.046861 1.880790849211783e-38 1768976227
23.439610 -72.016518 10.443427 1.880790849211783e-38 1768976227
23.607849 -72.533424 10.081795 1.880790849211783e-38 1768976227
11.594219 -35.622406 1.995449 1.880790849211783e-38 1768976227
11.557005 -35.508064 1.805847 1.880790849211783e-38 1768976227
23.395563 -71.881187 6.684342 1.880790849211783e-38 1768976227
23.401108 -71.898216 6.345895 1.880790849211783e-38 1768976227
11.508476 -35.358963 1.547428 1.880790849211783e-38 1768976227
11.474893 -35.255787 1.368596 1.880790849211783e-38 1768976227
11.892749 -36.539616 2.981565 1.880790849211783e-38 1768976227
11.767731 -36.155506 2.709279 1.880790849211783e-38 1768976227
11.427053 -35.108799 1.113828 1.880790849211783e-38 1768976227
11.392827 -35.003643 0.929898 1.880790849211783e-38 1768976227
11.708569 -35.973736 2.502326 1.880790849211783e-38 1768976227
11.651142 -35.797295 2.251497 1.880790849211783e-38 1768976227
11.128456 -34.191376 -0.642556 1.880790849211783e-38 1768976227
11.095508 -34.090153 -0.838520 1.880790849211783e-38 1768976227
11.343019 -34.850609 0.633651 1.880790849211783e-38 1768976227
11.311318 -34.753216 0.445108 1.880790849211783e-38 1768976227
11.059129 -33.978374 -1.054901 1.880790849211783e-38 1768976227
11.030194 -33.889477 -1.226987 1.880790849211783e-38 1768976227
11.273516 -34.637062 0.220242 1.880790849211783e-38 1768976227
11.240952 -34.537014 0.026571 1.880790849211783e-38 1768976227
23.751070 -72.973457 15.406225 1.880790849211783e-38 1768976227
24.364212 -74.857292 14.983245 1.880790849211783e-38 1768976227
23.670706 -72.726540 19.731628 1.880790849211783e-38 1768976227
24.090935 -74.017670 19.159056 1.880790849211783e-38 1768976227
23.719597 -72.876755 13.975841 1.880790849211783e-38 1768976227
21.842216 -67.108643 12.234909 1.880790849211783e-38 1768976227
23.575726 -72.434723 17.908466 1.880790849211783e-38 1768976227
23.259718 -71.463806 17.207546 1.880790849211783e-38 1768976227
24.325359 -74.737915 12.983184 1.880790849211783e-38 1768976227
22.425047 -68.899345 11.332044 1.880790849211783e-38 1768976227
24.665806 -75.783913 17.482080 1.880790849211783e-38 1768976227
24.076269 -73.972610 16.491776 1.880790849211783e-38 1768976227
24.053095 -74.665840 9.790791 1.880790849211783e-38 1768976227
23.731184 -73.666557 9.264241 1.880790849211783e-38 1768976227
11.082742 -34.403152 -0.209988 1.880790849211783e-38 1768976227
11.048543 -34.296989 -0.415578 1.880790849211783e-38 1768976227
23.736689 -73.683640 8.807484 1.880790849211783e-38 1768976227
24.015217 -74.548256 8.366491 1.880790849211783e-38 1768976227
22.436153 -69.646500 10.972364 1.880790849211783e-38 1768976227
22.937984 -71.204300 10.728444 1.880790849211783e-38 1768976227
24.120262 -74.874336 8.049327 1.880790849211783e-38 1768976227
25.727757 -79.864334 8.036920 1.880790849211783e-38 1768976227
23.116110 -71.757248 10.395671 1.880790849211783e-38 1768976227
23.188456 -71.981812 9.995358 1.880790849211783e-38 1768976227
11.460211 -35.574890 1.990842 1.880790849211783e-38 1768976227
11.425143 -35.466038 1.801949 1.880790849211783e-38 1768976227
23.602194 -73.266144 6.806481 1.880790849211783e-38 1768976227
11.798429 -36.624794 3.229429 1.880790849211783e-38 1768976227
11.377273 -35.317436 1.544101 1.880790849211783e-38 1768976227
11.344869 -35.216843 1.365750 1.880790849211783e-38 1768976227
11.672889 -36.235092 2.953830 1.880790849211783e-38 1768976227
11.604812 -36.023762 2.696771 1.880790849211783e-38 1768976227
11.302660 -35.085819 1.112013 1.880790849211783e-38 1768976227
11.272159 -34.991138 0.928659 1.880790849211783e-38 1768976227
11.560235 -35.885387 2.493744 1.880790849211783e-38 1768976227
11.507304 -35.721081 2.244510 1.880790849211783e-38 1768976227
11.010927 -34.180218 -0.641720 1.880790849211783e-38 1768976227
10.979685 -34.083237 -0.837532 1.880790849211783e-38 1768976227
11.222943 -34.838364 0.632810 1.880790849211783e-38 1768976227
11.191622 -34.741135 0.444519 1.880790849211783e-38 1768976227
10.945910 -33.978397 -1.053872 1.880790849211783e-38 1768976227
10.919040 -33.894985 -1.225988 1.880790849211783e-38 1768976227
11.154263 -34.625168 0.219952 1.880790849211783e-38 1768976227
11.122089 -34.525291 0.026536 1.880790849211783e-38 1768976227
23.544527 -73.087143 15.415165 1.880790849211783e-38 1768976227
24.108309 -74.837242 14.964611 1.880790849211783e-38 1768976227
23.416979 -72.691200 19.702787 1.880790849211783e-38 1768976227
23.936081 -74.302605 19.214037 1.880790849211783e-38 1768976227
24.397009 -75.733414 14.509496 1.880790849211783e-38 1768976227
23.022154 -71.465584 13.016526 1.880790849211783e-38 1768976227
24.163170 -75.007523 18.526455 1.880790849211783e-38 1768976227
24.135351 -74.921181 18.022425 1.880790849211783e-38 1768976227
24.096083 -74.799286 12.981160 1.880790849211783e-38 1768976227
24.013369 -74.542526 12.248223 1.880790849211783e-38 1768976227
24.163143 -75.007462 17.286076 1.880790849211783e-38 1768976227
23.928558 -74.279251 16.543974 1.880790849211783e-38 1768976227
23.769428 -74.554901 9.766799 1.880790849211783e-38 1768976227
23.819302 -74.711342 9.386556 1.880790849211783e-38 1768976227
10.966818 -34.398392 -0.209756 1.880790849211783e-38 1768976227
10.935064 -34.298798 -0.415198 1.880790849211783e-38 1768976227
23.604662 -74.038109 8.841304 1.880790849211783e-38 1768976227
23.899055 -74.961494 8.404741 1.880790849211783e-38 1768976227
24.483274 -76.793945 12.086711 1.880790849211783e-38 1768976227
23.508575 -73.736725 11.099274 1.880790849211783e-38 1768976227
23.901752 -74.969948 8.051820 1.880790849211783e-38 1768976227
25.431122 -79.766968 8.019367 1.880790849211783e-38 1768976227
22.630217 -70.981674 10.273378 1.880790849211783e-38 1768976227
22.721462 -71.267868 9.886660 1.880790849211783e-38 1768976227
11.328454 -35.532696 1.986560 1.880790849211783e-38 1768976227
11.295143 -35.428211 1.798288 1.880790849211783e-38 1768976227
11.643537 -36.520981 3.389549 1.880790849211783e-38 1768976227
11.577837 -36.314907 3.199012 1.880790849211783e-38 1768976227
11.252909 -35.295742 1.541662 1.880790849211783e-38 1768976227
11.223659 -35.203995 1.363933 1.880790849211783e-38 1768976227
11.513365 -36.112686 2.941008 1.880790849211783e-38 1768976227
11.458495 -35.940578 2.687945 1.880790849211783e-38 1768976227
11.181957 -35.073196 1.110539 1.880790849211783e-38 1768976227
11.151818 -34.978661 0.927431 1.880790849211783e-38 1768976227
11.420271 -35.820686 2.486843 1.880790849211783e-38 1768976227
11.374907 -35.678406 2.239663 1.880790849211783e-38 1768976227
10.900124 -34.189198 -0.641268 1.880790849211783e-38 1768976227
10.869874 -34.094318 -0.836995 1.880790849211783e-38 1768976227
11.103195 -34.826153 0.631977 1.880790849211783e-38 1768976227
11.072248 -34.729088 0.443936 1.880790849211783e-38 1768976227
10.836457 -33.989506 -1.053198 1.880790849211783e-38 1768976227
10.809872 -33.906116 -1.225206 1.880790849211783e-38 1768976227
11.035337 -34.613308 0.219664 1.880790849211783e-38 1768976227
11.003548 -34.513599 0.026501 1.880790849211783e-38 1768976227
23.348358 -73.234192 15.431258 1.880790849211783e-38 1768976227
23.851896 -74.813576 14.945427 1.880790849211783e-38 1768976227
23.197403 -72.760704 19.702574 1.880790849211783e-38 1768976227
23.669418 -74.241211 19.179615 1.880790849211783e-38 1768976227
23.292530 -73.059074 13.983607 1.880790849211783e-38 1768976227
22.810619 -71.547523 13.018862 1.880790849211783e-38 1768976227
23.900463 -74.965912 18.498289 1.880790849211783e-38 1768976227
23.777451 -74.580070 17.923038 1.880790849211783e-38 1768976227
23.028563 -72.231117 12.523355 1.880790849211783e-38 1768976227
23.812838 -74.691063 12.260775 1.880790849211783e-38 1768976227
24.766684 -77.682892 17.885357 1.880790849211783e-38 1768976227
23.601078 -74.026863 16.471832 1.880790849211783e-38 1768976227
23.404024 -74.181137 9.708544 1.880790849211783e-38 1768976227
23.536268 -74.600288 9.363641 1.880790849211783e-38 1768976227
10.856096 -34.409355 -0.209622 1.880790849211783e-38 1768976227
10.824687 -34.309803 -0.414934 1.880790849211783e-38 1768976227
23.505230 -74.501900 8.888182 1.880790849211783e-38 1768976227
23.485233 -74.438522 8.338125 1.880790849211783e-38 1768976227
23.514614 -74.531647 11.719428 1.880790849211783e-38 1768976227
22.512070 -71.353996 10.730344 1.880790849211783e-38 1768976227
23.550852 -74.646507 8.009417 1.880790849211783e-38 1768976227
11.574565 -36.686607 3.684760 1.880790849211783e-38 1768976227
23.316410 -73.903419 10.686025 1.880790849211783e-38 1768976227
22.353022 -70.849876 9.819277 1.880790849211783e-38 1768976227
11.203925 -35.511833 1.983495 1.880790849211783e-38 1768976227
11.173386 -35.415031 1.795901 1.880790849211783e-38 1768976227
11.461617 -36.328609 3.368472 1.880790849211783e-38 1768976227
11.421637 -36.201889 3.186007 1.880790849211783e-38 1768976227
11.131660 -35.282780 1.539623 1.880790849211783e-38 1768976227
11.102762 -35.191185 1.362133 1.880790849211783e-38 1768976227
11.369549 -36.036789 2.932021 1.880790849211783e-38 1768976227
11.324155 -35.892910 2.681813 1.880790849211783e-38 1768976227
11.061562 -35.060600 1.109079 1.880790849211783e-38 1768976227
11.031790 -34.966232 0.926215 1.880790849211783e-38 1768976227
11.287814 -35.777725 2.481486 1.880790849211783e-38 1768976227
11.244908 -35.641731 2.235221 1.880790849211783e-38 1768976227
10.790120 -34.200237 -0.640862 1.880790849211783e-38 1768976227
10.760193 -34.105385 -0.836466 1.880790849211783e-38 1768976227
10.984741 -34.817108 0.631209 1.880790849211783e-38 1768976227
10.956019 -34.726074 0.443473 1.880790849211783e-38 1768976227
10.727138 -34.000607 -1.052535 1.880790849211783e-38 1768976227
10.700836 -33.917248 -1.224437 1.880790849211783e-38 1768976227
10.921748 -34.617443 0.219480 1.880790849211783e-38 1768976227
10.892220 -34.523853 0.026484 1.880790849211783e-38 1768976227
23.158937 -73.404297 15.452315 1.880790849211783e-38 1768976227
23.530968 -74.583473 14.885216 1.880790849211783e-38 1768976227
23.035484 -73.013008 19.751991 1.880790849211783e-38 1768976227
23.429417 -74.261604 19.166542 1.880790849211783e-38 1768976227
23.070719 -73.124687 13.982784 1.880790849211783e-38 1768976227
22.597345 -71.624290 13.020370 1.880790849211783e-38 1768976227
23.686848 -75.077553 18.508123 1.880790849211783e-38 1768976227
23.421814 -74.237511 17.823660 1.880790849211783e-38 1768976227
22.761969 -72.146072 12.496649 1.880790849211783e-38 1768976227
23.611897 -74.840004 12.273478 1.880790849211783e-38 1768976227
24.482119 -77.598236 17.848785 1.880790849211783e-38 1768976227
23.451691 -74.332207 16.523960 1.880790849211783e-38 1768976227
23.206156 -74.334557 9.719419 1.880790849211783e-38 1768976227
23.254612 -74.489761 9.340923 1.880790849211783e-38 1768976227
10.745516 -34.420315 -0.209490 1.880790849211783e-38 1768976227
10.714445 -34.320786 -0.414675 1.880790849211783e-38 1768976227
23.180611 -74.252731 8.850075 1.880790849211783e-38 1768976227
23.330122 -74.731644 8.363039 1.880790849211783e-38 1768976227
22.562813 -72.273788 11.353648 1.880790849211783e-38 1768976227
22.353605 -71.603645 10.757699 1.880790849211783e-38 1768976227
23.346775 -74.784996 8.016684 1.880790849211783e-38 1768976227
11.377780 -36.445599 3.657090 1.880790849211783e-38 1768976227
22.783855 -72.981834 10.542785 1.880790849211783e-38 1768976227
23.126814 -74.080399 10.257290 1.880790849211783e-38 1768976227
11.082119 -35.498524 1.980876 1.880790849211783e-38 1768976227
11.051950 -35.401890 1.793536 1.880790849211783e-38 1768976227
11.313902 -36.240978 3.357167 1.880790849211783e-38 1768976227
11.281658 -36.137695 3.177348 1.880790849211783e-38 1768976227
11.010730 -35.269855 1.537603 1.880790849211783e-38 1768976227
10.983269 -35.181889 1.360485 1.880790849211783e-38 1768976227
11.236534 -35.993153 2.925700 1.880790849211783e-38 1768976227
11.194163 -35.857433 2.676628 1.880790849211783e-38 1768976227
10.945033 -35.059410 1.107992 1.880790849211783e-38 1768976227
10.917392 -34.970867 0.925461 1.880790849211783e-38 1768976227
11.162105 -35.754738 2.477545 1.880790849211783e-38 1768976227
11.122602 -35.628201 2.232259 1.880790849211783e-38 1768976227
10.680253 -34.211258 -0.640462 1.880790849211783e-38 1768976227
10.650652 -34.116440 -0.835946 1.880790849211783e-38 1768976227
10.872769 -34.827934 0.630808 1.880790849211783e-38 1768976227
10.844357 -34.736927 0.443192 1.880790849211783e-38 1768976227
10.617950 -34.011692 -1.051882 1.880790849211783e-38 1768976227
10.591933 -33.928352 -1.223679 1.880790849211783e-38 1768976227
10.810458 -34.628338 0.219342 1.880790849211783e-38 1768976227
10.781250 -34.534779 0.026467 1.880790849211783e-38 1768976227
22.969034 -73.574997 15.473596 1.880790849211783e-38 1768976227
20.758293 -66.493507 13.258080 1.880790849211783e-38 1768976227
23.199514 -74.313286 20.084732 1.880790849211783e-38 1768976227
23.217707 -74.371552 19.176756 1.880790849211783e-38 1768976227
23.018019 -73.731911 14.085558 1.880790849211783e-38 1768976227
22.380127 -71.688599 13.019731 1.880790849211783e-38 1768976227
23.681320 -75.856613 18.682487 1.880790849211783e-38 1768976227
23.147041 -74.145195 17.784653 1.880790849211783e-38 1768976227
22.564840 -72.280273 12.508050 1.880790849211783e-38 1768976227
23.372829 -74.868446 12.266526 1.880790849211783e-38 1768976227
24.156914 -77.380043 17.781757 1.880790849211783e-38 1768976227
23.301407 -74.639664 16.576611 1.880790849211783e-38 1768976227
22.792406 -73.790848 9.639296 1.880790849211783e-38 1768976227
22.889753 -74.106018 9.284102 1.880790849211783e-38 1768976227
10.635075 -34.431259 -0.209361 1.880790849211783e-38 1768976227
10.604342 -34.331760 -0.414419 1.880790849211783e-38 1768976227
22.457811 -72.707596 8.657799 1.880790849211783e-38 1768976227
11.339172 -36.710789 4.104371 1.880790849211783e-38 1768976227
22.331690 -72.299278 11.347020 1.880790849211783e-38 1768976227
21.344439 -69.103027 10.372289 1.880790849211783e-38 1768976227
11.286404 -36.539951 3.913285 1.880790849211783e-38 1768976227
11.232806 -36.366425 3.645729 1.880790849211783e-38 1768976227
22.550339 -73.007156 10.536570 1.880790849211783e-38 1768976227
22.655605 -73.347961 10.146367 1.880790849211783e-38 1768976227
10.963023 -35.492996 1.978713 1.880790849211783e-38 1768976227
10.935020 -35.402336 1.791880 1.880790849211783e-38 1768976227
11.180386 -36.196712 3.349928 1.880790849211783e-38 1768976227
11.150633 -36.100388 3.171097 1.880790849211783e-38 1768976227
10.896750 -35.278439 1.536537 1.880790849211783e-38 1768976227
10.870234 -35.192593 1.359625 1.880790849211783e-38 1768976227
11.110826 -35.971516 2.921204 1.880790849211783e-38 1768976227
11.071308 -35.843567 2.673089 1.880790849211783e-38 1768976227
10.832416 -35.070152 1.107293 1.880790849211783e-38 1768976227
10.805076 -34.981640 0.924880 1.880790849211783e-38 1768976227
11.039640 -35.741047 2.474278 1.880790849211783e-38 1768976227
11.000621 -35.614723 2.229326 1.880790849211783e-38 1768976227
10.570521 -34.222267 -0.640068 1.880790849211783e-38 1768976227
10.541241 -34.127468 -0.835433 1.880790849211783e-38 1768976227
10.760942 -34.838753 0.630413 1.880790849211783e-38 1768976227
10.732838 -34.747768 0.442915 1.880790849211783e-38 1768976227
10.508896 -34.022751 -1.051239 1.880790849211783e-38 1768976227
10.483164 -33.939442 -1.222933 1.880790849211783e-38 1768976227
10.699308 -34.639217 0.219205 1.880790849211783e-38 1768976227
10.670418 -34.545681 0.026450 1.880790849211783e-38 1768976227
22.688658 -73.454956 15.433888 1.880790849211783e-38 1768976227
20.565075 -66.579819 13.262864 1.880790849211783e-38 1768976227
22.979986 -74.398148 20.088844 1.880790849211783e-38 1768976227
23.005714 -74.481445 19.187115 1.880790849211783e-38 1768976227
22.964426 -74.347778 14.189914 1.880790849211783e-38 1768976227
22.162878 -71.752739 13.019181 1.880790849211783e-38 1768976227
23.425793 -75.841446 18.661266 1.880790849211783e-38 1768976227
23.740225 -76.859444 18.418440 1.880790849211783e-38 1768976227
22.370861 -72.426086 12.521550 1.880790849211783e-38 1768976227
22.520836 -72.911629 11.934737 1.880790849211783e-38 1768976227
23.834023 -77.163109 17.715307 1.880790849211783e-38 1768976227
23.106718 -74.808441 16.598541 1.880790849211783e-38 1768976227
22.638815 -74.085205 9.668784 1.880790849211783e-38 1768976227
22.228621 -72.742859 9.104884 1.880790849211783e-38 1768976227
10.524778 -34.442192 -0.209233 1.880790849211783e-38 1768976227
10.494382 -34.342720 -0.414167 1.880790849211783e-38 1768976227
11.251546 -36.820530 4.380416 1.880790849211783e-38 1768976227
11.177831 -36.579296 4.085882 1.880790849211783e-38 1768976227
22.100830 -72.324661 11.340492 1.880790849211783e-38 1768976227
21.168373 -69.273209 10.388204 1.880790849211783e-38 1768976227
11.145497 -36.473484 3.902550 1.880790849211783e-38 1768976227
11.101439 -36.329304 3.638635 1.880790849211783e-38 1768976227
22.327734 -73.067200 10.535470 1.880790849211783e-38 1768976227
