# .PCD v0.7 - Point Cloud Data file format
VERSION 0.7
FIELDS x y z rgb label
SIZE 4 4 4 4 4
TYPE F F F F U
COUNT 1 1 1 1 1
WIDTH 765
HEIGHT 1
VIEWPOINT 0 0 0 1 0 0 0
POINTS 765
DATA ascii
50.461140 86.362190 8.844669 1.880790849211783e-38 1768976227
50.746365 86.850342 8.442300 1.880790849211783e-38 1768976227
51.076496 87.415337 7.855654 1.880790849211783e-38 1768976227
50.957069 87.210953 7.197218 1.880790849211783e-38 1768976227
51.543938 88.215347 1.766433 1.880790849211783e-38 1768976227
48.670200 83.297073 17.592735 1.880790849211783e-38 1768976227
49.533340 84.774292 17.021633 1.880790849211783e-38 1768976227
49.208813 84.218887 16.112555 1.880790849211783e-38 1768976227
50.757641 86.869644 15.735331 1.880790849211783e-38 1768976227
50.446365 85.742203 12.416442 1.880790849211783e-38 1768976227
50.781574 86.311951 11.987182 1.880790849211783e-38 1768976227
51.461708 87.467949 11.546128 1.880790849211783e-38 1768976227
51.740322 87.941498 10.899495 1.880790849211783e-38 1768976227
51.446121 87.441452 15.213356 1.880790849211783e-38 1768976227
48.770966 82.894569 9.841455 1.880790849211783e-38 1768976227
48.995602 83.276375 9.254761 1.880790849211783e-38 1768976227
50.339142 85.559952 8.778018 1.880790849211783e-38 1768976227
51.058868 86.783257 8.450708 1.880790849211783e-38 1768976227
51.398628 87.360733 7.864641 1.880790849211783e-38 1768976227
51.114914 86.878502 7.182471 1.880790849211783e-38 1768976227
51.784908 88.017288 6.754740 1.880790849211783e-38 1768976227
52.055603 88.477379 6.139536 1.880790849211783e-38 1768976227
48.972473 83.237068 17.611176 1.880790849211783e-38 1768976227
49.834614 84.702423 17.037300 1.880790849211783e-38 1768976227
49.167027 83.567741 16.016275 1.880790849211783e-38 1768976227
51.053024 86.773323 15.745701 1.880790849211783e-38 1768976227
51.186668 86.403175 12.021237 1.880790849211783e-38 1768976227
51.907681 87.620247 11.586845 1.880790849211783e-38 1768976227
52.334999 88.341560 10.968592 1.880790849211783e-38 1768976227
48.876846 82.504196 9.812565 1.880790849211783e-38 1768976227
49.340862 83.287460 9.272488 1.880790849211783e-38 1768976227
51.727848 87.316696 13.413833 1.880790849211783e-38 1768976227
52.504456 88.627609 5.487087 1.880790849211783e-38 1768976227
50.815578 85.776779 8.815946 1.880790849211783e-38 1768976227
51.270107 86.544029 8.442432 1.880790849211783e-38 1768976227
51.578026 87.063789 7.851877 1.880790849211783e-38 1768976227
51.299828 86.594193 7.171725 1.880790849211783e-38 1768976227
49.822880 84.101097 17.825699 1.880790849211783e-38 1768976227
49.790520 84.046471 16.935490 1.880790849211783e-38 1768976227
51.028820 86.136734 16.538059 1.880790849211783e-38 1768976227
51.349342 86.677773 15.756393 1.880790849211783e-38 1768976227
51.282887 85.973244 11.982885 1.880790849211783e-38 1768976227
52.001194 87.177452 11.548977 1.880790849211783e-38 1768976227
52.460678 87.947754 10.939291 1.880790849211783e-38 1768976227
49.080952 82.281807 9.803677 1.880790849211783e-38 1768976227
48.440254 81.207718 9.057172 1.880790849211783e-38 1768976227
52.271538 87.630661 13.486223 1.880790849211783e-38 1768976227
51.201778 85.837265 8.837995 1.880790849211783e-38 1768976227
51.480896 86.305199 8.434242 1.880790849211783e-38 1768976227
51.756809 86.767754 7.839221 1.880790849211783e-38 1768976227
51.519836 86.370483 7.166033 1.880790849211783e-38 1768976227
52.490707 87.998093 6.128138 1.880790849211783e-38 1768976227
50.095547 83.982727 17.832552 1.880790849211783e-38 1768976227
49.845963 83.564308 16.868549 1.880790849211783e-38 1768976227
51.646168 86.582268 15.767275 1.880790849211783e-38 1768976227
52.305477 87.089485 12.160398 1.880790849211783e-38 1768976227
51.476738 85.709618 11.375039 1.880790849211783e-38 1768976227
49.665142 82.693291 10.304304 1.880790849211783e-38 1768976227
49.105309 81.761154 9.759243 1.880790849211783e-38 1768976227
48.665939 81.029602 9.053635 1.880790849211783e-38 1768976227
52.820820 87.947548 13.559444 1.880790849211783e-38 1768976227
51.404819 85.589874 8.828444 1.880790849211783e-38 1768976227
51.691231 86.066757 8.426138 1.880790849211783e-38 1768976227
51.934998 86.472633 7.826674 1.880790849211783e-38 1768976227
51.739555 86.147224 7.160424 1.880790849211783e-38 1768976227
52.540607 87.480995 6.103134 1.880790849211783e-38 1768976227
50.360813 83.851585 17.836874 1.880790849211783e-38 1768976227
49.951965 83.170845 16.819458 1.880790849211783e-38 1768976227
52.013988 86.604156 15.799757 1.880790849211783e-38 1768976227
52.964592 87.587357 12.775244 1.880790849211783e-38 1768976227
50.607025 83.688660 11.706796 1.880790849211783e-38 1768976227
50.026608 82.728821 10.999413 1.880790849211783e-38 1768976227
49.301376 81.529510 10.177769 1.880790849211783e-38 1768976227
48.955299 80.957207 9.680861 1.880790849211783e-38 1768976227
48.891533 80.851753 9.050198 1.880790849211783e-38 1768976227
52.952854 87.567947 14.111201 1.880790849211783e-38 1768976227
51.607338 85.342865 8.818980 1.880790849211783e-38 1768976227
51.901115 85.828682 8.418117 1.880790849211783e-38 1768976227
52.196632 86.317383 7.826834 1.880790849211783e-38 1768976227
52.057350 86.087051 7.168440 1.880790849211783e-38 1768976227
52.374592 86.611679 6.053479 1.880790849211783e-38 1768976227
50.626122 83.720230 17.841331 1.880790849211783e-38 1768976227
50.057644 82.780144 16.770901 1.880790849211783e-38 1768976227
52.377266 86.616104 15.830684 1.880790849211783e-38 1768976227
50.778763 83.403542 12.187286 1.880790849211783e-38 1768976227
50.940895 83.669846 11.725602 1.880790849211783e-38 1768976227
50.263607 82.557404 10.996727 1.880790849211783e-38 1768976227
49.319340 81.006447 10.130996 1.880790849211783e-38 1768976227
53.172562 87.335327 14.663822 1.880790849211783e-38 1768976227
48.956276 80.410133 9.633054 1.880790849211783e-38 1768976227
49.193390 80.799591 9.060925 1.880790849211783e-38 1768976227
51.809326 85.096230 8.809600 1.880790849211783e-38 1768976227
52.081470 85.543228 8.405486 1.880790849211783e-38 1768976227
52.905632 86.896896 7.893814 1.880790849211783e-38 1768976227
52.392567 86.054199 7.178829 1.880790849211783e-38 1768976227
52.258804 85.834496 6.010148 1.880790849211783e-38 1768976227
50.891449 83.588623 17.845913 1.880790849211783e-38 1768976227
51.324234 84.299477 17.109993 1.880790849211783e-38 1768976227
49.194862 80.802010 14.795100 1.880790849211783e-38 1768976227
51.134995 83.421196 12.212345 1.880790849211783e-38 1768976227
50.927277 83.082314 11.664736 1.880790849211783e-38 1768976227
50.122131 81.768814 10.911772 1.880790849211783e-38 1768976227
49.445221 80.664505 10.106834 1.880790849211783e-38 1768976227
53.515064 87.304016 15.355431 1.880790849211783e-38 1768976227
53.199120 86.788597 14.598898 1.880790849211783e-38 1768976227
49.082085 80.072090 9.610247 1.880790849211783e-38 1768976227
51.639736 84.244614 9.464674 1.880790849211783e-38 1768976227
52.461708 85.585587 8.876600 1.880790849211783e-38 1768976227
52.329117 85.369270 8.403862 1.880790849211783e-38 1768976227
53.110523 86.644051 7.885360 1.880790849211783e-38 1768976227
52.728840 86.021378 7.189325 1.880790849211783e-38 1768976227
52.329971 85.370667 5.988695 1.880790849211783e-38 1768976227
51.156811 83.456787 17.850624 1.880790849211783e-38 1768976227
53.276905 86.915489 17.673489 1.880790849211783e-38 1768976227
52.773972 86.095001 16.680956 1.880790849211783e-38 1768976227
49.299831 80.427330 14.753653 1.880790849211783e-38 1768976227
51.492863 83.439178 12.237658 1.880790849211783e-38 1768976227
51.120739 82.836189 11.651772 1.880790849211783e-38 1768976227
50.278927 81.472115 10.892364 1.880790849211783e-38 1768976227
49.570583 80.324310 10.082895 1.880790849211783e-38 1768976227
50.300476 81.507027 14.362447 1.880790849211783e-38 1768976227
53.230789 86.255325 14.536135 1.880790849211783e-38 1768976227
50.820000 82.348869 9.901855 1.880790849211783e-38 1768976227
51.773396 83.893745 9.442755 1.880790849211783e-38 1768976227
49.993343 81.009346 13.126667 1.880790849211783e-38 1768976227
53.693016 87.004311 13.512907 1.880790849211783e-38 1768976227
52.746838 85.471123 8.881187 1.880790849211783e-38 1768976227
53.523788 86.730095 8.553676 1.880790849211783e-38 1768976227
53.315014 86.391792 7.877000 1.880790849211783e-38 1768976227
53.172756 86.161285 7.214387 1.880790849211783e-38 1768976227
52.469639 85.021950 5.975306 1.880790849211783e-38 1768976227
51.422230 83.324715 17.855467 1.880790849211783e-38 1768976227
52.797977 85.553978 16.606911 1.880790849211783e-38 1768976227
49.569942 80.323273 14.761922 1.880790849211783e-38 1768976227
51.703560 83.217964 12.228027 1.880790849211783e-38 1768976227
51.313885 82.590782 11.638969 1.880790849211783e-38 1768976227
50.435326 81.176712 10.873158 1.880790849211783e-38 1768976227
51.513111 82.911430 10.427105 1.880790849211783e-38 1768976227
50.587471 81.421600 14.374211 1.880790849211783e-38 1768976227
53.262230 85.726677 14.474050 1.880790849211783e-38 1768976227
51.762066 83.312134 9.394819 1.880790849211783e-38 1768976227
49.979393 80.442886 13.059242 1.880790849211783e-38 1768976227
53.297409 85.783302 13.348173 1.880790849211783e-38 1768976227
52.931881 85.194969 8.869040 1.880790849211783e-38 1768976227
53.535549 86.166588 8.513986 1.880790849211783e-38 1768976227
53.519184 86.140259 7.868747 1.880790849211783e-38 1768976227
53.542824 86.178307 7.229301 1.880790849211783e-38 1768976227
52.733948 84.876396 5.976227 1.880790849211783e-38 1768976227
52.836323 85.041168 16.538225 1.880790849211783e-38 1768976227
49.615967 79.857941 14.703836 1.880790849211783e-38 1768976227
51.675289 82.615593 12.162359 1.880790849211783e-38 1768976227
51.266071 81.961357 11.572004 1.880790849211783e-38 1768976227
50.591324 80.882607 10.854151 1.880790849211783e-38 1768976227
51.833294 82.868202 10.441279 1.880790849211783e-38 1768976227
50.950333 81.456566 14.407448 1.880790849211783e-38 1768976227
50.654316 80.983315 13.698913 1.880790849211783e-38 1768976227
51.728260 82.700279 9.343372 1.880790849211783e-38 1768976227
50.052021 80.020393 13.015101 1.880790849211783e-38 1768976227
53.816460 86.038773 13.413120 1.880790849211783e-38 1768976227
53.116394 84.919548 8.857004 1.880790849211783e-38 1768976227
53.220623 85.086189 8.423054 1.880790849211783e-38 1768976227
53.722923 85.889236 7.860582 1.880790849211783e-38 1768976227
53.016087 84.759178 5.979204 1.880790849211783e-38 1768976227
54.086243 86.470093 16.847757 1.880790849211783e-38 1768976227
51.668236 82.052841 12.102400 1.880790849211783e-38 1768976227
51.749409 82.181755 11.625106 1.880790849211783e-38 1768976227
50.746944 80.589767 10.835342 1.880790849211783e-38 1768976227
51.715206 82.127434 10.367550 1.880790849211783e-38 1768976227
51.256573 81.399101 14.424560 1.880790849211783e-38 1768976227
50.824997 80.713722 13.679177 1.880790849211783e-38 1768976227
52.762920 83.791283 10.132285 1.880790849211783e-38 1768976227
51.607670 81.956665 9.276902 1.880790849211783e-38 1768976227
50.177353 79.685219 12.985141 1.880790849211783e-38 1768976227
54.494930 86.541840 13.517107 1.880790849211783e-38 1768976227
51.653019 82.028687 8.571700 1.880790849211783e-38 1768976227
53.406975 84.814095 8.412025 1.880790849211783e-38 1768976227
53.926247 85.638733 7.852504 1.880790849211783e-38 1768976227
53.323051 84.680809 5.984993 1.880790849211783e-38 1768976227
54.407269 86.402626 16.866507 1.880790849211783e-38 1768976227
51.767788 81.663689 12.067974 1.880790849211783e-38 1768976227
51.999886 82.029808 11.625744 1.880790849211783e-38 1768976227
51.329033 80.971550 10.907438 1.880790849211783e-38 1768976227
50.886036 80.272720 10.152742 1.880790849211783e-38 1768976227
51.506535 81.251564 14.425878 1.880790849211783e-38 1768976227
51.020695 80.485146 13.666454 1.880790849211783e-38 1768976227
52.750500 83.213913 10.081660 1.880790849211783e-38 1768976227
52.290894 82.488884 9.354954 1.880790849211783e-38 1768976227
50.371147 79.460487 12.973216 1.880790849211783e-38 1768976227
54.672363 86.245651 13.496537 1.880790849211783e-38 1768976227
53.026443 83.649208 5.275507 1.880790849211783e-38 1768976227
53.547314 84.470886 4.836666 1.880790849211783e-38 1768976227
53.483891 84.370842 8.833262 1.880790849211783e-38 1768976227
53.592770 84.542587 8.401090 1.880790849211783e-38 1768976227
54.129139 85.388733 7.844514 1.880790849211783e-38 1768976227
54.239510 85.562813 7.218542 1.880790849211783e-38 1768976227
53.858707 84.962112 6.016328 1.880790849211783e-38 1768976227
52.179226 81.766342 12.106345 1.880790849211783e-38 1768976227
52.024227 81.523453 11.576164 1.880790849211783e-38 1768976227
51.558395 80.793488 10.904348 1.880790849211783e-38 1768976227
51.099262 80.074005 10.147056 1.880790849211783e-38 1768976227
51.545609 80.773453 14.368526 1.880790849211783e-38 1768976227
51.330898 80.436981 13.684502 1.880790849211783e-38 1768976227
52.767990 82.688950 10.037294 1.880790849211783e-38 1768976227
52.412811 82.132370 9.332407 1.880790849211783e-38 1768976227
54.090656 84.761620 13.865282 1.880790849211783e-38 1768976227
52.993484 83.042313 13.020200 1.880790849211783e-38 1768976227
53.330643 83.570648 5.280672 1.880790849211783e-38 1768976227
53.660412 84.087402 4.823952 1.880790849211783e-38 1768976227
53.657501 84.082840 8.820013 1.880790849211783e-38 1768976227
53.778019 84.271698 8.390250 1.880790849211783e-38 1768976227
54.331635 85.139229 7.836611 1.880790849211783e-38 1768976227
54.168884 84.884193 7.175041 1.880790849211783e-38 1768976227
54.309105 85.103920 6.037941 1.880790849211783e-38 1768976227
53.328514 83.567307 1.713930 1.880790849211783e-38 1768976227
52.381001 81.539185 12.096047 1.880790849211783e-38 1768976227
51.703243 80.484154 11.450677 1.880790849211783e-38 1768976227
51.024822 79.428085 10.740788 1.880790849211783e-38 1768976227
51.342785 79.923050 10.147502 1.880790849211783e-38 1768976227
51.569393 80.275795 14.307601 1.880790849211783e-38 1768976227
51.643654 80.391396 13.703181 1.880790849211783e-38 1768976227
52.785370 82.168655 9.993417 1.880790849211783e-38 1768976227
52.431622 81.617989 9.291885 1.880790849211783e-38 1768976227
52.745747 82.106972 13.456999 1.880790849211783e-38 1768976227
53.022564 82.537880 12.966125 1.880790849211783e-38 1768976227
53.635483 83.491982 5.285899 1.880790849211783e-38 1768976227
53.813068 83.768433 4.814942 1.880790849211783e-38 1768976227
53.827305 83.790588 8.806346 1.880790849211783e-38 1768976227
53.962708 84.001366 8.379499 1.880790849211783e-38 1768976227
53.572048 83.393250 4.124757 1.880790849211783e-38 1768976227
54.533718 84.890228 7.828795 1.880790849211783e-38 1768976227
54.210659 84.387344 7.146830 1.880790849211783e-38 1768976227
53.637383 83.494942 2.993772 1.880790849211783e-38 1768976227
53.474693 83.241692 2.499305 1.880790849211783e-38 1768976227
54.770329 85.258545 6.702752 1.880790849211783e-38 1768976227
54.383247 84.655998 6.017771 1.880790849211783e-38 1768976227
52.585281 81.316826 12.086533 1.880790849211783e-38 1768976227
52.075436 80.528412 11.479265 1.880790849211783e-38 1768976227
51.387703 79.464912 10.766675 1.880790849211783e-38 1768976227
51.586376 79.772141 10.148048 1.880790849211783e-38 1768976227
51.520149 79.669724 14.227210 1.880790849211783e-38 1768976227
51.957619 80.346222 13.722130 1.880790849211783e-38 1768976227
52.849850 81.725945 9.958914 1.880790849211783e-38 1768976227
52.531036 81.232948 9.266045 1.880790849211783e-38 1768976227
53.076794 82.076881 13.478241 1.880790849211783e-38 1768976227
54.178703 83.780869 5.314509 1.880790849211783e-38 1768976227
53.965183 83.450668 4.806011 1.880790849211783e-38 1768976227
53.993931 83.495140 8.792368 1.880790849211783e-38 1768976227
54.146847 83.731598 8.368842 1.880790849211783e-38 1768976227
53.733349 83.092186 4.117862 1.880790849211783e-38 1768976227
53.766048 83.142738 3.654855 1.880790849211783e-38 1768976227
54.738018 84.645775 7.821440 1.880790849211783e-38 1768976227
54.280491 83.938271 7.122630 1.880790849211783e-38 1768976227
53.519032 82.760757 2.973221 1.880790849211783e-38 1768976227
53.842232 83.260544 2.504735 1.880790849211783e-38 1768976227
55.024742 85.089157 6.702451 1.880790849211783e-38 1768976227
54.507362 84.289093 6.003348 1.880790849211783e-38 1768976227
53.916706 83.375717 1.716640 1.880790849211783e-38 1768976227
54.036495 83.560959 1.211916 1.880790849211783e-38 1768976227
53.346851 82.494499 15.364540 1.880790849211783e-38 1768976227
52.823719 81.147774 12.085030 1.880790849211783e-38 1768976227
52.275791 80.306053 11.469990 1.880790849211783e-38 1768976227
51.656986 79.355438 10.772902 1.880790849211783e-38 1768976227
51.830032 79.621269 10.148696 1.880790849211783e-38 1768976227
51.287907 78.788460 14.097395 1.880790849211783e-38 1768976227
52.032806 79.932770 13.678256 1.880790849211783e-38 1768976227
51.650742 79.345840 9.687819 1.880790849211783e-38 1768976227
52.667538 80.907845 9.247038 1.880790849211783e-38 1768976227
52.385273 80.474220 13.240944 1.880790849211783e-38 1768976227
54.300941 83.417076 5.301797 1.880790849211783e-38 1768976227
54.116745 83.134117 4.797159 1.880790849211783e-38 1768976227
54.106083 83.117729 8.769770 1.880790849211783e-38 1768976227
54.989071 84.474190 8.459599 1.880790849211783e-38 1768976227
53.876492 82.765038 4.109684 1.880790849211783e-38 1768976227
53.696697 82.488853 3.633213 1.880790849211783e-38 1768976227
54.943684 84.404472 7.814419 1.880790849211783e-38 1768976227
54.398232 83.566536 7.104975 1.880790849211783e-38 1768976227
53.532322 82.236320 2.960167 1.880790849211783e-38 1768976227
54.054619 83.038673 2.502954 1.880790849211783e-38 1768976227
55.074135 84.604866 6.677357 1.880790849211783e-38 1768976227
54.630905 83.923958 5.989050 1.880790849211783e-38 1768976227
54.573772 83.836197 1.729502 1.880790849211783e-38 1768976227
54.050903 83.032974 15.495121 1.880790849211783e-38 1768976227
53.232506 81.238815 12.122443 1.880790849211783e-38 1768976227
52.526890 80.161972 11.471986 1.880790849211783e-38 1768976227
51.964909 79.304321 10.787189 1.880790849211783e-38 1768976227
52.077007 79.475388 10.150074 1.880790849211783e-38 1768976227
50.933910 77.730904 13.935591 1.880790849211783e-38 1768976227
52.012619 79.377129 13.609955 1.880790849211783e-38 1768976227
51.907413 79.216568 9.691106 1.880790849211783e-38 1768976227
52.815983 80.603157 9.230378 1.880790849211783e-38 1768976227
52.421631 80.001320 13.189088 1.880790849211783e-38 1768976227
54.444931 83.089111 5.291365 1.880790849211783e-38 1768976227
54.187130 82.695686 4.781267 1.880790849211783e-38 1768976227
54.217617 82.742210 8.747361 1.880790849211783e-38 1768976227
55.228043 84.284233 8.457219 1.880790849211783e-38 1768976227
53.800529 82.105690 4.084982 1.880790849211783e-38 1768976227
53.926048 82.297241 3.631920 1.880790849211783e-38 1768976227
55.110470 84.104797 7.802028 1.880790849211783e-38 1768976227
54.521374 83.205780 7.088251 1.880790849211783e-38 1768976227
54.161106 82.655960 2.981139 1.880790849211783e-38 1768976227
54.270664 82.823166 2.501380 1.880790849211783e-38 1768976227
55.132080 84.137787 6.653586 1.880790849211783e-38 1768976227
54.753899 83.560638 5.974880 1.880790849211783e-38 1768976227
53.972992 82.368889 15.401500 1.880790849211783e-38 1768976227
53.644093 81.330811 12.160257 1.880790849211783e-38 1768976227
52.839851 80.111496 11.487515 1.880790849211783e-38 1768976227
52.273769 79.253242 10.801638 1.880790849211783e-38 1768976227
51.818913 78.563629 10.053544 1.880790849211783e-38 1768976227
55.396038 83.986969 15.087062 1.880790849211783e-38 1768976227
56.129509 85.099007 14.619985 1.880790849211783e-38 1768976227
52.178310 79.108521 9.697094 1.880790849211783e-38 1768976227
52.982117 80.327187 9.217031 1.880790849211783e-38 1768976227
54.077347 81.987679 13.543386 1.880790849211783e-38 1768976227
54.420448 82.507874 5.264778 1.880790849211783e-38 1768976227
54.099552 82.021355 4.751691 1.880790849211783e-38 1768976227
55.466930 84.094452 8.454924 1.880790849211783e-38 1768976227
54.308643 82.338356 4.104689 1.880790849211783e-38 1768976227
54.171085 82.129799 3.631724 1.880790849211783e-38 1768976227
55.306843 83.851746 7.793991 1.880790849211783e-38 1768976227
54.783680 83.058571 7.089754 1.880790849211783e-38 1768976227
54.303009 82.329811 2.975269 1.880790849211783e-38 1768976227
54.202713 82.177750 2.486813 1.880790849211783e-38 1768976227
55.254478 83.772346 6.637836 1.880790849211783e-38 1768976227
54.911907 83.252960 5.964694 1.880790849211783e-38 1768976227
53.896099 81.712883 15.309164 1.880790849211783e-38 1768976227
54.659042 82.328308 12.333991 1.880790849211783e-38 1768976227
53.916340 81.209625 11.668247 1.880790849211783e-38 1768976227
52.601486 79.229187 10.819931 1.880790849211783e-38 1768976227
52.150162 78.549377 10.071802 1.880790849211783e-38 1768976227
55.589607 83.729942 15.070939 1.880790849211783e-38 1768976227
56.499866 85.100990 14.649532 1.880790849211783e-38 1768976227
52.449581 79.000381 9.703185 1.880790849211783e-38 1768976227
53.147820 80.052078 9.203815 1.880790849211783e-38 1768976227
54.557484 82.175331 13.601504 1.880790849211783e-38 1768976227
54.949474 82.765755 5.291784 1.880790849211783e-38 1768976227
54.785103 82.518173 4.790023 1.880790849211783e-38 1768976227
54.585396 82.217384 4.106846 1.880790849211783e-38 1768976227
54.587170 82.220055 3.642979 1.880790849211783e-38 1768976227
55.610195 83.760941 7.801105 1.880790849211783e-38 1768976227
55.046131 82.911346 7.091326 1.880790849211783e-38 1768976227
54.453373 82.018532 2.969941 1.880790849211783e-38 1768976227
54.358589 81.875755 2.482624 1.880790849211783e-38 1768976227
55.551899 83.673134 6.643219 1.880790849211783e-38 1768976227
55.202427 83.146767 5.968986 1.880790849211783e-38 1768976227
54.610874 82.255760 1.707022 1.880790849211783e-38 1768976227
53.898975 81.183479 15.240364 1.880790849211783e-38 1768976227
54.377296 81.370308 11.714843 1.880790849211783e-38 1768976227
52.942856 79.223816 10.840954 1.880790849211783e-38 1768976227
52.510494 78.576820 10.095580 1.880790849211783e-38 1768976227
55.808346 83.511734 15.061890 1.880790849211783e-38 1768976227
56.871647 85.102859 14.679315 1.880790849211783e-38 1768976227
52.721230 78.892159 9.709378 1.880790849211783e-38 1768976227
53.313095 79.777832 9.190728 1.880790849211783e-38 1768976227
55.250324 82.676720 5.296721 1.880790849211783e-38 1768976227
55.077351 82.417862 4.793821 1.880790849211783e-38 1768976227
54.833839 82.053482 4.106901 1.880790849211783e-38 1768976227
54.739857 81.912849 3.636665 1.880790849211783e-38 1768976227
55.975773 83.762268 7.816916 1.880790849211783e-38 1768976227
55.308765 82.764160 7.092972 1.880790849211783e-38 1768976227
54.608829 81.716774 2.964964 1.880790849211783e-38 1768976227
54.513924 81.574768 2.478472 1.880790849211783e-38 1768976227
55.879070 83.617561 6.652157 1.880790849211783e-38 1768976227
55.522038 83.083305 5.976424 1.880790849211783e-38 1768976227
54.834122 82.053902 1.706257 1.880790849211783e-38 1768976227
53.989056 80.789345 15.196872 1.880790849211783e-38 1768976227
54.866711 81.569069 11.767227 1.880790849211783e-38 1768976227
54.075665 80.393044 11.023217 1.880790849211783e-38 1768976227
52.882118 78.618622 10.121396 1.880790849211783e-38 1768976227
56.027073 83.294151 15.053055 1.880790849211783e-38 1768976227
57.194294 85.029427 14.696335 1.880790849211783e-38 1768976227
52.603428 78.204292 9.644202 1.880790849211783e-38 1768976227
54.415398 80.898109 9.338654 1.880790849211783e-38 1768976227
55.562954 82.604149 5.302783 1.880790849211783e-38 1768976227
55.377686 82.328720 4.798329 1.880790849211783e-38 1768976227
55.114372 81.937263 4.109385 1.880790849211783e-38 1768976227
54.982292 81.740898 3.636377 1.880790849211783e-38 1768976227
56.429672 83.892677 7.844933 1.880790849211783e-38 1768976227
55.620426 82.689598 7.100925 1.880790849211783e-38 1768976227
54.808510 81.482536 2.962450 1.880790849211783e-38 1768976227
54.682793 81.295639 2.474990 1.880790849211783e-38 1768976227
56.349911 83.774101 6.678100 1.880790849211783e-38 1768976227
55.842491 83.019737 5.983939 1.880790849211783e-38 1768976227
55.057178 81.852242 1.705509 1.880790849211783e-38 1768976227
55.003845 81.772942 1.200225 1.880790849211783e-38 1768976227
54.204063 80.583923 15.188911 1.880790849211783e-38 1768976227
54.655548 80.728325 11.091743 1.880790849211783e-38 1768976227
53.814041 79.485397 10.253834 1.880790849211783e-38 1768976227
56.245800 83.077194 15.044435 1.880790849211783e-38 1768976227
52.974335 78.245117 9.668896 1.880790849211783e-38 1768976227
54.298908 80.201561 9.277107 1.880790849211783e-38 1768976227
55.854778 82.499641 5.306864 1.880790849211783e-38 1768976227
55.674366 82.233162 4.802524 1.880790849211783e-38 1768976227
55.400192 81.828194 4.112276 1.880790849211783e-38 1768976227
55.253670 81.611778 3.638030 1.880790849211783e-38 1768976227
57.287712 84.616150 7.928705 1.880790849211783e-38 1768976227
55.936665 82.620605 7.109455 1.880790849211783e-38 1768976227
55.077415 81.351440 2.963709 1.880790849211783e-38 1768976227
54.951027 81.164764 2.476040 1.880790849211783e-38 1768976227
57.578999 85.046394 6.793333 1.880790849211783e-38 1768976227
56.163773 82.956039 5.991530 1.880790849211783e-38 1768976227
55.280041 81.650734 1.704776 1.880790849211783e-38 1768976227
55.226517 81.571678 1.199710 1.880790849211783e-38 1768976227
54.449612 80.424164 15.189683 1.880790849211783e-38 1768976227
54.284809 79.662155 10.297709 1.880790849211783e-38 1768976227
56.464520 82.860847 15.036026 1.880790849211783e-38 1768976227
57.723270 84.708031 14.700697 1.880790849211783e-38 1768976227
53.904659 79.104279 9.168946 1.880790849211783e-38 1768976227
56.145275 82.392357 5.310831 1.880790849211783e-38 1768976227
55.965084 82.127922 4.806213 1.880790849211783e-38 1768976227
55.686424 81.719002 4.115210 1.880790849211783e-38 1768976227
55.539036 81.502716 3.640618 1.880790849211783e-38 1768976227
56.253742 82.551529 7.118078 1.880790849211783e-38 1768976227
55.346550 81.220238 2.964997 1.880790849211783e-38 1768976227
55.758442 81.824692 2.501291 1.880790849211783e-38 1768976227
57.597610 84.523636 6.765421 1.880790849211783e-38 1768976227
56.567532 83.012009 6.007867 1.880790849211783e-38 1768976227
55.620701 81.622551 1.707682 1.880790849211783e-38 1768976227
55.532742 81.493477 1.201018 1.880790849211783e-38 1768976227
54.751755 80.347389 15.206302 1.880790849211783e-38 1768976227
57.936234 84.471970 14.689986 1.880790849211783e-38 1768976227
53.310253 77.727211 9.027925 1.880790849211783e-38 1768976227
56.440063 82.290527 5.315216 1.880790849211783e-38 1768976227
56.282219 82.060387 4.812173 1.880790849211783e-38 1768976227
55.973076 81.609650 4.118186 1.880790849211783e-38 1768976227
55.824833 81.393517 3.643245 1.880790849211783e-38 1768976227
56.216644 81.964783 2.998353 1.880790849211783e-38 1768976227
56.116768 81.819153 2.506284 1.880790849211783e-38 1768976227
57.890522 84.405327 6.769896 1.880790849211783e-38 1768976227
56.805397 82.823181 6.006573 1.880790849211783e-38 1768976227
55.971539 81.607407 1.710890 1.880790849211783e-38 1768976227
55.111469 80.353409 15.238830 1.880790849211783e-38 1768976227
57.881504 83.848900 15.278397 1.880790849211783e-38 1768976227
58.148773 84.236061 14.679393 1.880790849211783e-38 1768976227
57.576740 83.407402 5.398547 1.880790849211783e-38 1768976227
56.588821 81.976280 4.817227 1.880790849211783e-38 1768976227
56.262207 81.503128 4.121354 1.880790849211783e-38 1768976227
56.111046 81.284157 3.645908 1.880790849211783e-38 1768976227
56.581833 81.966156 3.004632 1.880790849211783e-38 1768976227
56.481098 81.820213 2.511523 1.880790849211783e-38 1768976227
58.637280 84.943733 6.827234 1.880790849211783e-38 1768976227
57.774330 83.693642 6.082310 1.880790849211783e-38 1768976227
55.226940 80.003410 15.203971 1.880790849211783e-38 1768976227
55.161980 79.396065 14.497278 1.880790849211783e-38 1768976227
58.348782 83.982910 14.665877 1.880790849211783e-38 1768976227
57.815617 83.215515 5.397388 1.880790849211783e-38 1768976227
56.844845 81.818253 4.817993 1.880790849211783e-38 1768976227
56.552647 81.397690 4.124629 1.880790849211783e-38 1768976227
56.397705 81.174667 3.648609 1.880790849211783e-38 1768976227
56.948570 81.967545 3.010965 1.880790849211783e-38 1768976227
56.846954 81.821297 2.516807 1.880790849211783e-38 1768976227
58.369930 84.013344 6.118310 1.880790849211783e-38 1768976227
55.958443 80.542442 15.338411 1.880790849211783e-38 1768976227
58.494400 83.652962 14.638998 1.880790849211783e-38 1768976227
58.239887 83.288979 5.413521 1.880790849211783e-38 1768976227
57.924919 82.838539 4.888340 1.880790849211783e-38 1768976227
56.843575 81.292114 4.127947 1.880790849211783e-38 1768976227
57.691540 82.504791 3.716199 1.880790849211783e-38 1768976227
57.317013 81.969177 3.017361 1.880790849211783e-38 1768976227
59.010242 84.390663 6.158721 1.880790849211783e-38 1768976227
58.639309 83.323959 14.612306 1.880790849211783e-38 1768976227
58.809238 83.565414 5.442992 1.880790849211783e-38 1768976227
58.380173 82.955734 4.905623 1.880790849211783e-38 1768976227
58.067951 82.512077 4.198769 1.880790849211783e-38 1768976227
57.957626 82.355309 3.717322 1.880790849211783e-38 1768976227
57.820312 82.160194 3.030798 1.880790849211783e-38 1768976227
59.329826 84.305138 6.165510 1.880790849211783e-38 1768976227
58.411575 83.000366 15.873305 1.880790849211783e-38 1768976227
58.783512 82.995895 14.585799 1.880790849211783e-38 1768976227
59.369766 83.823624 5.471448 1.880790849211783e-38 1768976227
58.924625 83.195137 4.930267 1.880790849211783e-38 1768976227
58.534397 82.644188 4.214456 1.880790849211783e-38 1768976227
58.328751 82.353836 3.725179 1.880790849211783e-38 1768976227
58.085869 82.010910 3.031740 1.880790849211783e-38 1768976227
59.680271 84.262024 6.175492 1.880790849211783e-38 1768976227
58.451576 82.527252 15.816467 1.880790849211783e-38 1768976227
59.376930 83.299957 14.670640 1.880790849211783e-38 1768976227
59.753109 83.827698 5.483452 1.880790849211783e-38 1768976227
59.523094 83.505005 4.959247 1.880790849211783e-38 1768976227
59.025860 82.807442 4.231840 1.880790849211783e-38 1768976227
58.796322 82.485428 3.739136 1.880790849211783e-38 1768976227
59.642586 83.672646 6.796591 1.880790849211783e-38 1768976227
58.614407 82.230209 15.793347 1.880790849211783e-38 1768976227
59.588734 83.065926 14.661006 1.880790849211783e-38 1768976227
59.096382 82.379593 13.980310 1.880790849211783e-38 1768976227
60.104252 83.784546 5.492462 1.880790849211783e-38 1768976227
59.960274 83.583855 4.974646 1.880790849211783e-38 1768976227
59.533142 82.988426 4.250246 1.880790849211783e-38 1768976227
59.952091 83.572433 6.803108 1.880790849211783e-38 1768976227
58.989182 82.230164 15.827435 1.880790849211783e-38 1768976227
59.604385 82.560883 14.603529 1.880790849211783e-38 1768976227
59.254570 82.076340 13.959110 1.880790849211783e-38 1768976227
60.519569 83.828545 5.507286 1.880790849211783e-38 1768976227
60.342094 83.582710 6.818727 1.880790849211783e-38 1768976227
59.477886 82.385658 6.077167 1.880790849211783e-38 1768976227
59.850555 82.901855 15.991392 1.880790849211783e-38 1768976227
60.126083 82.756447 15.339258 1.880790849211783e-38 1768976227
59.718922 82.196037 14.570786 1.880790849211783e-38 1768976227
59.440220 81.812439 13.944654 1.880790849211783e-38 1768976227
59.898201 82.442795 6.094679 1.880790849211783e-38 1768976227
60.245659 82.397301 15.306296 1.880790849211783e-38 1768976227
59.904827 81.931145 14.555790 1.880790849211783e-38 1768976227
59.555538 81.453438 13.914014 1.880790849211783e-38 1768976227
60.365944 82.561813 6.116909 1.880790849211783e-38 1768976227
60.586426 82.340988 15.329709 1.880790849211783e-38 1768976227
60.119503 81.706413 14.548010 1.880790849211783e-38 1768976227
59.914547 81.427864 13.940451 1.880790849211783e-38 1768976227
60.138718 81.732521 5.405112 1.880790849211783e-38 1768976227
60.888981 82.752182 6.144591 1.880790849211783e-38 1768976227
59.665833 81.089844 15.745355 1.880790849211783e-38 1768976227
60.344955 81.496773 14.543023 1.880790849211783e-38 1768976227
60.288109 81.419998 13.970169 1.880790849211783e-38 1768976227
60.666748 81.931358 5.430336 1.880790849211783e-38 1768976227
60.346512 81.498863 15.860044 1.880790849211783e-38 1768976227
60.651165 81.395866 14.557590 1.880790849211783e-38 1768976227
60.273758 80.889366 13.910250 1.880790849211783e-38 1768976227
61.309486 82.279343 5.465631 1.880790849211783e-38 1768976227
61.375504 81.851555 15.341350 1.880790849211783e-38 1768976227
60.981110 81.325577 14.577847 1.880790849211783e-38 1768976227
60.500469 80.684586 13.906349 1.880790849211783e-38 1768976227
61.316444 81.772797 4.942811 1.880790849211783e-38 1768976227
61.291561 81.228050 15.259064 1.880790849211783e-38 1768976227
61.312103 81.255272 14.598324 1.880790849211783e-38 1768976227
61.500141 81.504478 14.079564 1.880790849211783e-38 1768976227
61.388588 80.848343 13.417112 1.880790849211783e-38 1768976227
62.050045 81.209778 14.657127 1.880790849211783e-38 1768976227
61.924240 81.045128 13.480701 1.880790849211783e-38 1768976227
62.365742 80.610390 18.585747 1.880790849211783e-38 1768976227
62.562733 80.363045 18.572140 1.880790849211783e-38 1768976227
62.828259 80.203926 18.579071 1.880790849211783e-38 1768976227
64.173180 80.910698 8.012909 1.880790849211783e-38 1768976227
64.995087 79.946777 8.647429 1.880790849211783e-38 1768976227
64.637711 79.507195 7.301244 1.880790849211783e-38 1768976227
64.972092 79.427887 8.612460 1.880790849211783e-38 1768976227
64.998932 79.460709 7.314944 1.880790849211783e-38 1768976227
65.485085 79.564156 9.112029 1.880790849211783e-38 1768976227
64.992767 78.966003 8.583592 1.880790849211783e-38 1768976227
65.554398 79.648376 8.004078 1.880790849211783e-38 1768976227
65.180145 79.193672 7.308425 1.880790849211783e-38 1768976227
65.608765 79.226250 9.095950 1.880790849211783e-38 1768976227
65.116386 78.631668 8.568559 1.880790849211783e-38 1768976227
65.710106 79.348633 7.993834 1.880790849211783e-38 1768976227
65.384819 78.955826 7.304640 1.880790849211783e-38 1768976227
65.732094 78.889618 9.080021 1.880790849211783e-38 1768976227
65.337906 78.416534 8.566549 1.880790849211783e-38 1768976227
65.918915 79.113838 7.990173 1.880790849211783e-38 1768976227
65.630974 78.768265 7.305567 1.880790849211783e-38 1768976227
66.457886 79.273315 5.002637 1.880790849211783e-38 1768976227
65.585678 78.232918 8.568061 1.880790849211783e-38 1768976227
66.178276 78.939789 7.992717 1.880790849211783e-38 1768976227
65.877243 78.580711 7.306566 1.880790849211783e-38 1768976227
66.110130 78.858513 6.806519 1.880790849211783e-38 1768976227
66.678612 79.051140 5.001284 1.880790849211783e-38 1768976227
65.891891 78.118439 8.577248 1.880790849211783e-38 1768976227
65.371437 77.501396 7.867005 1.880790849211783e-38 1768976227
66.153076 78.428085 7.310892 1.880790849211783e-38 1768976227
66.540070 78.886879 6.826257 1.880790849211783e-38 1768976227
66.505470 78.365089 5.474792 1.880790849211783e-38 1768976227
66.899643 78.829544 5.000007 1.880790849211783e-38 1768976227
66.406387 78.248337 8.613461 1.880790849211783e-38 1768976227
65.675415 77.387016 7.875463 1.880790849211783e-38 1768976227
66.448921 78.298454 7.317457 1.880790849211783e-38 1768976227
66.729134 78.149658 5.473776 1.880790849211783e-38 1768976227
67.138351 78.628922 5.000102 1.880790849211783e-38 1768976227
65.980110 77.272453 7.884019 1.880790849211783e-38 1768976227
66.843033 78.283058 7.334825 1.880790849211783e-38 1768976227
66.484978 77.863724 6.772300 1.880790849211783e-38 1768976227
66.976044 77.961456 5.474718 1.880790849211783e-38 1768976227
67.377090 78.428299 5.000244 1.880790849211783e-38 1768976227
66.489120 77.394684 7.916914 1.880790849211783e-38 1768976227
67.157509 78.172699 7.343428 1.880790849211783e-38 1768976227
66.567986 77.486481 3.081712 1.880790849211783e-38 1768976227
66.834137 77.796280 6.783935 1.880790849211783e-38 1768976227
67.244560 77.798096 5.477462 1.880790849211783e-38 1768976227
67.303940 77.866798 4.977364 1.880790849211783e-38 1768976227
67.450584 78.036461 4.292411 1.880790849211783e-38 1768976227
67.243683 77.797081 3.795782 1.880790849211783e-38 1768976227
67.363602 77.935829 7.340229 1.880790849211783e-38 1768976227
66.949051 77.456207 3.088525 1.880790849211783e-38 1768976227
66.736374 77.210152 2.578037 1.880790849211783e-38 1768976227
67.141403 77.206856 5.450068 1.880790849211783e-38 1768976227
67.797119 77.960876 4.996425 1.880790849211783e-38 1768976227
67.208466 77.283974 4.262151 1.880790849211783e-38 1768976227
66.966209 77.005402 3.766992 1.880790849211783e-38 1768976227
67.259895 77.343117 3.092090 1.880790849211783e-38 1768976227
67.066528 77.120750 2.581794 1.880790849211783e-38 1768976227
67.782516 77.470978 5.483118 1.880790849211783e-38 1768976227
68.133934 77.872635 5.003916 1.880790849211783e-38 1768976227
67.608452 77.272041 4.272718 1.880790849211783e-38 1768976227
67.230087 76.839592 3.768782 1.880790849211783e-38 1768976227
66.905052 76.468094 3.065161 1.880790849211783e-38 1768976227
67.411842 77.047325 2.586130 1.880790849211783e-38 1768976227
68.096436 77.357742 5.489614 1.880790849211783e-38 1768976227
67.816086 77.039268 4.963486 1.880790849211783e-38 1768976227
67.959152 77.201782 4.280147 1.880790849211783e-38 1768976227
67.662315 76.864578 3.779999 1.880790849211783e-38 1768976227
67.277824 76.427795 3.071665 1.880790849211783e-38 1768976227
67.758331 76.973663 2.590505 1.880790849211783e-38 1768976227
68.411224 77.244362 5.496185 1.880790849211783e-38 1768976227
68.586540 77.442322 5.002759 1.880790849211783e-38 1768976227
68.312790 77.133224 4.287749 1.880790849211783e-38 1768976227
68.013870 76.795708 3.786683 1.880790849211783e-38 1768976227
67.652199 76.387337 3.078225 1.880790849211783e-38 1768976227
68.106010 76.899742 2.594918 1.880790849211783e-38 1768976227
67.874825 76.638702 1.769963 1.880790849211783e-38 1768976227
68.777802 77.188004 5.506908 1.880790849211783e-38 1768976227
68.667717 77.064461 4.295419 1.880790849211783e-38 1768976227
68.366699 76.726639 3.793427 1.880790849211783e-38 1768976227
68.028191 76.346725 3.084842 1.880790849211783e-38 1768976227
67.799171 76.089714 2.574472 1.880790849211783e-38 1768976227
68.243050 76.587860 1.773533 1.880790849211783e-38 1768976227
68.725708 76.662781 3.800500 1.880790849211783e-38 1768976227
68.405815 76.305954 3.091516 1.880790849211783e-38 1768976227
68.175629 76.049179 2.580046 1.880790849211783e-38 1768976227
68.612770 76.536797 1.777135 1.880790849211783e-38 1768976227
68.808044 76.290451 3.099282 1.880790849211783e-38 1768976227
68.577370 76.034698 2.586560 1.880790849211783e-38 1768976227
68.984001 76.485542 1.780767 1.880790849211783e-38 1768976227
68.841156 76.327156 1.251805 1.880790849211783e-38 1768976227
68.981155 76.020134 2.593130 1.880790849211783e-38 1768976227
69.354027 76.431053 1.256934 1.880790849211783e-38 1768976227
69.009178 75.591644 1.769615 1.880790849211783e-38 1768976227
38.408421 41.065960 -1.659970 1.880790849211783e-38 1768976227
37.932579 40.557194 -1.911842 1.880790849211783e-38 1768976227
38.552586 40.971710 -1.315852 1.880790849211783e-38 1768976227
37.989677 40.373486 -1.636603 1.880790849211783e-38 1768976227
37.754684 40.123745 -1.896768 1.880790849211783e-38 1768976227
38.548477 40.720570 -1.002036 1.880790849211783e-38 1768976227
38.130802 40.279362 -1.297304 1.880790849211783e-38 1768976227
37.854313 39.987289 -1.625569 1.880790849211783e-38 1768976227
37.655235 39.776997 -1.885737 1.880790849211783e-38 1768976227
38.741764 40.678314 -0.647893 1.880790849211783e-38 1768976227
38.231583 40.142628 -0.990647 1.880790849211783e-38 1768976227
38.004017 39.903690 -1.288890 1.880790849211783e-38 1768976227
37.755188 39.642418 -1.616170 1.880790849211783e-38 1768976227
37.609463 39.489410 -1.877471 1.880790849211783e-38 1768976227
38.786499 40.480114 -0.325713 1.880790849211783e-38 1768976227
38.391106 40.067459 -0.640005 1.880790849211783e-38 1768976227
38.128708 39.793598 -0.984867 1.880790849211783e-38 1768976227
37.915314 39.570889 -1.281828 1.880790849211783e-38 1768976227
37.732376 39.379963 -1.610102 1.880790849211783e-38 1768976227
37.587284 39.228535 -1.870450 1.880790849211783e-38 1768976227
38.525272 39.965496 -0.322506 1.880790849211783e-38 1768976227
38.287193 39.718513 -0.636272 1.880790849211783e-38 1768976227
38.057308 39.480038 -0.979943 1.880790849211783e-38 1768976227
37.891861 39.308403 -1.277022 1.880790849211783e-38 1768976227
37.709721 39.119453 -1.604094 1.880790849211783e-38 1768976227
37.570576 38.975113 -1.863760 1.880790849211783e-38 1768976227
39.030090 40.489185 0.041138 1.880790849211783e-38 1768976227
38.420532 39.617012 -0.320627 1.880790849211783e-38 1768976227
38.224205 39.414570 -0.633247 1.880790849211783e-38 1768976227
38.033306 39.217735 -0.976275 1.880790849211783e-38 1768976227
37.868584 39.047882 -1.272263 1.880790849211783e-38 1768976227
37.711636 38.886040 -1.599179 1.880790849211783e-38 1768976227
37.593655 38.764385 -1.859097 1.880790849211783e-38 1768976227
39.043285 40.259163 0.339088 1.880790849211783e-38 1768976227
38.693905 39.898899 0.040656 1.880790849211783e-38 1768976227
38.372860 39.329823 -0.319238 1.880790849211783e-38 1768976227
38.199554 39.152191 -0.630880 1.880790849211783e-38 1768976227
38.017017 38.965103 -0.972836 1.880790849211783e-38 1768976227
37.882610 38.827343 -1.268794 1.880790849211783e-38 1768976227
39.186600 40.163853 0.683393 1.880790849211783e-38 1768976227
37.734371 38.675404 -1.595190 1.880790849211783e-38 1768976227
37.616615 38.554718 -1.854474 1.880790849211783e-38 1768976227
38.811127 39.779015 0.336028 1.880790849211783e-38 1768976227
38.588058 39.550381 0.040419 1.880790849211783e-38 1768976227
38.347622 39.067532 -0.318046 1.880790849211783e-38 1768976227
38.194305 38.911339 -0.628852 1.880790849211783e-38 1768976227
38.039104 38.753223 -0.970406 1.880790849211783e-38 1768976227
37.904942 38.616547 -1.265635 1.880790849211783e-38 1768976227
39.256763 39.993740 0.968901 1.880790849211783e-38 1768976227
38.962986 39.694447 0.677402 1.880790849211783e-38 1768976227
37.756992 38.465813 -1.591234 1.880790849211783e-38 1768976227
37.639462 38.346077 -1.849890 1.880790849211783e-38 1768976227
38.710079 39.436794 0.334122 1.880790849211783e-38 1768976227
38.546757 39.270405 0.040252 1.880790849211783e-38 1768976227
38.356987 38.842045 -0.317151 1.880790849211783e-38 1768976227
38.215984 38.699257 -0.627285 1.880790849211783e-38 1768976227
39.608814 40.109703 1.423997 1.880790849211783e-38 1768976227
38.061073 38.542389 -0.967996 1.880790849211783e-38 1768976227
37.927174 38.406792 -1.262504 1.880790849211783e-38 1768976227
39.071579 39.565674 0.961381 1.880790849211783e-38 1768976227
38.872765 39.364346 0.673767 1.880790849211783e-38 1768976227
37.794941 38.272892 -1.587962 1.880790849211783e-38 1768976227
37.691971 38.168625 -1.846805 1.880790849211783e-38 1768976227
38.683445 39.172630 0.332871 1.880790849211783e-38 1768976227
38.520832 39.007965 0.040102 1.880790849211783e-38 1768976227
38.378277 38.629883 -0.316362 1.880790849211783e-38 1768976227
38.237537 38.488228 -0.625730 1.880790849211783e-38 1768976227
39.588001 39.847534 1.694489 1.880790849211783e-38 1768976227
39.302513 39.560181 1.408689 1.880790849211783e-38 1768976227
38.096207 38.345963 -0.965944 1.880790849211783e-38 1768976227
37.978916 38.227909 -1.260383 1.880790849211783e-38 1768976227
39.003979 39.259682 0.956800 1.880790849211783e-38 1768976227
38.845486 39.100155 0.671247 1.880790849211783e-38 1768976227
37.849445 38.097584 -1.585417 1.880790849211783e-38 1768976227
37.746490 37.993958 -1.843854 1.880790849211783e-38 1768976227
38.673107 38.926647 0.331770 1.880790849211783e-38 1768976227
38.540386 38.793053 0.040000 1.880790849211783e-38 1768976227
38.409283 38.428593 -0.315661 1.880790849211783e-38 1768976227
38.286030 38.305283 -0.624630 1.880790849211783e-38 1768976227
39.776550 39.796547 2.076973 1.880790849211783e-38 1768976227
39.402527 39.422344 1.681453 1.880790849211783e-38 1768976227
39.224922 39.244640 1.401660 1.880790849211783e-38 1768976227
38.150494 38.169674 -0.964398 1.880790849211783e-38 1768976227
38.033222 38.052345 -1.258371 1.880790849211783e-38 1768976227
38.976963 38.996555 0.953247 1.880790849211783e-38 1768976227
38.847702 38.867233 0.669257 1.880790849211783e-38 1768976227
37.903770 37.922825 -1.582895 1.880790849211783e-38 1768976227
37.800831 37.819839 -1.840928 1.880790849211783e-38 1768976227
38.693718 38.713177 0.330944 1.880790849211783e-38 1768976227
38.561253 38.580643 0.039901 1.880790849211783e-38 1768976227
38.463337 38.251255 -0.315156 1.880790849211783e-38 1768976227
38.340107 38.128704 -0.623634 1.880790849211783e-38 1768976227
39.816448 39.596901 2.336822 1.880790849211783e-38 1768976227
39.581867 39.363613 2.060599 1.880790849211783e-38 1768976227
39.350208 39.133232 1.674176 1.880790849211783e-38 1768976227
39.199883 38.983734 1.396557 1.880790849211783e-38 1768976227
38.204594 37.993938 -0.962864 1.880790849211783e-38 1768976227
38.087349 37.877338 -1.256377 1.880790849211783e-38 1768976227
38.996918 38.781887 0.950871 1.880790849211783e-38 1768976227
38.867916 38.653599 0.667594 1.880790849211783e-38 1768976227
37.957912 37.748608 -1.580394 1.880790849211783e-38 1768976227
37.861717 37.652950 -1.838354 1.880790849211783e-38 1768976227
38.721134 38.507626 0.330184 1.880790849211783e-38 1768976227
38.605152 38.392281 0.039826 1.880790849211783e-38 1768976227
38.517231 38.074486 -0.314655 1.880790849211783e-38 1768976227
38.394020 37.952690 -0.622646 1.880790849211783e-38 1768976227
40.005386 39.545532 2.720359 1.880790849211783e-38 1768976227
39.683414 39.227264 2.322060 1.880790849211783e-38 1768976227
39.533794 39.079365 2.051951 1.880790849211783e-38 1768976227
39.345039 38.892776 1.668958 1.880790849211783e-38 1768976227
39.219334 38.768517 1.393078 1.880790849211783e-38 1768976227
38.264614 37.824772 -0.961498 1.880790849211783e-38 1768976227
38.156303 37.717709 -1.254893 1.880790849211783e-38 1768976227
39.022587 38.574028 0.948655 1.880790849211783e-38 1768976227
38.909641 38.462387 0.666315 1.880790849211783e-38 1768976227
38.036674 37.599449 -1.578945 1.880790849211783e-38 1768976227
37.941517 37.505386 -1.836728 1.880790849211783e-38 1768976227
38.774967 38.329262 0.329655 1.880790849211783e-38 1768976227
38.659008 38.214630 0.039763 1.880790849211783e-38 1768976227
38.583771 37.910870 -0.314263 1.880790849211783e-38 1768976227
38.469921 37.799004 -0.622025 1.880790849211783e-38 1768976227
40.067898 39.369114 2.992105 1.880790849211783e-38 1768976227
39.868565 39.173256 2.703009 1.880790849211783e-38 1768976227
39.660023 38.968349 2.313804 1.880790849211783e-38 1768976227
39.537964 38.848427 2.046077 1.880790849211783e-38 1768976227
39.364155 38.677647 1.664814 1.880790849211783e-38 1768976227
39.253658 38.569080 1.390160 1.880790849211783e-38 1768976227
38.344654 37.675922 -0.960649 1.880790849211783e-38 1768976227
38.236214 37.569370 -1.253789 1.880790849211783e-38 1768976227
39.076195 38.394703 0.947139 1.880790849211783e-38 1768976227
38.963280 38.283756 0.665253 1.880790849211783e-38 1768976227
38.116440 37.451691 -1.577560 1.880790849211783e-38 1768976227
38.021164 37.358078 -1.835122 1.880790849211783e-38 1768976227
38.828632 38.151463 0.329132 1.880790849211783e-38 1768976227
38.714714 38.039528 0.039702 1.880790849211783e-38 1768976227
38.663960 37.761150 -0.313987 1.880790849211783e-38 1768976227
38.549969 37.649822 -0.621481 1.880790849211783e-38 1768976227
39.994942 39.061054 2.977846 1.880790849211783e-38 1768976227
39.854530 38.923920 2.694086 1.880790849211783e-38 1768976227
39.678455 38.751961 2.308050 1.880790849211783e-38 1768976227
39.569298 38.645351 2.041658 1.880790849211783e-38 1768976227
39.417053 38.496662 1.662133 1.880790849211783e-38 1768976227
39.307068 38.389240 1.387944 1.880790849211783e-38 1768976227
40.240669 39.301052 3.364079 1.880790849211783e-38 1768976227
