# .PCD v0.7 - Point Cloud Data file format
VERSION 0.7
FIELDS x y z rgb label
SIZE 4 4 4 4 4
TYPE F F F F U
COUNT 1 1 1 1 1
WIDTH 753
HEIGHT 1
VIEWPOINT 0 0 0 1 0 0 0
POINTS 753
DATA ascii
76.712975 -29.174854 8.398248 1.880790849211783e-38 1768976227
77.270622 -29.386934 7.918528 1.880790849211783e-38 1768976227
74.062233 -28.166742 10.926395 1.880790849211783e-38 1768976227
79.290421 -30.155085 11.212167 1.880790849211783e-38 1768976227
67.964714 -25.847784 3.873199 1.880790849211783e-38 1768976227
67.405052 -25.634937 3.487510 1.880790849211783e-38 1768976227
81.947716 -31.165686 7.752636 1.880790849211783e-38 1768976227
70.153381 -26.680159 6.299302 1.880790849211783e-38 1768976227
78.430916 -29.828207 3.491943 1.880790849211783e-38 1768976227
77.868546 -29.614330 3.075219 1.880790849211783e-38 1768976227
79.293587 -30.156288 6.582447 1.880790849211783e-38 1768976227
68.742622 -26.143633 5.240520 1.880790849211783e-38 1768976227
80.893944 -30.764921 2.610881 1.880790849211783e-38 1768976227
79.009010 -30.048059 2.135343 1.880790849211783e-38 1768976227
68.382317 -26.006601 4.839173 1.880790849211783e-38 1768976227
68.167999 -25.925097 4.361849 1.880790849211783e-38 1768976227
81.678261 -31.063210 1.510828 1.880790849211783e-38 1768976227
81.280624 -30.911983 1.059073 1.880790849211783e-38 1768976227
74.330597 -28.268805 15.964972 1.880790849211783e-38 1768976227
72.114349 -27.425940 14.684620 1.880790849211783e-38 1768976227
70.872955 -26.953823 13.827340 1.880790849211783e-38 1768976227
69.679443 -26.499918 12.923976 1.880790849211783e-38 1768976227
68.888115 -26.198965 12.174571 1.880790849211783e-38 1768976227
72.176315 -27.449505 12.076943 1.880790849211783e-38 1768976227
73.172935 -27.828531 17.172588 1.880790849211783e-38 1768976227
77.656235 -29.533585 17.613350 1.880790849211783e-38 1768976227
80.057350 -30.723438 10.702634 1.880790849211783e-38 1768976227
73.847893 -28.340450 9.468283 1.880790849211783e-38 1768976227
85.447472 -32.791992 10.412947 1.880790849211783e-38 1768976227
75.974472 -29.156561 8.692950 1.880790849211783e-38 1768976227
72.472839 -27.812748 11.640452 1.880790849211783e-38 1768976227
73.726929 -28.294027 11.325315 1.880790849211783e-38 1768976227
77.800362 -29.857281 8.527109 1.880790849211783e-38 1768976227
77.647224 -29.798508 7.966293 1.880790849211783e-38 1768976227
73.495361 -28.205158 10.855265 1.880790849211783e-38 1768976227
79.123642 -30.365110 11.201482 1.880790849211783e-38 1768976227
67.831429 -26.031523 3.870060 1.880790849211783e-38 1768976227
86.335114 -33.132645 4.472094 1.880790849211783e-38 1768976227
81.754738 -31.374840 7.743296 1.880790849211783e-38 1768976227
80.928658 -31.057819 7.275228 1.880790849211783e-38 1768976227
78.166878 -29.997936 3.484199 1.880790849211783e-38 1768976227
77.492989 -29.739317 3.063915 1.880790849211783e-38 1768976227
90.213081 -34.620884 7.497548 1.880790849211783e-38 1768976227
69.247841 -26.575096 5.285120 1.880790849211783e-38 1768976227
80.320045 -30.824253 2.595347 1.880790849211783e-38 1768976227
79.132660 -30.368570 2.141150 1.880790849211783e-38 1768976227
68.703728 -26.366283 4.867524 1.880790849211783e-38 1768976227
68.147308 -26.152748 4.365552 1.880790849211783e-38 1768976227
81.568275 -31.303284 1.510533 1.880790849211783e-38 1768976227
73.665878 -28.270599 15.840443 1.880790849211783e-38 1768976227
71.918205 -27.599899 14.661561 1.880790849211783e-38 1768976227
70.766251 -27.157812 13.822438 1.880790849211783e-38 1768976227
69.998337 -26.863113 12.998092 1.880790849211783e-38 1768976227
70.657806 -27.116196 12.501724 1.880790849211783e-38 1768976227
72.193222 -27.705437 12.093698 1.880790849211783e-38 1768976227
73.158760 -28.075983 17.189056 1.880790849211783e-38 1768976227
74.553108 -28.611090 16.929020 1.880790849211783e-38 1768976227
79.258865 -30.691576 10.608214 1.880790849211783e-38 1768976227
73.533287 -28.474447 9.438914 1.880790849211783e-38 1768976227
95.052689 -36.807449 11.596950 1.880790849211783e-38 1768976227
78.183456 -30.275143 8.956108 1.880790849211783e-38 1768976227
72.806000 -28.192816 11.707567 1.880790849211783e-38 1768976227
72.583069 -28.106495 11.162577 1.880790849211783e-38 1768976227
77.618774 -30.056480 8.517104 1.880790849211783e-38 1768976227
80.592476 -31.207991 8.278084 1.880790849211783e-38 1768976227
73.701508 -28.539589 10.898376 1.880790849211783e-38 1768976227
78.486053 -30.392319 11.124145 1.880790849211783e-38 1768976227
95.929100 -37.146824 5.479514 1.880790849211783e-38 1768976227
81.027161 -31.376316 4.202028 1.880790849211783e-38 1768976227
81.719391 -31.644369 7.748952 1.880790849211783e-38 1768976227
81.183754 -31.436954 7.306650 1.880790849211783e-38 1768976227
78.737877 -30.489832 3.513734 1.880790849211783e-38 1768976227
77.104279 -29.857250 3.052093 1.880790849211783e-38 1768976227
88.425385 -34.241146 7.357522 1.880790849211783e-38 1768976227
68.620148 -26.571924 5.243307 1.880790849211783e-38 1768976227
79.724022 -30.871698 2.579085 1.880790849211783e-38 1768976227
79.523445 -30.794029 2.154227 1.880790849211783e-38 1768976227
68.341965 -26.464203 4.847526 1.880790849211783e-38 1768976227
67.883301 -26.286591 4.353698 1.880790849211783e-38 1768976227
81.098419 -31.403912 1.503579 1.880790849211783e-38 1768976227
75.004250 -29.044052 16.146997 1.880790849211783e-38 1768976227
71.843025 -27.819925 14.663274 1.880790849211783e-38 1768976227
71.324829 -27.619259 13.947749 1.880790849211783e-38 1768976227
69.641113 -26.967272 12.946801 1.880790849211783e-38 1768976227
71.298080 -27.608906 12.629686 1.880790849211783e-38 1768976227
70.456619 -27.283064 11.816515 1.880790849211783e-38 1768976227
72.511482 -28.078775 17.056793 1.880790849211783e-38 1768976227
74.952507 -29.024015 17.039511 1.880790849211783e-38 1768976227
73.341782 -28.654945 9.827777 1.880790849211783e-38 1768976227
72.936630 -28.496651 9.373315 1.880790849211783e-38 1768976227
77.310791 -30.205654 9.443412 1.880790849211783e-38 1768976227
77.607903 -30.321735 8.900611 1.880790849211783e-38 1768976227
72.477821 -28.317392 11.668475 1.880790849211783e-38 1768976227
72.442772 -28.303696 11.154077 1.880790849211783e-38 1768976227
80.990410 -31.643293 8.897504 1.880790849211783e-38 1768976227
75.403862 -29.460608 7.754225 1.880790849211783e-38 1768976227
76.908569 -30.048508 11.385960 1.880790849211783e-38 1768976227
78.147728 -30.532650 11.089194 1.880790849211783e-38 1768976227
95.860939 -37.453274 5.482048 1.880790849211783e-38 1768976227
85.913277 -33.566685 4.460649 1.880790849211783e-38 1768976227
82.121521 -32.085228 7.796224 1.880790849211783e-38 1768976227
80.780952 -31.561462 7.278931 1.880790849211783e-38 1768976227
78.284706 -30.586166 3.497611 1.880790849211783e-38 1768976227
77.472618 -30.268881 3.070273 1.880790849211783e-38 1768976227
87.910744 -34.347103 7.323287 1.880790849211783e-38 1768976227
78.424667 -30.640852 5.999510 1.880790849211783e-38 1768976227
79.992996 -31.253603 2.590824 1.880790849211783e-38 1768976227
79.602570 -31.101061 2.158902 1.880790849211783e-38 1768976227
68.087303 -26.601997 4.835131 1.880790849211783e-38 1768976227
77.485619 -30.273962 4.975378 1.880790849211783e-38 1768976227
81.290947 -31.760719 1.508918 1.880790849211783e-38 1768976227
74.663971 -29.171532 16.092609 1.880790849211783e-38 1768976227
71.928658 -28.102831 14.697982 1.880790849211783e-38 1768976227
71.138458 -27.794098 13.927634 1.880790849211783e-38 1768976227
70.166313 -27.414278 13.059752 1.880790849211783e-38 1768976227
71.650314 -27.994083 12.706979 1.880790849211783e-38 1768976227
71.102402 -27.780012 11.938819 1.880790849211783e-38 1768976227
73.801186 -28.834438 17.380547 1.880790849211783e-38 1768976227
74.913834 -29.269154 17.050709 1.880790849211783e-38 1768976227
73.900986 -29.130642 9.914439 1.880790849211783e-38 1768976227
73.021500 -28.783962 9.395336 1.880790849211783e-38 1768976227
77.182343 -30.424101 9.438887 1.880790849211783e-38 1768976227
77.766479 -30.654362 8.929361 1.880790849211783e-38 1768976227
73.359467 -28.917185 11.824402 1.880790849211783e-38 1768976227
80.489723 -31.727821 12.407749 1.880790849211783e-38 1768976227
89.431122 -35.252384 9.836427 1.880790849211783e-38 1768976227
74.900894 -29.524790 7.711624 1.880790849211783e-38 1768976227
80.391350 -31.689045 11.915665 1.880790849211783e-38 1768976227
77.061432 -30.376442 10.947999 1.880790849211783e-38 1768976227
81.084236 -31.962168 4.642497 1.880790849211783e-38 1768976227
96.052292 -37.862350 4.992977 1.880790849211783e-38 1768976227
81.968658 -32.310795 7.790928 1.880790849211783e-38 1768976227
80.602585 -31.772306 7.271460 1.880790849211783e-38 1768976227
78.077492 -30.776955 3.492485 1.880790849211783e-38 1768976227
77.289398 -30.466301 3.066640 1.880790849211783e-38 1768976227
88.446220 -34.864151 7.376620 1.880790849211783e-38 1768976227
78.319458 -30.872335 5.998557 1.880790849211783e-38 1768976227
79.622543 -31.385992 2.162001 1.880790849211783e-38 1768976227
76.327385 -30.087091 5.426710 1.880790849211783e-38 1768976227
77.146515 -30.409979 4.959470 1.880790849211783e-38 1768976227
81.175903 -31.998302 1.508567 1.880790849211783e-38 1768976227
76.877197 -30.303822 16.589258 1.880790849211783e-38 1768976227
71.029831 -27.998878 14.531506 1.880790849211783e-38 1768976227
77.513626 -30.554691 15.193750 1.880790849211783e-38 1768976227
69.252968 -27.298462 12.905020 1.880790849211783e-38 1768976227
71.198204 -28.065248 12.641752 1.880790849211783e-38 1768976227
72.635521 -28.631817 12.210690 1.880790849211783e-38 1768976227
80.000244 -31.534876 18.862768 1.880790849211783e-38 1768976227
75.687546 -29.834877 17.247211 1.880790849211783e-38 1768976227
73.118355 -29.077225 9.821163 1.880790849211783e-38 1768976227
72.365387 -28.777788 9.322042 1.880790849211783e-38 1768976227
76.624023 -30.471333 9.381804 1.880790849211783e-38 1768976227
77.637459 -30.874353 8.925198 1.880790849211783e-38 1768976227
73.618355 -29.276062 11.880308 1.880790849211783e-38 1768976227
74.992920 -29.822687 11.574212 1.880790849211783e-38 1768976227
80.297173 -31.932051 8.842346 1.880790849211783e-38 1768976227
75.117287 -29.872145 7.743144 1.880790849211783e-38 1768976227
80.307823 -31.936287 11.917505 1.880790849211783e-38 1768976227
78.023323 -31.027802 11.097897 1.880790849211783e-38 1768976227
95.637520 -38.032497 5.482290 1.880790849211783e-38 1768976227
95.226341 -37.868980 4.955956 1.880790849211783e-38 1768976227
80.427330 -31.983809 7.653562 1.880790849211783e-38 1768976227
80.001450 -31.814447 7.225853 1.880790849211783e-38 1768976227
77.607582 -30.862473 3.082943 1.880790849211783e-38 1768976227
87.662720 -34.861134 7.320010 1.880790849211783e-38 1768976227
77.675468 -30.889467 5.956341 1.880790849211783e-38 1768976227
79.439285 -31.590889 2.159602 1.880790849211783e-38 1768976227
76.268906 -30.330114 5.429031 1.880790849211783e-38 1768976227
77.667465 -30.886282 4.998925 1.880790849211783e-38 1768976227
81.335030 -32.344776 1.513330 1.880790849211783e-38 1768976227
76.946938 -30.599751 16.624146 1.880790849211783e-38 1768976227
70.403046 -27.997417 14.420484 1.880790849211783e-38 1768976227
73.612236 -29.273628 14.446262 1.880790849211783e-38 1768976227
69.687454 -27.712845 13.001500 1.880790849211783e-38 1768976227
70.926056 -28.205408 12.608477 1.880790849211783e-38 1768976227
75.464111 -30.010069 12.701358 1.880790849211783e-38 1768976227
79.239441 -31.511417 18.705706 1.880790849211783e-38 1768976227
76.210373 -30.306839 17.387100 1.880790849211783e-38 1768976227
72.777298 -29.196108 9.787135 1.880790849211783e-38 1768976227
72.723175 -29.174397 9.379424 1.880790849211783e-38 1768976227
71.876465 -28.834721 8.811124 1.880790849211783e-38 1768976227
77.748337 -31.190344 8.948717 1.880790849211783e-38 1768976227
74.982483 -30.080763 12.115031 1.880790849211783e-38 1768976227
74.488182 -29.882469 11.510171 1.880790849211783e-38 1768976227
79.717598 -31.980356 8.789104 1.880790849211783e-38 1768976227
74.936348 -30.062256 7.733803 1.880790849211783e-38 1768976227
79.730621 -31.985579 11.354409 1.880790849211783e-38 1768976227
95.052780 -38.132378 5.455339 1.880790849211783e-38 1768976227
95.850563 -38.452423 4.994457 1.880790849211783e-38 1768976227
80.764297 -32.400257 7.694892 1.880790849211783e-38 1768976227
79.632080 -31.946047 7.201161 1.880790849211783e-38 1768976227
95.940163 -38.488365 4.301806 1.880790849211783e-38 1768976227
77.857742 -31.234234 3.096609 1.880790849211783e-38 1768976227
88.038033 -35.318272 7.360211 1.880790849211783e-38 1768976227
77.904510 -31.252996 5.981106 1.880790849211783e-38 1768976227
79.517426 -31.900051 2.164332 1.880790849211783e-38 1768976227
76.684166 -30.763428 5.465170 1.880790849211783e-38 1768976227
94.267456 -37.817329 6.074667 1.880790849211783e-38 1768976227
78.456200 -31.474318 1.461526 1.880790849211783e-38 1768976227
78.237061 -31.386404 16.923246 1.880790849211783e-38 1768976227
76.790016 -30.805895 15.747670 1.880790849211783e-38 1768976227
73.048485 -29.304901 14.352907 1.880790849211783e-38 1768976227
72.247795 -28.983686 13.495427 1.880790849211783e-38 1768976227
73.814461 -29.612190 13.137763 1.880790849211783e-38 1768976227
75.084511 -30.121695 12.652701 1.880790849211783e-38 1768976227
79.884727 -32.047398 18.880766 1.880790849211783e-38 1768976227
75.602478 -30.329489 17.269201 1.880790849211783e-38 1768976227
72.292931 -29.255219 9.733818 1.880790849211783e-38 1768976227
72.780243 -29.452425 9.398198 1.880790849211783e-38 1768976227
71.515694 -28.940691 8.777558 1.880790849211783e-38 1768976227
77.252365 -31.262182 8.902443 1.880790849211783e-38 1768976227
75.365334 -30.498549 12.191696 1.880790849211783e-38 1768976227
73.100548 -29.582045 11.309484 1.880790849211783e-38 1768976227
78.788651 -31.883883 8.697248 1.880790849211783e-38 1768976227
75.058571 -30.374407 7.755836 1.880790849211783e-38 1768976227
75.248917 -30.451437 11.193830 1.880790849211783e-38 1768976227
80.208961 -32.458649 11.436419 1.880790849211783e-38 1768976227
94.570381 -38.270370 5.434253 1.880790849211783e-38 1768976227
94.996445 -38.442787 4.955970 1.880790849211783e-38 1768976227
80.275612 -32.485619 7.657632 1.880790849211783e-38 1768976227
79.618050 -32.219517 7.208646 1.880790849211783e-38 1768976227
94.682877 -38.315895 4.250594 1.880790849211783e-38 1768976227
77.750694 -31.463846 3.096112 1.880790849211783e-38 1768976227
86.610542 -35.049213 7.249672 1.880790849211783e-38 1768976227
77.123146 -31.209892 5.928316 1.880790849211783e-38 1768976227
80.318932 -32.503151 2.188806 1.880790849211783e-38 1768976227
76.676285 -31.029055 5.471252 1.880790849211783e-38 1768976227
75.956963 -30.737961 4.900676 1.880790849211783e-38 1768976227
78.497993 -31.766260 1.464082 1.880790849211783e-38 1768976227
78.185287 -31.639709 16.932610 1.880790849211783e-38 1768976227
76.693024 -31.035831 15.746904 1.880790849211783e-38 1768976227
73.081444 -29.574310 14.376843 1.880790849211783e-38 1768976227
72.059303 -29.160675 13.476585 1.880790849211783e-38 1768976227
71.715698 -29.021627 12.779737 1.880790849211783e-38 1768976227
75.151321 -30.411940 12.679358 1.880790849211783e-38 1768976227
88.556152 -35.836555 20.955708 1.880790849211783e-38 1768976227
75.651482 -30.614340 17.301405 1.880790849211783e-38 1768976227
72.314056 -29.517891 9.748605 1.880790849211783e-38 1768976227
72.311157 -29.516708 9.349076 1.880790849211783e-38 1768976227
71.890007 -29.344801 8.834322 1.880790849211783e-38 1768976227
78.275665 -31.951363 9.031430 1.880790849211783e-38 1768976227
75.028877 -30.626057 12.152154 1.880790849211783e-38 1768976227
74.345734 -30.347200 11.516234 1.880790849211783e-38 1768976227
79.174652 -32.318325 8.750577 1.880790849211783e-38 1768976227
74.207108 -30.290617 7.677259 1.880790849211783e-38 1768976227
74.991394 -30.610756 11.169204 1.880790849211783e-38 1768976227
73.816185 -30.131046 10.537827 1.880790849211783e-38 1768976227
89.988449 -36.732407 5.177305 1.880790849211783e-38 1768976227
94.654358 -38.636986 4.944180 1.880790849211783e-38 1768976227
79.362373 -32.394947 7.579802 1.880790849211783e-38 1768976227
80.230049 -32.749123 7.272967 1.880790849211783e-38 1768976227
78.563072 -32.068680 3.132298 1.880790849211783e-38 1768976227
78.629555 -32.095818 6.589703 1.880790849211783e-38 1768976227
76.614120 -31.273136 5.896411 1.880790849211783e-38 1768976227
76.406975 -31.188585 5.458723 1.880790849211783e-38 1768976227
75.564636 -30.844749 4.881344 1.880790849211783e-38 1768976227
78.835953 -32.180069 1.472189 1.880790849211783e-38 1768976227
77.723145 -31.725830 16.853170 1.880790849211783e-38 1768976227
76.212578 -31.109232 15.667451 1.880790849211783e-38 1768976227
72.823883 -29.726000 14.343747 1.880790849211783e-38 1768976227
71.261719 -29.088339 13.343766 1.880790849211783e-38 1768976227
74.464134 -30.395533 13.285784 1.880790849211783e-38 1768976227
75.111107 -30.659620 12.688116 1.880790849211783e-38 1768976227
75.078506 -30.646317 17.191427 1.880790849211783e-38 1768976227
72.633873 -29.904310 9.803833 1.880790849211783e-38 1768976227
71.962059 -29.627712 9.315452 1.880790849211783e-38 1768976227
76.423515 -31.464552 9.403048 1.880790849211783e-38 1768976227
77.936172 -32.087334 9.003385 1.880790849211783e-38 1768976227
75.021530 -30.887341 12.165998 1.880790849211783e-38 1768976227
74.599396 -30.713543 11.569823 1.880790849211783e-38 1768976227
78.392754 -32.275314 8.674877 1.880790849211783e-38 1768976227
74.329536 -30.602434 7.699439 1.880790849211783e-38 1768976227
75.334831 -31.016329 11.234236 1.880790849211783e-38 1768976227
73.072121 -30.084740 10.444512 1.880790849211783e-38 1768976227
89.748802 -36.950748 5.169906 1.880790849211783e-38 1768976227
78.299385 -32.236874 7.487529 1.880790849211783e-38 1768976227
79.377319 -32.680672 7.204567 1.880790849211783e-38 1768976227
77.453522 -31.888622 6.499174 1.880790849211783e-38 1768976227
76.317604 -31.420952 5.880857 1.880790849211783e-38 1768976227
76.092728 -31.328363 5.442998 1.880790849211783e-38 1768976227
75.213242 -30.966270 4.864655 1.880790849211783e-38 1768976227
79.009567 -32.529263 1.477256 1.880790849211783e-38 1768976227
78.338074 -32.252800 17.007523 1.880790849211783e-38 1768976227
76.577690 -31.528028 15.761984 1.880790849211783e-38 1768976227
71.768082 -29.547853 14.153278 1.880790849211783e-38 1768976227
73.052971 -30.076857 13.696102 1.880790849211783e-38 1768976227
74.105598 -30.510237 13.238173 1.880790849211783e-38 1768976227
74.875397 -30.827171 12.663946 1.880790849211783e-38 1768976227
75.449730 -31.063633 17.898251 1.880790849211783e-38 1768976227
75.304863 -31.003990 17.264591 1.880790849211783e-38 1768976227
72.650696 -30.167799 9.818339 1.880790849211783e-38 1768976227
71.761391 -29.798519 9.301066 1.880790849211783e-38 1768976227
74.869621 -31.089195 9.223352 1.880790849211783e-38 1768976227
77.860115 -32.330982 9.005822 1.880790849211783e-38 1768976227
74.757904 -31.042807 12.138373 1.880790849211783e-38 1768976227
74.616402 -30.984049 11.586901 1.880790849211783e-38 1768976227
75.430031 -31.321901 8.357441 1.880790849211783e-38 1768976227
74.099213 -30.769287 7.685157 1.880790849211783e-38 1768976227
75.491875 -31.347584 11.271702 1.880790849211783e-38 1768976227
73.542160 -30.537975 10.524814 1.880790849211783e-38 1768976227
89.909729 -37.334518 5.185638 1.880790849211783e-38 1768976227
79.675140 -33.084660 7.628595 1.880790849211783e-38 1768976227
79.388680 -32.965706 7.214590 1.880790849211783e-38 1768976227
77.798721 -32.305492 6.536285 1.880790849211783e-38 1768976227
76.616867 -31.814730 5.911284 1.880790849211783e-38 1768976227
76.063965 -31.585140 5.447730 1.880790849211783e-38 1768976227
75.951897 -31.538601 4.918559 1.880790849211783e-38 1768976227
77.489380 -32.177036 16.844261 1.880790849211783e-38 1768976227
75.136719 -31.200106 15.484685 1.880790849211783e-38 1768976227
76.204918 -31.643673 15.047012 1.880790849211783e-38 1768976227
73.025375 -30.323385 13.708012 1.880790849211783e-38 1768976227
73.820366 -30.653500 13.203673 1.880790849211783e-38 1768976227
74.696480 -31.017300 12.649449 1.880790849211783e-38 1768976227
75.282448 -31.260618 17.880852 1.880790849211783e-38 1768976227
75.584412 -31.386007 17.350304 1.880790849211783e-38 1768976227
72.599838 -30.403719 9.823813 1.880790849211783e-38 1768976227
71.577484 -29.975573 9.288906 1.880790849211783e-38 1768976227
79.066833 -33.112000 9.752676 1.880790849211783e-38 1768976227
77.708801 -32.543278 8.999632 1.880790849211783e-38 1768976227
74.946762 -31.386574 12.184352 1.880790849211783e-38 1768976227
74.563286 -31.225983 11.593225 1.880790849211783e-38 1768976227
74.884651 -31.360567 8.307456 1.880790849211783e-38 1768976227
74.172112 -31.062166 7.702400 1.880790849211783e-38 1768976227
75.721138 -31.710875 11.320162 1.880790849211783e-38 1768976227
75.608711 -31.663790 10.834181 1.880790849211783e-38 1768976227
75.138062 -31.466690 4.339121 1.880790849211783e-38 1768976227
95.015297 -39.790974 4.981636 1.880790849211783e-38 1768976227
79.445129 -33.270424 7.616145 1.880790849211783e-38 1768976227
79.024612 -33.094318 7.190542 1.880790849211783e-38 1768976227
94.919571 -39.750889 7.984735 1.880790849211783e-38 1768976227
76.400322 -31.995306 5.901995 1.880790849211783e-38 1768976227
75.815819 -31.750521 5.436790 1.880790849211783e-38 1768976227
75.557617 -31.642393 4.899184 1.880790849211783e-38 1768976227
76.149467 -31.890247 16.573828 1.880790849211783e-38 1768976227
75.154411 -31.473537 15.507824 1.880790849211783e-38 1768976227
75.614731 -31.666311 14.949267 1.880790849211783e-38 1768976227
72.731407 -30.458818 13.670011 1.880790849211783e-38 1768976227
73.566833 -30.808681 13.174885 1.880790849211783e-38 1768976227
74.194664 -31.071608 12.580282 1.880790849211783e-38 1768976227
74.792877 -31.322132 17.786928 1.880790849211783e-38 1768976227
74.813309 -31.330687 17.194910 1.880790849211783e-38 1768976227
71.948921 -30.386494 9.748092 1.880790849211783e-38 1768976227
71.581841 -30.231462 9.301262 1.880790849211783e-38 1768976227
78.689003 -33.233063 9.718390 1.880790849211783e-38 1768976227
77.792252 -32.854332 9.020731 1.880790849211783e-38 1768976227
77.989235 -32.937523 12.695070 1.880790849211783e-38 1768976227
74.767403 -31.576834 11.639714 1.880790849211783e-38 1768976227
79.335037 -33.505901 8.812338 1.880790849211783e-38 1768976227
73.988762 -31.247988 7.693111 1.880790849211783e-38 1768976227
75.382637 -31.836670 11.283859 1.880790849211783e-38 1768976227
75.711838 -31.975700 10.862726 1.880790849211783e-38 1768976227
75.254868 -31.782707 4.351382 1.880790849211783e-38 1768976227
93.382912 -39.438805 4.902264 1.880790849211783e-38 1768976227
73.940910 -31.227779 7.097470 1.880790849211783e-38 1768976227
79.104813 -33.408669 7.206975 1.880790849211783e-38 1768976227
94.760780 -40.020721 4.280699 1.880790849211783e-38 1768976227
93.872505 -39.645573 7.906677 1.880790849211783e-38 1768976227
76.353477 -32.246685 5.905862 1.880790849211783e-38 1768976227
76.202560 -32.182949 5.471459 1.880790849211783e-38 1768976227
75.745598 -31.989958 4.917606 1.880790849211783e-38 1768976227
76.684479 -32.386482 16.711454 1.880790849211783e-38 1768976227
75.593643 -31.925787 15.618256 1.880790849211783e-38 1768976227
75.329582 -31.814262 14.911795 1.880790849211783e-38 1768976227
72.426552 -30.588211 13.629989 1.880790849211783e-38 1768976227
73.731094 -31.139166 13.221061 1.880790849211783e-38 1768976227
74.077545 -31.285484 12.576365 1.880790849211783e-38 1768976227
75.176773 -31.749727 17.900915 1.880790849211783e-38 1768976227
74.410011 -31.425894 17.123922 1.880790849211783e-38 1768976227
72.522697 -30.886892 9.838407 1.880790849211783e-38 1768976227
73.816963 -31.438105 9.603967 1.880790849211783e-38 1768976227
75.764175 -32.267414 9.369139 1.880790849211783e-38 1768976227
77.581337 -33.041328 9.007789 1.880790849211783e-38 1768976227
78.894386 -33.600544 12.858848 1.880790849211783e-38 1768976227
74.248421 -31.621862 11.573714 1.880790849211783e-38 1768976227
79.816986 -33.993473 8.877218 1.880790849211783e-38 1768976227
74.479546 -31.720297 7.754053 1.880790849211783e-38 1768976227
74.696236 -31.812586 11.195425 1.880790849211783e-38 1768976227
75.377869 -32.102886 10.828653 1.880790849211783e-38 1768976227
75.179703 -32.018490 4.352600 1.880790849211783e-38 1768976227
89.755959 -38.226406 4.717893 1.880790849211783e-38 1768976227
73.080704 -31.124540 7.023879 1.880790849211783e-38 1768976227
78.550636 -33.454147 7.165646 1.880790849211783e-38 1768976227
93.714592 -39.912361 4.238857 1.880790849211783e-38 1768976227
94.695099 -40.329952 7.986171 1.880790849211783e-38 1768976227
77.316956 -32.928730 5.988041 1.880790849211783e-38 1768976227
75.483490 -32.147869 5.426766 1.880790849211783e-38 1768976227
75.737335 -32.255981 4.923363 1.880790849211783e-38 1768976227
75.373199 -32.100899 16.446718 1.880790849211783e-38 1768976227
74.243629 -31.619822 15.358964 1.880790849211783e-38 1768976227
75.097313 -31.983400 14.884843 1.880790849211783e-38 1768976227
72.224251 -30.759783 13.609315 1.880790849211783e-38 1768976227
72.992798 -31.087105 13.105427 1.880790849211783e-38 1768976227
73.820496 -31.439610 12.548765 1.880790849211783e-38 1768976227
75.289513 -32.065254 17.950706 1.880790849211783e-38 1768976227
74.475281 -31.718485 17.160881 1.880790849211783e-38 1768976227
72.207916 -31.010427 9.808347 1.880790849211783e-38 1768976227
73.441368 -31.540148 9.567433 1.880790849211783e-38 1768976227
75.972824 -32.627308 9.407066 1.880790849211783e-38 1768976227
77.840515 -33.429401 9.049545 1.880790849211783e-38 1768976227
78.723480 -33.808605 12.847553 1.880790849211783e-38 1768976227
74.962051 -32.193222 11.700036 1.880790849211783e-38 1768976227
76.183754 -32.717892 8.484067 1.880790849211783e-38 1768976227
74.547218 -32.015064 7.771115 1.880790849211783e-38 1768976227
75.030441 -32.222591 11.260030 1.880790849211783e-38 1768976227
75.405472 -32.383652 10.846600 1.880790849211783e-38 1768976227
74.601234 -32.038261 4.324683 1.880790849211783e-38 1768976227
87.496468 -37.576252 4.605062 1.880790849211783e-38 1768976227
77.793526 -33.409225 7.486484 1.880790849211783e-38 1768976227
78.721359 -33.807693 7.190488 1.880790849211783e-38 1768976227
94.979317 -40.789841 4.301608 1.880790849211783e-38 1768976227
94.569542 -40.613857 7.985876 1.880790849211783e-38 1768976227
80.610229 -34.618889 6.251156 1.880790849211783e-38 1768976227
75.745735 -32.529781 5.452648 1.880790849211783e-38 1768976227
75.274193 -32.327274 4.899572 1.880790849211783e-38 1768976227
75.094536 -32.250118 16.407063 1.880790849211783e-38 1768976227
75.758232 -32.535149 15.692522 1.880790849211783e-38 1768976227
73.915932 -31.743954 14.669594 1.880790849211783e-38 1768976227
76.039200 -32.655815 14.346664 1.880790849211783e-38 1768976227
72.736107 -31.237265 13.076193 1.880790849211783e-38 1768976227
73.615387 -31.614883 12.530051 1.880790849211783e-38 1768976227
74.819206 -32.131874 17.861597 1.880790849211783e-38 1768976227
74.707039 -32.083702 17.236500 1.880790849211783e-38 1768976227
72.702095 -31.482704 9.888326 1.880790849211783e-38 1768976227
74.009697 -32.048946 9.654018 1.880790849211783e-38 1768976227
75.430908 -32.664383 9.352120 1.880790849211783e-38 1768976227
78.099052 -33.819794 9.091420 1.880790849211783e-38 1768976227
75.035522 -32.493164 12.261619 1.880790849211783e-38 1768976227
74.169357 -32.118088 11.591379 1.880790849211783e-38 1768976227
76.474930 -33.116482 8.527577 1.880790849211783e-38 1768976227
74.079453 -32.079155 7.732404 1.880790849211783e-38 1768976227
74.134201 -32.102863 11.140008 1.880790849211783e-38 1768976227
74.680428 -32.339397 10.756288 1.880790849211783e-38 1768976227
87.107910 -37.720959 5.056275 1.880790849211783e-38 1768976227
87.096138 -37.715862 4.589958 1.880790849211783e-38 1768976227
78.152786 -33.843060 7.530846 1.880790849211783e-38 1768976227
79.086662 -34.247463 7.233257 1.880790849211783e-38 1768976227
83.312401 -36.077362 7.044428 1.880790849211783e-38 1768976227
81.405930 -35.251789 6.321077 1.880790849211783e-38 1768976227
76.675117 -33.203175 5.526735 1.880790849211783e-38 1768976227
75.516350 -32.701382 4.921731 1.880790849211783e-38 1768976227
75.492920 -32.691238 16.515572 1.880790849211783e-38 1768976227
74.809502 -32.395290 15.516170 1.880790849211783e-38 1768976227
74.098724 -32.087502 14.725010 1.880790849211783e-38 1768976227
75.715469 -32.787613 14.304178 1.880790849211783e-38 1768976227
72.251328 -31.287506 13.005947 1.880790849211783e-38 1768976227
86.429642 -37.427246 14.730308 1.880790849211783e-38 1768976227
75.193718 -32.561672 17.974367 1.880790849211783e-38 1768976227
74.183868 -32.124371 17.138069 1.880790849211783e-38 1768976227
72.305428 -31.570232 9.847281 1.880790849211783e-38 1768976227
76.303322 -33.315807 9.966268 1.880790849211783e-38 1768976227
75.814507 -33.102379 9.412017 1.880790849211783e-38 1768976227
77.517365 -33.845882 9.035547 1.880790849211783e-38 1768976227
74.169868 -32.384289 12.136067 1.880790849211783e-38 1768976227
73.417122 -32.055622 11.488873 1.880790849211783e-38 1768976227
76.979126 -33.610878 8.595065 1.880790849211783e-38 1768976227
74.978249 -32.737247 7.836491 1.880790849211783e-38 1768976227
73.254669 -31.984694 11.022287 1.880790849211783e-38 1768976227
74.454834 -32.508709 10.737866 1.880790849211783e-38 1768976227
86.695274 -37.853172 5.038927 1.880790849211783e-38 1768976227
87.128944 -38.042522 4.597712 1.880790849211783e-38 1768976227
81.944603 -35.778919 7.906590 1.880790849211783e-38 1768976227
81.950005 -35.781281 7.504973 1.880790849211783e-38 1768976227
83.029144 -36.252457 3.770220 1.880790849211783e-38 1768976227
83.257645 -36.352222 3.353470 1.880790849211783e-38 1768976227
83.757904 -36.570644 7.091391 1.880790849211783e-38 1768976227
81.061661 -35.393406 6.302605 1.880790849211783e-38 1768976227
83.471336 -36.445530 2.747672 1.880790849211783e-38 1768976227
77.308403 -33.754642 5.579694 1.880790849211783e-38 1768976227
75.714340 -33.058643 4.941111 1.880790849211783e-38 1768976227
75.706207 -33.055088 16.583965 1.880790849211783e-38 1768976227
74.069496 -32.340462 15.382846 1.880790849211783e-38 1768976227
74.047462 -32.330841 14.734133 1.880790849211783e-38 1768976227
75.976204 -33.172974 14.372271 1.880790849211783e-38 1768976227
72.917290 -31.837383 13.143051 1.880790849211783e-38 1768976227
81.536232 -35.600616 13.914554 1.880790849211783e-38 1768976227
74.456200 -32.509308 17.821426 1.880790849211783e-38 1768976227
75.529968 -32.978138 17.471945 1.880790849211783e-38 1768976227
78.313126 -34.474922 10.679581 1.880790849211783e-38 1768976227
74.088127 -32.614994 9.689735 1.880790849211783e-38 1768976227
75.589355 -33.275867 9.396482 1.880790849211783e-38 1768976227
77.734566 -34.220230 9.072853 1.880790849211783e-38 1768976227
73.331512 -32.281921 12.014768 1.880790849211783e-38 1768976227
72.998177 -32.135178 11.438428 1.880790849211783e-38 1768976227
77.033432 -33.911575 8.612509 1.880790849211783e-38 1768976227
77.536560 -34.133064 8.114600 1.880790849211783e-38 1768976227
74.224640 -32.675095 11.183011 1.880790849211783e-38 1768976227
74.675491 -32.873569 10.783942 1.880790849211783e-38 1768976227
82.852173 -36.473095 4.821929 1.880790849211783e-38 1768976227
83.472153 -36.746025 4.410575 1.880790849211783e-38 1768976227
82.913010 -36.499878 8.010613 1.880790849211783e-38 1768976227
82.650848 -36.384472 7.579172 1.880790849211783e-38 1768976227
82.863831 -36.478226 3.767692 1.880790849211783e-38 1768976227
82.521164 -36.327381 3.328204 1.880790849211783e-38 1768976227
83.253754 -36.649883 7.058034 1.880790849211783e-38 1768976227
81.713707 -35.971924 6.361709 1.880790849211783e-38 1768976227
82.803108 -36.451500 2.729282 1.880790849211783e-38 1768976227
83.744347 -36.865849 2.311411 1.880790849211783e-38 1768976227
79.669060 -35.071827 5.757681 1.880790849211783e-38 1768976227
75.969749 -33.443325 4.964339 1.880790849211783e-38 1768976227
75.572205 -33.268318 16.576515 1.880790849211783e-38 1768976227
74.212730 -32.669853 15.432987 1.880790849211783e-38 1768976227
75.452080 -33.215435 15.033493 1.880790849211783e-38 1768976227
76.170837 -33.531849 14.428155 1.880790849211783e-38 1768976227
76.404884 -33.634876 13.789899 1.880790849211783e-38 1768976227
81.445549 -35.853874 13.917469 1.880790849211783e-38 1768976227
74.925575 -32.983658 17.957502 1.880790849211783e-38 1768976227
75.436295 -33.208485 17.473366 1.880790849211783e-38 1768976227
79.082153 -35.098560 10.798840 1.880790849211783e-38 1768976227
74.248932 -32.953461 9.723722 1.880790849211783e-38 1768976227
75.596626 -33.551605 9.409922 1.880790849211783e-38 1768976227
78.431099 -34.809612 9.166361 1.880790849211783e-38 1768976227
73.078697 -32.434082 11.989317 1.880790849211783e-38 1768976227
72.177574 -32.034145 11.324931 1.880790849211783e-38 1768976227
78.185936 -34.700798 8.753022 1.880790849211783e-38 1768976227
77.196892 -34.261841 8.089829 1.880790849211783e-38 1768976227
73.759033 -32.736034 11.127686 1.880790849211783e-38 1768976227
74.192070 -32.928226 10.728422 1.880790849211783e-38 1768976227
82.821907 -36.758354 4.826597 1.880790849211783e-38 1768976227
82.503647 -36.617107 4.365216 1.880790849211783e-38 1768976227
82.914742 -36.799557 8.021467 1.880790849211783e-38 1768976227
82.928429 -36.805637 7.614771 1.880790849211783e-38 1768976227
82.374840 -36.559940 3.750455 1.880790849211783e-38 1768976227
82.604057 -36.661671 3.335991 1.880790849211783e-38 1768976227
93.687561 -41.580795 7.953179 1.880790849211783e-38 1768976227
82.957207 -36.818405 6.467134 1.880790849211783e-38 1768976227
82.869255 -36.779373 2.735106 1.880790849211783e-38 1768976227
82.993286 -36.834419 2.293737 1.880790849211783e-38 1768976227
79.841888 -35.435757 5.777869 1.880790849211783e-38 1768976227
76.650803 -34.019470 5.015524 1.880790849211783e-38 1768976227
75.107864 -33.334675 16.496639 1.880790849211783e-38 1768976227
74.037323 -32.859547 15.417048 1.880790849211783e-38 1768976227
76.568016 -33.982731 15.276190 1.880790849211783e-38 1768976227
75.279053 -33.410656 14.278255 1.880790849211783e-38 1768976227
75.790810 -33.637787 13.697314 1.880790849211783e-38 1768976227
74.151184 -32.910080 12.687905 1.880790849211783e-38 1768976227
74.629364 -33.122307 17.910368 1.880790849211783e-38 1768976227
75.243034 -33.394672 17.451851 1.880790849211783e-38 1768976227
79.647545 -35.637409 10.890673 1.880790849211783e-38 1768976227
74.479500 -33.325024 9.767035 1.880790849211783e-38 1768976227
74.000259 -33.110592 9.223600 1.880790849211783e-38 1768976227
75.358574 -33.718357 8.819116 1.880790849211783e-38 1768976227
72.402313 -32.395611 11.894325 1.880790849211783e-38 1768976227
72.426834 -32.406582 11.379325 1.880790849211783e-38 1768976227
77.787270 -34.805050 8.720102 1.880790849211783e-38 1768976227
76.813416 -34.369308 8.060469 1.880790849211783e-38 1768976227
73.695839 -32.974380 11.133104 1.880790849211783e-38 1768976227
73.794586 -33.018566 10.685296 1.880790849211783e-38 1768976227
82.615608 -36.965431 4.821050 1.880790849211783e-38 1768976227
82.305588 -36.826721 4.360593 1.880790849211783e-38 1768976227
93.389648 -41.786160 9.046997 1.880790849211783e-38 1768976227
83.323479 -37.282166 7.661335 1.880790849211783e-38 1768976227
82.593826 -36.955688 3.765482 1.880790849211783e-38 1768976227
81.593056 -36.507904 3.299593 1.880790849211783e-38 1768976227
82.138695 -36.752045 6.982168 1.880790849211783e-38 1768976227
83.205132 -37.229210 6.495186 1.880790849211783e-38 1768976227
82.204399 -36.781445 2.716811 1.880790849211783e-38 1768976227
82.331764 -36.838432 2.278514 1.880790849211783e-38 1768976227
79.964668 -35.779301 5.794536 1.880790849211783e-38 1768976227
82.066170 -36.719597 5.377092 1.880790849211783e-38 1768976227
74.450974 -33.312256 16.374352 1.880790849211783e-38 1768976227
73.963936 -33.094341 15.422480 1.880790849211783e-38 1768976227
76.255646 -34.119743 15.234329 1.880790849211783e-38 1768976227
75.414581 -33.743416 14.323198 1.880790849211783e-38 1768976227
75.957359 -33.986275 13.745876 1.880790849211783e-38 1768976227
71.426086 -31.958811 12.238054 1.880790849211783e-38 1768976227
74.634521 -33.394386 17.935696 1.880790849211783e-38 1768976227
74.686890 -33.417816 17.346153 1.880790849211783e-38 1768976227
79.498734 -35.858982 10.885063 1.880790849211783e-38 1768976227
75.189056 -33.915043 9.873451 1.880790849211783e-38 1768976227
73.393898 -33.105316 9.160426 1.880790849211783e-38 1768976227
75.398026 -34.009304 8.835696 1.880790849211783e-38 1768976227
72.002563 -32.477730 11.844690 1.880790849211783e-38 1768976227
71.472824 -32.238789 11.244661 1.880790849211783e-38 1768976227
77.687447 -35.041977 8.720720 1.880790849211783e-38 1768976227
77.065887 -34.761612 8.097926 1.880790849211783e-38 1768976227
73.264435 -33.046917 11.082939 1.880790849211783e-38 1768976227
73.989624 -33.374027 10.728064 1.880790849211783e-38 1768976227
81.653374 -36.830864 4.771359 1.880790849211783e-38 1768976227
82.501419 -37.213383 4.376894 1.880790849211783e-38 1768976227
93.092293 -41.990540 8.571152 1.880790849211783e-38 1768976227
82.446556 -37.188641 3.763865 1.880790849211783e-38 1768976227
81.686577 -36.845840 3.307854 1.880790849211783e-38 1768976227
82.646698 -37.278915 7.034877 1.880790849211783e-38 1768976227
93.854950 -42.334549 7.336469 1.880790849211783e-38 1768976227
82.200600 -37.077694 2.720369 1.880790849211783e-38 1768976227
81.369675 -36.702896 2.254941 1.880790849211783e-38 1768976227
82.711052 -37.307945 6.001677 1.880790849211783e-38 1768976227
82.149597 -37.054691 5.389856 1.880790849211783e-38 1768976227
82.711906 -37.308327 1.568766 1.880790849211783e-38 1768976227
74.836891 -33.756195 16.481546 1.880790849211783e-38 1768976227
73.735077 -33.259209 15.395606 1.880790849211783e-38 1768976227
75.624573 -34.111492 15.128738 1.880790849211783e-38 1768976227
74.539192 -33.621914 14.176134 1.880790849211783e-38 1768976227
75.902534 -34.236870 13.754580 1.880790849211783e-38 1768976227
71.381340 -32.197525 12.246969 1.880790849211783e-38 1768976227
74.315994 -33.521240 17.883364 1.880790849211783e-38 1768976227
74.730675 -33.708286 17.379856 1.880790849211783e-38 1768976227
78.733604 -35.800011 10.795034 1.880790849211783e-38 1768976227
74.544167 -33.895084 9.802148 1.880790849211783e-38 1768976227
74.143463 -33.712883 9.266627 1.880790849211783e-38 1768976227
75.143013 -34.167381 8.817847 1.880790849211783e-38 1768976227
71.098106 -32.328167 11.711891 1.880790849211783e-38 1768976227
74.479088 -33.865494 11.733646 1.880790849211783e-38 1768976227
78.313652 -35.609062 8.803029 1.880790849211783e-38 1768976227
81.602234 -37.104374 8.586317 1.880790849211783e-38 1768976227
75.882126 -34.503456 11.494616 1.880790849211783e-38 1768976227
73.356628 -33.355114 10.650821 1.880790849211783e-38 1768976227
81.660133 -37.130699 4.778275 1.880790849211783e-38 1768976227
82.104851 -37.332912 4.361809 1.880790849211783e-38 1768976227
92.792664 -42.192635 8.555242 1.880790849211783e-38 1768976227
81.530861 -37.071922 3.727148 1.880790849211783e-38 1768976227
82.108200 -37.334438 3.329472 1.880790849211783e-38 1768976227
82.284752 -37.414711 7.013640 1.880790849211783e-38 1768976227
81.854263 -37.218975 2.712609 1.880790849211783e-38 1768976227
81.405701 -37.015011 2.259023 1.880790849211783e-38 1768976227
82.652809 -37.582069 6.005647 1.880790849211783e-38 1768976227
81.696503 -37.147236 5.367455 1.880790849211783e-38 1768976227
82.146324 -37.351772 1.560169 1.880790849211783e-38 1768976227
82.597031 -37.556705 1.105040 1.880790849211783e-38 1768976227
74.967758 -34.087692 16.532932 1.880790849211783e-38 1768976227
75.015457 -34.109379 15.684352 1.880790849211783e-38 1768976227
73.169296 -33.269932 14.657564 1.880790849211783e-38 1768976227
74.100883 -33.693527 14.112037 1.880790849211783e-38 1768976227
75.479233 -34.320259 13.696567 1.880790849211783e-38 1768976227
71.280182 -32.410957 12.246329 1.880790849211783e-38 1768976227
73.688461 -33.505997 17.756590 1.880790849211783e-38 1768976227
74.785980 -34.005039 17.416491 1.880790849211783e-38 1768976227
73.086639 -33.498718 10.034595 1.880790849211783e-38 1768976227
74.491394 -34.142574 9.808704 1.880790849211783e-38 1768976227
73.976250 -33.906464 9.258468 1.880790849211783e-38 1768976227
75.672585 -34.683964 8.892226 1.880790849211783e-38 1768976227
71.249420 -32.656643 11.752987 1.880790849211783e-38 1768976227
74.486526 -34.140347 11.750986 1.880790849211783e-38 1768976227
76.950493 -35.269688 8.661718 1.880790849211783e-38 1768976227
82.124168 -37.641003 8.653141 1.880790849211783e-38 1768976227
74.211861 -34.014458 11.257092 1.880790849211783e-38 1768976227
73.739220 -33.797825 10.721121 1.880790849211783e-38 1768976227
82.319901 -37.730713 4.823518 1.880790849211783e-38 1768976227
81.708115 -37.450310 4.346714 1.880790849211783e-38 1768976227
81.574120 -37.388893 3.734264 1.880790849211783e-38 1768976227
81.713371 -37.452717 3.318027 1.880790849211783e-38 1768976227
82.402855 -37.768738 7.033384 1.880790849211783e-38 1768976227
81.081490 -37.163101 2.690702 1.880790849211783e-38 1768976227
81.454277 -37.333961 2.263486 1.880790849211783e-38 1768976227
81.380203 -37.300014 5.354041 1.880790849211783e-38 1768976227
81.778244 -37.482452 1.555318 1.880790849211783e-38 1768976227
81.820091 -37.501633 1.096154 1.880790849211783e-38 1768976227
74.767418 -34.269089 16.511469 1.880790849211783e-38 1768976227
74.212204 -34.014610 15.537785 1.880790849211783e-38 1768976227
72.768799 -33.353039 14.597421 1.880790849211783e-38 1768976227
73.049065 -33.481499 13.930893 1.880790849211783e-38 1768976227
74.743515 -34.258137 13.581748 1.880790849211783e-38 1768976227
71.284805 -32.672863 12.263998 1.880790849211783e-38 1768976227
74.522011 -34.156612 17.378927 1.880790849211783e-38 1768976227
79.119270 -36.552883 10.877946 1.880790849211783e-38 1768976227
81.610710 -37.703922 10.761069 1.880790849211783e-38 1768976227
73.420631 -33.920124 9.201692 1.880790849211783e-38 1768976227
75.893394 -35.062538 8.930558 1.880790849211783e-38 1768976227
70.936111 -32.772289 11.717557 1.880790849211783e-38 1768976227
70.093605 -32.383049 11.073316 1.880790849211783e-38 1768976227
74.686531 -34.504971 8.418557 1.880790849211783e-38 1768976227
81.866875 -37.822273 8.638011 1.880790849211783e-38 1768976227
73.806778 -34.098522 11.211194 1.880790849211783e-38 1768976227
74.966805 -34.634457 10.914739 1.880790849211783e-38 1768976227
82.031624 -37.898384 4.813303 1.880790849211783e-38 1768976227
81.500092 -37.652817 4.341668 1.880790849211783e-38 1768976227
82.225662 -37.988029 3.769318 1.880790849211783e-38 1768976227
81.551437 -37.676540 3.316051 1.880790849211783e-38 1768976227
81.377502 -37.596180 2.704276 1.880790849211783e-38 1768976227
81.544624 -37.673393 2.269144 1.880790849211783e-38 1768976227
82.857445 -38.279907 5.458800 1.880790849211783e-38 1768976227
81.807121 -37.794666 1.558028 1.880790849211783e-38 1768976227
74.655334 -34.490555 16.509615 1.880790849211783e-38 1768976227
73.481598 -33.948292 15.406184 1.880790849211783e-38 1768976227
72.626091 -33.553055 14.589026 1.880790849211783e-38 1768976227
72.771713 -33.620327 13.897273 1.880790849211783e-38 1768976227
74.403351 -34.374142 13.538713 1.880790849211783e-38 1768976227
71.986626 -33.257622 12.401941 1.880790849211783e-38 1768976227
74.301163 -34.326935 17.351490 1.880790849211783e-38 1768976227
73.488831 -34.220940 10.117971 1.880790849211783e-38 1768976227
81.502647 -37.952671 10.761864 1.880790849211783e-38 1768976227
74.187820 -34.546436 9.310858 1.880790849211783e-38 1768976227
76.471977 -35.610073 9.011238 1.880790849211783e-38 1768976227
71.445793 -33.269577 11.818269 1.880790849211783e-38 1768976227
70.310089 -32.740723 11.123065 1.880790849211783e-38 1768976227
75.204033 -35.019646 8.488755 1.880790849211783e-38 1768976227
73.586372 -34.266365 11.193361 1.880790849211783e-38 1768976227
74.431122 -34.659729 10.851916 1.880790849211783e-38 1768976227
82.591881 -38.459885 4.852961 1.880790849211783e-38 1768976227
81.593445 -37.994949 4.352726 1.880790849211783e-38 1768976227
81.546539 -37.973106 3.743418 1.880790849211783e-38 1768976227
81.803360 -38.092697 3.330950 1.880790849211783e-38 1768976227
81.372711 -37.892159 2.707902 1.880790849211783e-38 1768976227
80.994316 -37.715954 2.256985 1.880790849211783e-38 1768976227
81.801781 -38.091965 1.560107 1.880790849211783e-38 1768976227
74.210693 -34.557087 16.434258 1.880790849211783e-38 1768976227
75.267509 -35.049202 15.802709 1.880790849211783e-38 1768976227
73.997238 -34.457687 14.885267 1.880790849211783e-38 1768976227
72.019188 -33.536583 13.772815 1.880790849211783e-38 1768976227
74.213341 -34.558319 13.523043 1.880790849211783e-38 1768976227
71.811333 -33.439789 12.389058 1.880790849211783e-38 1768976227
73.682281 -34.311024 17.231049 1.880790849211783e-38 1768976227
73.353127 -34.427330 10.113537 1.880790849211783e-38 1768976227
80.494583 -37.779083 10.643752 1.880790849211783e-38 1768976227
74.312439 -34.877571 9.339656 1.880790849211783e-38 1768976227
77.395279 -36.324463 9.132906 1.880790849211783e-38 1768976227
70.691414 -33.178093 11.709983 1.880790849211783e-38 1768976227
70.922958 -33.286762 11.235851 1.880790849211783e-38 1768976227
80.172195 -37.627773 9.062311 1.880790849211783e-38 1768976227
69.983009 -32.845612 10.660267 1.880790849211783e-38 1768976227
74.808105 -35.110207 10.922269 1.880790849211783e-38 1768976227
82.724213 -38.825531 4.867594 1.880790849211783e-38 1768976227
81.813759 -38.398216 4.370637 1.880790849211783e-38 1768976227
81.560486 -38.279350 3.749341 1.880790849211783e-38 1768976227
81.461945 -38.233101 3.321728 1.880790849211783e-38 1768976227
81.146820 -38.085201 2.704195 1.880790849211783e-38 1768976227
81.350990 -38.181026 2.270123 1.880790849211783e-38 1768976227
83.993538 -39.421268 1.604168 1.880790849211783e-38 1768976227
74.386696 -34.912426 16.496477 1.880790849211783e-38 1768976227
75.647301 -35.504070 15.904858 1.880790849211783e-38 1768976227
74.509354 -34.969994 15.009432 1.880790849211783e-38 1768976227
72.030838 -33.806736 13.794480 1.880790849211783e-38 1768976227
75.789795 -35.570950 13.829786 1.880790849211783e-38 1768976227
73.215523 -34.362751 12.649136 1.880790849211783e-38 1768976227
73.646339 -34.564949 17.246944 1.880790849211783e-38 1768976227
73.472168 -34.753990 10.144356 1.880790849211783e-38 1768976227
78.701706 -37.227684 10.421481 1.880790849211783e-38 1768976227
74.443413 -35.213413 9.369423 1.880790849211783e-38 1768976227
77.286423 -36.558220 9.133030 1.880790849211783e-38 1768976227
71.210373 -33.684113 11.812722 1.880790849211783e-38 1768976227
71.143982 -33.652702 11.286895 1.880790849211783e-38 1768976227
80.134438 -37.905392 9.070924 1.880790849211783e-38 1768976227
70.716415 -33.450459 10.787304 1.880790849211783e-38 1768976227
73.886803 -34.950123 10.803096 1.880790849211783e-38 1768976227
82.539688 -39.043129 4.863643 1.880790849211783e-38 1768976227
82.120972 -38.845066 4.393288 1.880790849211783e-38 1768976227
81.722260 -38.656471 3.762121 1.880790849211783e-38 1768976227
81.967667 -38.772552 3.347103 1.880790849211783e-38 1768976227
81.380371 -38.494747 2.715835 1.880790849211783e-38 1768976227
83.228508 -39.368961 1.121304 1.880790849211783e-38 1768976227
73.861298 -34.938057 16.403254 1.880790849211783e-38 1768976227
75.097580 -35.522846 15.811732 1.880790849211783e-38 1768976227
74.091644 -35.047016 14.946513 1.880790849211783e-38 1768976227
71.569984 -33.854214 13.725713 1.880790849211783e-38 1768976227
74.590546 -35.283009 13.630310 1.880790849211783e-38 1768976227
71.475067 -33.809315 12.366005 1.880790849211783e-38 1768976227
73.576271 -35.075180 10.173288 1.880790849211783e-38 1768976227
72.917488 -34.761124 9.669387 1.880790849211783e-38 1768976227
75.072319 -35.788376 9.462118 1.880790849211783e-38 1768976227
77.139854 -36.774006 9.128775 1.880790849211783e-38 1768976227
70.572899 -33.643417 11.723753 1.880790849211783e-38 1768976227
71.472046 -34.072060 11.355195 1.880790849211783e-38 1768976227
80.062836 -38.167446 9.075809 1.880790849211783e-38 1768976227
