# .PCD v0.7 - Point Cloud Data file format
VERSION 0.7
FIELDS x y z rgb label
SIZE 4 4 4 4 4
TYPE F F F F U
COUNT 1 1 1 1 1
WIDTH 755
HEIGHT 1
VIEWPOINT 0 0 0 1 0 0 0
POINTS 755
DATA ascii
-2.046030 -37.652241 5.407805 1.880790849211783e-38 1768976227
-2.078063 -38.241722 3.918896 1.880790849211783e-38 1768976227
-2.084419 -38.358688 3.679597 1.880790849211783e-38 1768976227
-2.048123 -37.690754 5.205008 1.880790849211783e-38 1768976227
-2.087383 -38.413235 5.084593 1.880790849211783e-38 1768976227
-2.448453 -45.057865 2.403607 1.880790849211783e-38 1768976227
-2.466479 -45.389576 2.198294 1.880790849211783e-38 1768976227
-2.081208 -38.299606 3.391668 1.880790849211783e-38 1768976227
-2.073103 -38.150448 3.206639 1.880790849211783e-38 1768976227
-2.791405 -51.369072 2.140859 1.880790849211783e-38 1768976227
-2.756356 -50.724064 1.875144 1.880790849211783e-38 1768976227
-2.072173 -38.133339 2.963198 1.880790849211783e-38 1768976227
-2.408186 -44.316849 3.162450 1.880790849211783e-38 1768976227
-2.749808 -50.603573 1.528829 1.880790849211783e-38 1768976227
-2.770885 -50.991432 1.290016 1.880790849211783e-38 1768976227
-2.418154 -44.500282 2.947791 1.880790849211783e-38 1768976227
-2.425153 -44.629074 2.673096 1.880790849211783e-38 1768976227
-2.796389 -51.460773 -0.920972 1.880790849211783e-38 1768976227
-2.791038 -51.362316 -1.203109 1.880790849211783e-38 1768976227
-2.787664 -51.300217 0.888249 1.880790849211783e-38 1768976227
-2.764546 -50.874790 0.620510 1.880790849211783e-38 1768976227
-2.792264 -51.384865 -1.519217 1.880790849211783e-38 1768976227
-2.782940 -51.213295 -1.765766 1.880790849211783e-38 1768976227
-2.785794 -51.265816 0.310430 1.880790849211783e-38 1768976227
-2.810341 -51.717537 0.037890 1.880790849211783e-38 1768976227
-1.474726 -27.138763 11.323173 1.880790849211783e-38 1768976227
-1.479642 -27.229240 11.137951 1.880790849211783e-38 1768976227
-2.291192 -42.163845 8.477098 1.880790849211783e-38 1768976227
-2.021958 -37.209248 7.092484 1.880790849211783e-38 1768976227
-1.480321 -27.241722 10.880944 1.880790849211783e-38 1768976227
-1.499104 -27.587391 10.714042 1.880790849211783e-38 1768976227
-1.959302 -36.056217 16.756290 1.880790849211783e-38 1768976227
-1.490384 -27.426916 12.381062 1.880790849211783e-38 1768976227
-1.502929 -27.657780 10.446955 1.880790849211783e-38 1768976227
-1.516345 -27.904663 10.180315 1.880790849211783e-38 1768976227
-1.497315 -27.554468 12.139677 1.880790849211783e-38 1768976227
-1.446207 -26.613941 11.349374 1.880790849211783e-38 1768976227
-1.659392 -30.537092 9.008945 1.880790849211783e-38 1768976227
-1.919640 -35.326324 10.154267 1.880790849211783e-38 1768976227
-1.489335 -27.407618 9.679165 1.880790849211783e-38 1768976227
-1.500089 -27.605513 9.573861 1.880790849211783e-38 1768976227
-2.003835 -36.875736 10.237275 1.880790849211783e-38 1768976227
-2.022618 -37.221390 9.997960 1.880790849211783e-38 1768976227
-1.491807 -27.453110 9.279344 1.880790849211783e-38 1768976227
-1.472146 -27.091293 8.896381 1.880790849211783e-38 1768976227
-2.060042 -37.910088 9.794909 1.880790849211783e-38 1768976227
-2.071585 -38.122524 9.397146 1.880790849211783e-38 1768976227
-1.659314 -30.535656 9.696148 1.880790849211783e-38 1768976227
-1.665799 -30.655005 9.382611 1.880790849211783e-38 1768976227
-2.082274 -38.319225 6.998118 1.880790849211783e-38 1768976227
-2.055521 -37.826889 6.567476 1.880790849211783e-38 1768976227
-2.247553 -41.360775 9.738137 1.880790849211783e-38 1768976227
-2.265376 -41.688759 9.559327 1.880790849211783e-38 1768976227
-2.015070 -37.082504 6.134580 1.880790849211783e-38 1768976227
-2.024954 -37.264381 5.836637 1.880790849211783e-38 1768976227
-2.287229 -42.090927 9.246560 1.880790849211783e-38 1768976227
-2.237127 -41.168907 8.740602 1.880790849211783e-38 1768976227
-2.215371 -38.618618 4.827980 1.880790849211783e-38 1768976227
-2.207623 -38.483543 4.614105 1.880790849211783e-38 1768976227
-2.919252 -50.888756 -0.296135 1.880790849211783e-38 1768976227
-2.942939 -51.301670 -0.592653 1.880790849211783e-38 1768976227
-2.186913 -38.122536 4.344456 1.880790849211783e-38 1768976227
-2.225682 -38.798359 4.151377 1.880790849211783e-38 1768976227
-2.180624 -38.012894 5.709587 1.880790849211783e-38 1768976227
-2.187391 -38.130863 5.477470 1.880790849211783e-38 1768976227
-2.205967 -38.454689 3.941384 1.880790849211783e-38 1768976227
-2.185889 -38.104679 3.655847 1.880790849211783e-38 1768976227
-2.142214 -37.343327 5.157897 1.880790849211783e-38 1768976227
-2.192384 -38.217918 5.059592 1.880790849211783e-38 1768976227
-2.568899 -44.781353 2.389259 1.880790849211783e-38 1768976227
-2.606179 -45.431221 2.200681 1.880790849211783e-38 1768976227
-2.211782 -38.556046 3.414952 1.880790849211783e-38 1768976227
-2.198123 -38.317955 3.221261 1.880790849211783e-38 1768976227
-2.924107 -50.973385 2.124727 1.880790849211783e-38 1768976227
-2.918146 -50.869484 1.880837 1.880790849211783e-38 1768976227
-2.169418 -37.817554 2.939155 1.880790849211783e-38 1768976227
-2.537560 -44.235065 3.157146 1.880790849211783e-38 1768976227
-2.922533 -50.945942 1.539432 1.880790849211783e-38 1768976227
-2.906942 -50.674171 1.282206 1.880790849211783e-38 1768976227
-2.593004 -45.201565 2.994750 1.880790849211783e-38 1768976227
-2.559845 -44.623535 2.673214 1.880790849211783e-38 1768976227
-2.915560 -50.824390 -0.909737 1.880790849211783e-38 1768976227
-2.916932 -50.848316 -1.191269 1.880790849211783e-38 1768976227
-2.942519 -51.294346 0.888297 1.880790849211783e-38 1768976227
-2.939352 -51.239143 0.625059 1.880790849211783e-38 1768976227
-2.936244 -51.184956 -1.513562 1.880790849211783e-38 1768976227
-2.976251 -51.882362 -1.789137 1.880790849211783e-38 1768976227
-2.925772 -51.002411 0.308887 1.880790849211783e-38 1768976227
-2.921866 -50.934315 0.037323 1.880790849211783e-38 1768976227
-1.527609 -26.629473 11.112552 1.880790849211783e-38 1768976227
-1.530080 -26.672548 10.912078 1.880790849211783e-38 1768976227
-2.435020 -42.447567 8.535578 1.880790849211783e-38 1768976227
-2.144879 -37.389793 7.128098 1.880790849211783e-38 1768976227
-1.604025 -27.961561 11.170345 1.880790849211783e-38 1768976227
-1.592139 -27.754362 10.780704 1.880790849211783e-38 1768976227
-2.063799 -35.976398 16.722013 1.880790849211783e-38 1768976227
-1.573573 -27.430721 12.384867 1.880790849211783e-38 1768976227
-1.585696 -27.642046 10.442770 1.880790849211783e-38 1768976227
-1.603452 -27.951563 10.199143 1.880790849211783e-38 1768976227
-1.574716 -27.450649 12.095974 1.880790849211783e-38 1768976227
-1.526221 -26.605261 11.347584 1.880790849211783e-38 1768976227
-1.771371 -30.878761 9.111277 1.880790849211783e-38 1768976227
-2.039309 -35.549484 10.220135 1.880790849211783e-38 1768976227
-1.618916 -28.221134 9.968143 1.880790849211783e-38 1768976227
-1.593625 -27.780268 9.636091 1.880790849211783e-38 1768976227
-2.117890 -36.919319 10.251101 1.880790849211783e-38 1768976227
-2.137647 -37.263721 10.011018 1.880790849211783e-38 1768976227
-1.574612 -27.448830 9.279460 1.880790849211783e-38 1768976227
-1.582617 -27.588369 9.061140 1.880790849211783e-38 1768976227
-2.154335 -37.554626 9.704701 1.880790849211783e-38 1768976227
-2.157572 -37.611050 9.272631 1.880790849211783e-38 1768976227
-1.784581 -31.109037 9.879881 1.880790849211783e-38 1768976227
-1.763649 -30.744150 9.411482 1.880790849211783e-38 1768976227
-2.152974 -37.530903 6.855303 1.880790849211783e-38 1768976227
-2.100933 -36.623718 6.359654 1.880790849211783e-38 1768976227
-2.338963 -40.773083 9.601385 1.880790849211783e-38 1768976227
-2.386353 -41.599201 9.540398 1.880790849211783e-38 1768976227
-1.990468 -34.698078 5.741090 1.880790849211783e-38 1768976227
-2.081247 -36.280552 5.683499 1.880790849211783e-38 1768976227
-2.371003 -41.331612 9.081283 1.880790849211783e-38 1768976227
-2.377984 -41.453304 8.802466 1.880790849211783e-38 1768976227
-2.299456 -38.075615 4.760941 1.880790849211783e-38 1768976227
-2.287563 -37.878696 4.542391 1.880790849211783e-38 1768976227
-3.074515 -50.909458 -0.296308 1.880790849211783e-38 1768976227
-3.082823 -51.047028 -0.589816 1.880790849211783e-38 1768976227
-2.333887 -38.645744 4.404864 1.880790849211783e-38 1768976227
-2.295020 -38.002159 4.066906 1.880790849211783e-38 1768976227
-2.302034 -38.118305 5.726437 1.880790849211783e-38 1768976227
-2.291043 -37.936314 5.450491 1.880790849211783e-38 1768976227
-2.304702 -38.162487 3.912130 1.880790849211783e-38 1768976227
-2.302323 -38.123089 3.658262 1.880790849211783e-38 1768976227
-2.323908 -38.480503 5.315910 1.880790849211783e-38 1768976227
-2.317527 -38.374859 5.081271 1.880790849211783e-38 1768976227
-2.690687 -44.553844 2.377543 1.880790849211783e-38 1768976227
-2.722390 -45.078785 2.183997 1.880790849211783e-38 1768976227
-2.294919 -38.000492 3.366344 1.880790849211783e-38 1768976227
-2.294137 -37.987545 3.194051 1.880790849211783e-38 1768976227
-3.118974 -51.645641 2.153131 1.880790849211783e-38 1768976227
-3.090348 -51.171635 1.892345 1.880790849211783e-38 1768976227
-2.689100 -44.527561 3.461266 1.880790849211783e-38 1768976227
-2.698774 -44.687737 3.190020 1.880790849211783e-38 1768976227
-3.088881 -51.147339 1.545792 1.880790849211783e-38 1768976227
-3.117284 -51.617649 1.306310 1.880790849211783e-38 1768976227
-2.695652 -44.636047 2.957808 1.880790849211783e-38 1768976227
-2.710296 -44.878532 2.688967 1.880790849211783e-38 1768976227
-3.097159 -51.284412 -0.918134 1.880790849211783e-38 1768976227
-3.087488 -51.124275 -1.197947 1.880790849211783e-38 1768976227
-3.055383 -50.592659 0.876301 1.880790849211783e-38 1768976227
-3.082878 -51.047939 0.622837 1.880790849211783e-38 1768976227
-3.083218 -51.053577 -1.509945 1.880790849211783e-38 1768976227
-3.099484 -51.322918 -1.770159 1.880790849211783e-38 1768976227
-3.080539 -51.009216 0.308983 1.880790849211783e-38 1768976227
-3.091620 -51.192703 0.037519 1.880790849211783e-38 1768976227
-1.661831 -27.517483 11.485161 1.880790849211783e-38 1768976227
-1.633921 -27.055332 11.070645 1.880790849211783e-38 1768976227
-2.542647 -42.102509 8.467695 1.880790849211783e-38 1768976227
-2.279503 -37.745235 7.197137 1.880790849211783e-38 1768976227
-1.653117 -27.373194 10.937240 1.880790849211783e-38 1768976227
-1.688987 -27.967154 10.865288 1.880790849211783e-38 1768976227
-1.684343 -27.890245 12.965830 1.880790849211783e-38 1768976227
-1.674799 -27.732218 12.523214 1.880790849211783e-38 1768976227
-1.671642 -27.679943 10.458944 1.880790849211783e-38 1768976227
-1.677023 -27.769043 10.134344 1.880790849211783e-38 1768976227
-1.635101 -27.074873 11.932510 1.880790849211783e-38 1768976227
-1.665489 -27.578056 11.764585 1.880790849211783e-38 1768976227
-1.824457 -30.210333 8.915629 1.880790849211783e-38 1768976227
-2.109909 -34.937008 10.045836 1.880790849211783e-38 1768976227
-1.699883 -28.147579 9.943927 1.880790849211783e-38 1768976227
-1.643661 -27.216621 9.442257 1.880790849211783e-38 1768976227
-2.252685 -37.301159 10.358963 1.880790849211783e-38 1768976227
-2.245088 -37.175362 9.989053 1.880790849211783e-38 1768976227
-1.694613 -28.060305 9.487862 1.880790849211783e-38 1768976227
-1.634240 -27.060625 8.889385 1.880790849211783e-38 1768976227
-2.257226 -37.376347 9.660346 1.880790849211783e-38 1768976227
-2.420298 -40.076588 9.882238 1.880790849211783e-38 1768976227
-1.881729 -31.158674 9.897403 1.880790849211783e-38 1768976227
-1.857697 -30.760735 9.418231 1.880790849211783e-38 1768976227
-2.298903 -38.066460 6.954361 1.880790849211783e-38 1768976227
-2.249643 -37.250797 6.469694 1.880790849211783e-38 1768976227
-2.433856 -40.301079 9.491921 1.880790849211783e-38 1768976227
-2.498232 -41.367069 9.488845 1.880790849211783e-38 1768976227
-2.070507 -34.284565 5.673679 1.880790849211783e-38 1768976227
-2.174241 -36.002239 5.640902 1.880790849211783e-38 1768976227
-2.489182 -41.217216 9.057755 1.880790849211783e-38 1768976227
-2.488418 -41.204548 8.751198 1.880790849211783e-38 1768976227
-2.399322 -37.832638 4.731442 1.880790849211783e-38 1768976227
-2.399076 -37.828758 4.537249 1.880790849211783e-38 1768976227
-3.227559 -50.892323 -0.296264 1.880790849211783e-38 1768976227
-3.221937 -50.803673 -0.587114 1.880790849211783e-38 1768976227
-2.421648 -38.184673 4.353123 1.880790849211783e-38 1768976227
-2.449975 -38.631332 4.135011 1.880790849211783e-38 1768976227
-2.398199 -37.814919 5.681921 1.880790849211783e-38 1768976227
-2.412402 -38.038887 5.466248 1.880790849211783e-38 1768976227
-2.383858 -37.588806 3.854040 1.880790849211783e-38 1768976227
-2.380242 -37.531773 3.602193 1.880790849211783e-38 1768976227
-2.429466 -38.307941 5.293059 1.880790849211783e-38 1768976227
-2.384906 -37.605324 4.980305 1.880790849211783e-38 1768976227
-2.863630 -45.153862 2.410012 1.880790849211783e-38 1768976227
-2.826001 -44.560535 2.159292 1.880790849211783e-38 1768976227
-2.435081 -38.396484 3.402059 1.880790849211783e-38 1768976227
-2.416536 -38.104065 3.204446 1.880790849211783e-38 1768976227
-3.260163 -51.406414 2.143558 1.880790849211783e-38 1768976227
-3.240109 -51.090214 1.889686 1.880790849211783e-38 1768976227
-2.855924 -45.032352 3.501159 1.880790849211783e-38 1768976227
-2.841336 -44.802338 3.198798 1.880790849211783e-38 1768976227
-3.248219 -51.218094 1.548220 1.880790849211783e-38 1768976227
-3.237872 -51.054939 1.292311 1.880790849211783e-38 1768976227
-2.837889 -44.747974 2.965778 1.880790849211783e-38 1768976227
-2.884427 -45.481800 2.725622 1.880790849211783e-38 1768976227
-3.239751 -51.084564 -0.914727 1.880790849211783e-38 1768976227
-3.232324 -50.967461 -1.194496 1.880790849211783e-38 1768976227
-3.195360 -50.384609 0.872861 1.880790849211783e-38 1768976227
-3.261068 -51.420692 0.627502 1.880790849211783e-38 1768976227
-3.210644 -50.625603 -1.497567 1.880790849211783e-38 1768976227
-3.249176 -51.233173 -1.767393 1.880790849211783e-38 1768976227
-3.249882 -51.244305 0.310465 1.880790849211783e-38 1768976227
-3.201029 -50.473991 0.036999 1.880790849211783e-38 1768976227
-1.757113 -27.706247 11.566105 1.880790849211783e-38 1768976227
-1.706730 -26.911800 11.013970 1.880790849211783e-38 1768976227
-2.677227 -42.214653 8.491836 1.880790849211783e-38 1768976227
-2.395874 -37.778267 7.204781 1.880790849211783e-38 1768976227
-1.760255 -27.755789 11.092181 1.880790849211783e-38 1768976227
-1.782251 -28.102629 10.919958 1.880790849211783e-38 1768976227
-1.757325 -27.709602 12.884255 1.880790849211783e-38 1768976227
-1.735757 -27.369507 12.361731 1.880790849211783e-38 1768976227
-1.760501 -27.759666 10.491026 1.880790849211783e-38 1768976227
-1.743283 -27.488173 10.033712 1.880790849211783e-38 1768976227
-1.717544 -27.082329 11.938025 1.880790849211783e-38 1768976227
-1.725823 -27.212868 11.610967 1.880790849211783e-38 1768976227
-1.929411 -30.423061 8.980085 1.880790849211783e-38 1768976227
-2.233481 -35.217644 10.128422 1.880790849211783e-38 1768976227
-1.749530 -27.586685 9.747595 1.880790849211783e-38 1768976227
-1.738170 -27.407551 9.510272 1.880790849211783e-38 1768976227
-2.369690 -37.365395 10.378739 1.880790849211783e-38 1768976227
-2.356706 -37.160675 9.986970 1.880790849211783e-38 1768976227
-1.757782 -27.716791 9.373462 1.880790849211783e-38 1768976227
-1.944302 -30.657852 10.072952 1.880790849211783e-38 1768976227
-2.383148 -37.577606 9.714177 1.880790849211783e-38 1768976227
-2.530134 -39.895287 9.839370 1.880790849211783e-38 1768976227
-1.957616 -30.867798 9.806837 1.880790849211783e-38 1768976227
-1.910549 -30.125629 9.225499 1.880790849211783e-38 1768976227
-2.438003 -38.442558 7.024383 1.880790849211783e-38 1768976227
-2.373878 -37.431435 6.502281 1.880790849211783e-38 1768976227
-2.594624 -40.912159 9.637646 1.880790849211783e-38 1768976227
-2.617005 -41.265076 9.467218 1.880790849211783e-38 1768976227
-2.176065 -34.312309 5.679330 1.880790849211783e-38 1768976227
-2.403146 -37.892925 5.938247 1.880790849211783e-38 1768976227
-2.602346 -41.033924 9.019160 1.880790849211783e-38 1768976227
-2.620830 -41.325382 8.778500 1.880790849211783e-38 1768976227
-2.533461 -38.126926 4.769180 1.880790849211783e-38 1768976227
-2.522568 -37.962975 4.554240 1.880790849211783e-38 1768976227
-3.377534 -50.829666 -0.295957 1.880790849211783e-38 1768976227
-3.391690 -51.042702 -0.589992 1.880790849211783e-38 1768976227
-2.539733 -38.221317 4.358154 1.880790849211783e-38 1768976227
-2.523494 -37.976925 4.065761 1.880790849211783e-38 1768976227
-2.503478 -37.675694 5.662109 1.880790849211783e-38 1768976227
-2.483849 -37.380302 5.372661 1.880790849211783e-38 1768976227
-2.516918 -37.877960 3.884448 1.880790849211783e-38 1768976227
-2.515336 -37.854156 3.633846 1.880790849211783e-38 1768976227
-2.518903 -37.907841 5.238802 1.880790849211783e-38 1768976227
-2.546956 -38.330013 5.077275 1.880790849211783e-38 1768976227
-2.943370 -44.295776 2.364676 1.880790849211783e-38 1768976227
-3.385751 -50.953316 2.469554 1.880790849211783e-38 1768976227
-2.516595 -37.873108 3.356343 1.880790849211783e-38 1768976227
-2.551077 -38.392029 3.229296 1.880790849211783e-38 1768976227
-3.366573 -50.664700 2.113043 1.880790849211783e-38 1768976227
-3.417790 -51.435490 1.902830 1.880790849211783e-38 1768976227
-2.920672 -43.954189 3.418004 1.880790849211783e-38 1768976227
-2.927083 -44.050667 3.145746 1.880790849211783e-38 1768976227
-3.372099 -50.747879 1.534307 1.880790849211783e-38 1768976227
-3.380379 -50.872486 1.287945 1.880790849211783e-38 1768976227
-2.987215 -44.955620 2.980124 1.880790849211783e-38 1768976227
-2.963351 -44.596485 2.673091 1.880790849211783e-38 1768976227
-3.450810 -51.932430 -0.930091 1.880790849211783e-38 1768976227
-3.404674 -51.238098 -1.201074 1.880790849211783e-38 1768976227
-3.384880 -50.940216 0.882659 1.880790849211783e-38 1768976227
-3.404268 -51.231995 0.625322 1.880790849211783e-38 1768976227
-3.362016 -50.596127 -1.496988 1.880790849211783e-38 1768976227
-3.370900 -50.729832 -1.750372 1.880790849211783e-38 1768976227
-3.407465 -51.280106 0.310742 1.880790849211783e-38 1768976227
-3.390754 -51.028614 0.037413 1.880790849211783e-38 1768976227
-1.822588 -27.428753 11.452506 1.880790849211783e-38 1768976227
-1.797253 -27.047472 11.071663 1.880790849211783e-38 1768976227
-2.799268 -42.127140 8.475891 1.880790849211783e-38 1768976227
-2.473633 -37.226547 7.100952 1.880790849211783e-38 1768976227
-1.866591 -28.090967 11.228329 1.880790849211783e-38 1768976227
-1.878875 -28.275829 10.989412 1.880790849211783e-38 1768976227
-1.866812 -28.094297 13.065688 1.880790849211783e-38 1768976227
-1.817516 -27.352419 12.356431 1.880790849211783e-38 1768976227
-1.849974 -27.840885 10.523782 1.880790849211783e-38 1768976227
-1.842374 -27.726524 10.122699 1.880790849211783e-38 1768976227
-1.775469 -26.719643 11.780457 1.880790849211783e-38 1768976227
-1.822097 -27.421356 11.702214 1.880790849211783e-38 1768976227
-2.002382 -30.134535 8.896663 1.880790849211783e-38 1768976227
-2.679515 -40.324936 11.599525 1.880790849211783e-38 1768976227
-1.841042 -27.706472 9.791839 1.880790849211783e-38 1768976227
-1.796592 -27.037529 9.383713 1.880790849211783e-38 1768976227
-2.471583 -37.195694 10.333626 1.880790849211783e-38 1768976227
-2.440897 -36.733898 9.874207 1.880790849211783e-38 1768976227
-1.861063 -28.007772 9.473723 1.880790849211783e-38 1768976227
-2.064476 -31.069008 10.210040 1.880790849211783e-38 1768976227
-2.470013 -37.172077 9.611226 1.880790849211783e-38 1768976227
-2.710372 -40.789314 10.061833 1.880790849211783e-38 1768976227
-2.046557 -30.799339 9.787004 1.880790849211783e-38 1768976227
-2.021567 -30.423250 9.318465 1.880790849211783e-38 1768976227
-2.544561 -38.293976 6.998603 1.880790849211783e-38 1768976227
-2.284093 -34.374092 5.972354 1.880790849211783e-38 1768976227
-2.686333 -40.427540 9.525350 1.880790849211783e-38 1768976227
-2.772260 -41.720692 9.573622 1.880790849211783e-38 1768976227
-2.272504 -34.199684 5.661798 1.880790849211783e-38 1768976227
-2.487399 -37.433716 5.867432 1.880790849211783e-38 1768976227
-2.710964 -40.798222 8.969110 1.880790849211783e-38 1768976227
-2.742126 -41.267189 8.767854 1.880790849211783e-38 1768976227
-2.637028 -37.954983 4.748646 1.880790849211783e-38 1768976227
-2.623137 -37.755047 4.530224 1.880790849211783e-38 1768976227
-3.544786 -51.020432 -0.297129 1.880790849211783e-38 1768976227
-3.517954 -50.634235 -0.585391 1.880790849211783e-38 1768976227
-2.625147 -37.783981 4.309170 1.880790849211783e-38 1768976227
-2.637045 -37.955235 4.064271 1.880790849211783e-38 1768976227
-2.602139 -37.452827 5.629770 1.880790849211783e-38 1768976227
-2.662483 -38.321358 5.509048 1.880790849211783e-38 1768976227
-2.618513 -37.688496 3.865810 1.880790849211783e-38 1768976227
-2.617405 -37.672550 3.617154 1.880790849211783e-38 1768976227
-2.631365 -37.873474 5.235126 1.880790849211783e-38 1768976227
-2.655274 -38.217594 5.063422 1.880790849211783e-38 1768976227
-3.140936 -45.207775 2.413857 1.880790849211783e-38 1768976227
-3.557220 -51.199398 2.481989 1.880790849211783e-38 1768976227
-2.630843 -37.865967 3.356398 1.880790849211783e-38 1768976227
-2.619263 -37.699291 3.171677 1.880790849211783e-38 1768976227
-3.542544 -50.988152 2.126969 1.880790849211783e-38 1768976227
-3.527879 -50.777084 1.878857 1.880790849211783e-38 1768976227
-3.104426 -44.682289 3.475335 1.880790849211783e-38 1768976227
-3.097979 -44.589500 3.184878 1.880790849211783e-38 1768976227
-3.529480 -50.800121 1.536201 1.880790849211783e-38 1768976227
-3.530587 -50.816063 1.286780 1.880790849211783e-38 1768976227
-3.100103 -44.620060 2.958486 1.880790849211783e-38 1768976227
-3.139600 -45.188545 2.709134 1.880790849211783e-38 1768976227
-3.562195 -51.271004 -0.918433 1.880790849211783e-38 1768976227
-3.544083 -51.010315 -1.195979 1.880790849211783e-38 1768976227
-3.583299 -51.574757 0.893837 1.880790849211783e-38 1768976227
-3.547768 -51.063354 0.623391 1.880790849211783e-38 1768976227
-3.546217 -51.041019 -1.510461 1.880790849211783e-38 1768976227
-3.535616 -50.888451 -1.756205 1.880790849211783e-38 1768976227
-3.541250 -50.969540 0.308924 1.880790849211783e-38 1768976227
-3.511732 -50.544685 0.037066 1.880790849211783e-38 1768976227
-1.912424 -27.525696 11.495339 1.880790849211783e-38 1768976227
-1.872506 -26.951147 11.034495 1.880790849211783e-38 1768976227
-2.789857 -40.154667 8.080689 1.880790849211783e-38 1768976227
-2.587805 -37.246513 7.106217 1.880790849211783e-38 1768976227
-1.963456 -28.260208 11.298292 1.880790849211783e-38 1768976227
-1.968804 -28.337175 11.015512 1.880790849211783e-38 1768976227
-1.953621 -28.118649 13.079694 1.880790849211783e-38 1768976227
-1.891588 -27.225794 12.301751 1.880790849211783e-38 1768976227
-1.932028 -27.807854 10.513451 1.880790849211783e-38 1768976227
-1.916164 -27.579529 10.071095 1.880790849211783e-38 1768976227
-1.826570 -26.289988 11.593402 1.880790849211783e-38 1768976227
-1.911173 -27.507689 11.741463 1.880790849211783e-38 1768976227
-2.110798 -30.380905 8.971237 1.880790849211783e-38 1768976227
-2.795083 -40.229893 11.574558 1.880790849211783e-38 1768976227
-1.912105 -27.521101 9.728319 1.880790849211783e-38 1768976227
-1.908882 -27.474709 9.537396 1.880790849211783e-38 1768976227
-2.590001 -37.278122 10.358648 1.880790849211783e-38 1768976227
-2.570321 -36.994865 9.946395 1.880790849211783e-38 1768976227
-1.920955 -27.648478 9.354107 1.880790849211783e-38 1768976227
-2.125681 -30.595121 10.056371 1.880790849211783e-38 1768976227
-2.576976 -37.090652 9.592139 1.880790849211783e-38 1768976227
-2.146172 -30.890049 9.817842 1.880790849211783e-38 1768976227
-2.142970 -30.843967 9.449265 1.880790849211783e-38 1768976227
-2.645658 -38.079205 6.960779 1.880790849211783e-38 1768976227
-2.363338 -34.015739 5.911303 1.880790849211783e-38 1768976227
-2.820062 -40.589417 9.565450 1.880790849211783e-38 1768976227
-2.841084 -40.891987 9.385384 1.880790849211783e-38 1768976227
-2.366346 -34.059029 5.639668 1.880790849211783e-38 1768976227
-2.624200 -37.770348 5.921410 1.880790849211783e-38 1768976227
-2.850474 -41.027130 9.021282 1.880790849211783e-38 1768976227
-2.875812 -41.391819 8.796137 1.880790849211783e-38 1768976227
-2.807277 -38.716278 4.844931 1.880790849211783e-38 1768976227
-2.718619 -37.493557 4.499811 1.880790849211783e-38 1768976227
-3.679997 -50.752300 -0.295631 1.880790849211783e-38 1768976227
-3.667535 -50.580433 -0.584894 1.880790849211783e-38 1768976227
-2.753117 -37.969334 4.331236 1.880790849211783e-38 1768976227
-2.708977 -37.360577 4.001451 1.880790849211783e-38 1768976227
-2.753550 -37.975304 5.709529 1.880790849211783e-38 1768976227
-2.774403 -38.262886 5.501821 1.880790849211783e-38 1768976227
-2.748740 -37.908970 3.889257 1.880790849211783e-38 1768976227
-2.761951 -38.091160 3.658130 1.880790849211783e-38 1768976227
-2.741513 -37.809296 5.227374 1.880790849211783e-38 1768976227
-2.730991 -37.664177 4.991168 1.880790849211783e-38 1768976227
-3.703852 -51.081287 2.728055 1.880790849211783e-38 1768976227
-3.661764 -50.500832 2.448649 1.880790849211783e-38 1768976227
-2.701234 -37.253788 3.302843 1.880790849211783e-38 1768976227
-2.721835 -37.537910 3.158776 1.880790849211783e-38 1768976227
-3.671520 -50.635387 2.112706 1.880790849211783e-38 1768976227
-3.727763 -51.411060 1.902723 1.880790849211783e-38 1768976227
-3.253588 -44.871529 3.490801 1.880790849211783e-38 1768976227
-3.252765 -44.860168 3.204897 1.880790849211783e-38 1768976227
-3.678372 -50.729885 1.534405 1.880790849211783e-38 1768976227
-3.696581 -50.981018 1.291234 1.880790849211783e-38 1768976227
-3.237561 -44.650486 2.961137 1.880790849211783e-38 1768976227
-3.213978 -44.325253 2.657947 1.880790849211783e-38 1768976227
-3.665477 -50.552052 -0.905748 1.880790849211783e-38 1768976227
-3.699311 -51.018661 -1.196431 1.880790849211783e-38 1768976227
-3.709691 -51.161827 0.886870 1.880790849211783e-38 1768976227
-3.712630 -51.202354 0.625222 1.880790849211783e-38 1768976227
-3.712507 -51.200653 -1.515509 1.880790849211783e-38 1768976227
-3.691919 -50.916714 -1.757557 1.880790849211783e-38 1768976227
-3.703876 -51.081623 0.309669 1.880790849211783e-38 1768976227
-3.676085 -50.698345 0.037186 1.880790849211783e-38 1768976227
-2.007652 -27.688316 11.565730 1.880790849211783e-38 1768976227
-2.071545 -28.569504 11.699595 1.880790849211783e-38 1768976227
-3.039195 -41.914734 8.436690 1.880790849211783e-38 1768976227
-2.778380 -38.317745 7.312161 1.880790849211783e-38 1768976227
-2.038117 -28.108488 11.240042 1.880790849211783e-38 1768976227
-2.063354 -28.456539 11.064281 1.880790849211783e-38 1768976227
-2.011294 -27.738552 12.905650 1.880790849211783e-38 1768976227
-1.953532 -26.941938 12.176100 1.880790849211783e-38 1768976227
-2.037879 -28.105188 10.628140 1.880790849211783e-38 1768976227
-2.039338 -28.125319 10.272598 1.880790849211783e-38 1768976227
-1.889731 -26.062029 11.495337 1.880790849211783e-38 1768976227
-1.972146 -27.198648 11.612037 1.880790849211783e-38 1768976227
-2.800165 -38.618183 11.406082 1.880790849211783e-38 1768976227
-2.931644 -40.431465 11.635044 1.880790849211783e-38 1768976227
-2.010837 -27.732244 9.805055 1.880790849211783e-38 1768976227
-1.995500 -27.520723 9.555416 1.880790849211783e-38 1768976227
-2.650304 -36.551395 10.158885 1.880790849211783e-38 1768976227
-2.711650 -37.397442 10.056784 1.880790849211783e-38 1768976227
-1.989521 -27.438280 9.284981 1.880790849211783e-38 1768976227
-2.161974 -29.816643 9.802589 1.880790849211783e-38 1768976227
-2.743247 -37.833210 9.786269 1.880790849211783e-38 1768976227
-2.228760 -30.737717 9.771517 1.880790849211783e-38 1768976227
-2.238976 -30.878603 9.461901 1.880790849211783e-38 1768976227
-2.812243 -38.784756 7.091269 1.880790849211783e-38 1768976227
-2.475828 -34.145130 5.935060 1.880790849211783e-38 1768976227
-2.934666 -40.473141 9.540092 1.880790849211783e-38 1768976227
-2.983172 -41.142109 9.444813 1.880790849211783e-38 1768976227
-2.507518 -34.582169 5.727518 1.880790849211783e-38 1768976227
-2.745883 -37.869568 5.938236 1.880790849211783e-38 1768976227
-2.985770 -41.177933 9.056380 1.880790849211783e-38 1768976227
-2.973564 -41.009598 8.716778 1.880790849211783e-38 1768976227
-2.876872 -38.083328 4.766788 1.880790849211783e-38 1768976227
-2.859990 -37.859848 4.544786 1.880790849211783e-38 1768976227
-3.838717 -50.815994 -0.296068 1.880790849211783e-38 1768976227
-3.851251 -50.981926 -0.589668 1.880790849211783e-38 1768976227
-2.814204 -37.253746 4.250556 1.880790849211783e-38 1768976227
-2.801050 -37.079613 3.972246 1.880790849211783e-38 1768976227
-2.849340 -37.718872 5.672241 1.880790849211783e-38 1768976227
-2.895448 -38.329235 5.512591 1.880790849211783e-38 1768976227
-2.816112 -37.279003 3.825481 1.880790849211783e-38 1768976227
-2.859487 -37.853195 3.636088 1.880790849211783e-38 1768976227
-2.877030 -38.085415 5.266725 1.880790849211783e-38 1768976227
-2.863572 -37.907269 5.024504 1.880790849211783e-38 1768976227
-3.846720 -50.921944 2.720153 1.880790849211783e-38 1768976227
-3.907009 -51.720039 2.508325 1.880790849211783e-38 1768976227
-2.868437 -37.971676 3.367241 1.880790849211783e-38 1768976227
-2.844672 -37.657078 3.169512 1.880790849211783e-38 1768976227
-3.830755 -50.710598 2.116316 1.880790849211783e-38 1768976227
-3.815094 -50.503292 1.869544 1.880790849211783e-38 1768976227
-3.815996 -50.515228 3.930733 1.880790849211783e-38 1768976227
-3.312164 -43.845631 3.133116 1.880790849211783e-38 1768976227
-3.896970 -51.587135 1.560683 1.880790849211783e-38 1768976227
-3.845857 -50.910522 1.289736 1.880790849211783e-38 1768976227
-3.350760 -44.356541 2.942300 1.880790849211783e-38 1768976227
-3.374021 -44.664474 2.678886 1.880790849211783e-38 1768976227
-3.862699 -51.133476 -0.916370 1.880790849211783e-38 1768976227
-3.821812 -50.592224 -1.186696 1.880790849211783e-38 1768976227
-3.795283 -50.241028 0.871103 1.880790849211783e-38 1768976227
-3.865633 -51.172314 0.624995 1.880790849211783e-38 1768976227
-3.802940 -50.342400 -1.490438 1.880790849211783e-38 1768976227
-3.813113 -50.477058 -1.742770 1.880790849211783e-38 1768976227
-3.829352 -50.692032 0.307376 1.880790849211783e-38 1768976227
-3.859258 -51.087921 0.037481 1.880790849211783e-38 1768976227
-2.074193 -27.457670 11.471947 1.880790849211783e-38 1768976227
-2.132381 -28.227947 11.562305 1.880790849211783e-38 1768976227
-3.165483 -41.903900 8.436393 1.880790849211783e-38 1768976227
-2.769987 -36.668415 6.998983 1.880790849211783e-38 1768976227
-1.912971 -25.323444 10.128616 1.880790849211783e-38 1768976227
-2.148406 -28.440077 11.060349 1.880790849211783e-38 1768976227
-2.103734 -27.848726 12.959803 1.880790849211783e-38 1768976227
-2.061519 -27.289883 12.336102 1.880790849211783e-38 1768976227
-2.088959 -27.653128 10.459527 1.880790849211783e-38 1768976227
-2.095927 -27.745371 10.136088 1.880790849211783e-38 1768976227
-2.084988 -27.600569 12.176668 1.880790849211783e-38 1768976227
-2.052265 -27.167391 11.601282 1.880790849211783e-38 1768976227
-2.938462 -38.898655 11.491486 1.880790849211783e-38 1768976227
-3.020736 -39.987766 11.509929 1.880790849211783e-38 1768976227
-2.092578 -27.701042 9.796210 1.880790849211783e-38 1768976227
-2.146177 -28.410572 9.866580 1.880790849211783e-38 1768976227
-2.798547 -37.046478 10.298785 1.880790849211783e-38 1768976227
-2.784060 -36.854702 9.913046 1.880790849211783e-38 1768976227
-2.107266 -27.895479 9.441802 1.880790849211783e-38 1768976227
-2.380350 -31.510494 10.361777 1.880790849211783e-38 1768976227
-2.822733 -37.366657 9.667745 1.880790849211783e-38 1768976227
-2.316396 -30.663885 9.750223 1.880790849211783e-38 1768976227
-2.334376 -30.901911 9.471157 1.880790849211783e-38 1768976227
-2.530682 -33.500553 6.126492 1.880790849211783e-38 1768976227
-2.641790 -34.971378 6.080034 1.880790849211783e-38 1768976227
-3.045421 -40.314545 9.504829 1.880790849211783e-38 1768976227
-3.127168 -41.396694 9.505378 1.880790849211783e-38 1768976227
-2.626881 -34.774010 5.760577 1.880790849211783e-38 1768976227
-2.797838 -37.037098 5.808996 1.880790849211783e-38 1768976227
-3.084731 -40.834927 8.982947 1.880790849211783e-38 1768976227
-3.188503 -42.208633 8.973641 1.880790849211783e-38 1768976227
-2.933735 -37.336559 4.674403 1.880790849211783e-38 1768976227
-2.946440 -37.498253 4.502425 1.880790849211783e-38 1768976227
-4.030681 -51.296986 -0.298940 1.880790849211783e-38 1768976227
-4.023878 -51.210407 -0.592448 1.880790849211783e-38 1768976227
-2.917332 -37.127800 4.237171 1.880790849211783e-38 1768976227
-2.915703 -37.107071 3.976112 1.880790849211783e-38 1768976227
-2.998394 -38.159458 5.739830 1.880790849211783e-38 1768976227
-2.930655 -37.297359 5.365431 1.880790849211783e-38 1768976227
-2.978275 -37.903400 3.890459 1.880790849211783e-38 1768976227
-2.900994 -36.919880 3.547260 1.880790849211783e-38 1768976227
-2.928388 -37.268501 5.154954 1.880790849211783e-38 1768976227
-2.954393 -37.599461 4.984863 1.880790849211783e-38 1768976227
-4.034640 -51.347363 2.743515 1.880790849211783e-38 1768976227
-3.985384 -50.720501 2.460421 1.880790849211783e-38 1768976227
-2.977420 -37.892521 3.361002 1.880790849211783e-38 1768976227
-2.958844 -37.656105 3.170167 1.880790849211783e-38 1768976227
-4.019868 -51.159374 2.135541 1.880790849211783e-38 1768976227
-4.002963 -50.944229 1.886305 1.880790849211783e-38 1768976227
-4.068977 -51.784367 4.030425 1.880790849211783e-38 1768976227
-4.039992 -51.415482 3.674896 1.880790849211783e-38 1768976227
-4.040906 -51.427113 1.556203 1.880790849211783e-38 1768976227
-4.022052 -51.187160 1.297045 1.880790849211783e-38 1768976227
-3.477779 -44.260403 2.936605 1.880790849211783e-38 1768976227
-4.026278 -51.240959 3.074045 1.880790849211783e-38 1768976227
-4.006967 -50.995178 -0.914104 1.880790849211783e-38 1768976227
-3.958526 -50.378693 -1.181962 1.880790849211783e-38 1768976227
-3.986357 -50.732891 0.879836 1.880790849211783e-38 1768976227
-4.007267 -50.999001 0.623023 1.880790849211783e-38 1768976227
-4.018281 -51.139172 -1.514379 1.880790849211783e-38 1768976227
-3.989772 -50.776356 -1.753510 1.880790849211783e-38 1768976227
-3.961887 -50.421467 0.305807 1.880790849211783e-38 1768976227
-3.980313 -50.655960 0.037172 1.880790849211783e-38 1768976227
-2.129516 -27.101553 11.325791 1.880790849211783e-38 1768976227
-2.255802 -28.708754 11.761980 1.880790849211783e-38 1768976227
-3.115651 -39.651730 7.984826 1.880790849211783e-38 1768976227
-2.947706 -37.514359 7.162114 1.880790849211783e-38 1768976227
-2.012740 -25.615396 10.247771 1.880790849211783e-38 1768976227
-2.253099 -28.674355 11.154052 1.880790849211783e-38 1768976227
-2.226457 -28.335287 13.189297 1.880790849211783e-38 1768976227
-2.110289 -26.856869 12.143185 1.880790849211783e-38 1768976227
-2.226961 -28.341711 10.722467 1.880790849211783e-38 1768976227
-2.223652 -28.299593 10.340962 1.880790849211783e-38 1768976227
-2.155610 -27.433653 12.105843 1.880790849211783e-38 1768976227
-2.215663 -28.197924 12.044149 1.880790849211783e-38 1768976227
-3.054984 -38.879642 11.488539 1.880790849211783e-38 1768976227
-3.108866 -39.565392 11.391001 1.880790849211783e-38 1768976227
-2.171439 -27.635094 9.775159 1.880790849211783e-38 1768976227
-2.189126 -27.860201 9.677694 1.880790849211783e-38 1768976227
-2.880354 -36.657200 10.192935 1.880790849211783e-38 1768976227
-2.906875 -36.994717 9.953019 1.880790849211783e-38 1768976227
-2.187991 -27.845753 9.427161 1.880790849211783e-38 1768976227
-2.402459 -30.575209 10.056560 1.880790849211783e-38 1768976227
-2.965882 -37.745678 9.768077 1.880790849211783e-38 1768976227
-2.374614 -30.220837 9.611579 1.880790849211783e-38 1768976227
-2.374295 -30.216776 9.263323 1.880790849211783e-38 1768976227
-2.694481 -34.291664 6.272626 1.880790849211783e-38 1768976227
-2.706182 -34.440578 5.989142 1.880790849211783e-38 1768976227
-3.193211 -40.638813 9.583508 1.880790849211783e-38 1768976227
-3.218814 -40.964653 9.408360 1.880790849211783e-38 1768976227
-2.725735 -34.689426 5.747900 1.880790849211783e-38 1768976227
-2.929355 -37.280815 5.848580 1.880790849211783e-38 1768976227
-3.200893 -40.736568 8.963393 1.880790849211783e-38 1768976227
-3.276965 -41.704712 8.868567 1.880790849211783e-38 1768976227
-3.113081 -38.145592 4.776844 1.880790849211783e-38 1768976227
-3.102722 -38.018658 4.566014 1.880790849211783e-38 1768976227
-4.131988 -50.630585 -0.295127 1.880790849211783e-38 1768976227
-4.150466 -50.857010 -0.588502 1.880790849211783e-38 1768976227
-3.066205 -37.571198 4.288809 1.880790849211783e-38 1768976227
-3.085610 -37.808983 4.052302 1.880790849211783e-38 1768976227
-3.075378 -37.683609 5.669624 1.880790849211783e-38 1768976227
-3.042455 -37.280193 5.364257 1.880790849211783e-38 1768976227
-3.084439 -37.794628 3.880231 1.880790849211783e-38 1768976227
-3.046560 -37.330482 3.587578 1.880790849211783e-38 1768976227
-3.048917 -37.359371 5.168771 1.880790849211783e-38 1768976227
-3.098214 -37.963425 5.034332 1.880790849211783e-38 1768976227
-4.202283 -51.491932 2.751904 1.880790849211783e-38 1768976227
-4.150883 -50.862114 2.467887 1.880790849211783e-38 1768976227
-3.087494 -37.832066 3.356451 1.880790849211783e-38 1768976227
-3.062328 -37.523701 3.159783 1.880790849211783e-38 1768976227
-4.193086 -51.379246 2.145237 1.880790849211783e-38 1768976227
-4.120958 -50.495434 1.870139 1.880790849211783e-38 1768976227
-4.150521 -50.857677 3.959256 1.880790849211783e-38 1768976227
-4.177444 -51.187576 3.659490 1.880790849211783e-38 1768976227
-4.157833 -50.947273 1.542055 1.880790849211783e-38 1768976227
-4.172586 -51.128048 1.295861 1.880790849211783e-38 1768976227
-4.161407 -50.991058 3.383991 1.880790849211783e-38 1768976227
-4.168035 -51.072277 3.064666 1.880790849211783e-38 1768976227
-4.184346 -51.272148 -0.919291 1.880790849211783e-38 1768976227
-4.157941 -50.948597 -1.195621 1.880790849211783e-38 1768976227
-4.181841 -51.241455 0.888870 1.880790849211783e-38 1768976227
-4.189197 -51.331589 0.627237 1.880790849211783e-38 1768976227
-4.182312 -51.247223 -1.517946 1.880790849211783e-38 1768976227
-4.146466 -50.807995 -1.755027 1.880790849211783e-38 1768976227
-4.144086 -50.778835 0.308049 1.880790849211783e-38 1768976227
-4.130993 -50.618397 0.037154 1.880790849211783e-38 1768976227
-2.215937 -27.152594 11.349864 1.880790849211783e-38 1768976227
-2.346752 -28.755512 11.783982 1.880790849211783e-38 1768976227
-3.292870 -40.348595 8.127119 1.880790849211783e-38 1768976227
-3.104163 -38.036320 7.263519 1.880790849211783e-38 1768976227
-2.114289 -25.907068 10.366961 1.880790849211783e-38 1768976227
-2.301217 -28.197563 10.971234 1.880790849211783e-38 1768976227
-2.243851 -27.494635 12.801088 1.880790849211783e-38 1768976227
-2.184408 -26.766266 12.105143 1.880790849211783e-38 1768976227
-2.318428 -28.408451 10.750314 1.880790849211783e-38 1768976227
-2.234298 -27.377571 10.006462 1.880790849211783e-38 1768976227
-2.227385 -27.292871 12.046629 1.880790849211783e-38 1768976227
-2.248176 -27.547634 11.769234 1.880790849211783e-38 1768976227
-3.213984 -39.381996 11.639790 1.880790849211783e-38 1768976227
-3.212791 -39.367374 11.336729 1.880790849211783e-38 1768976227
-2.244276 -27.499838 9.729666 1.880790849211783e-38 1768976227
-2.264266 -27.744781 9.639929 1.880790849211783e-38 1768976227
-3.031937 -37.151302 10.332822 1.880790849211783e-38 1768976227
-3.064664 -37.552319 10.105476 1.880790849211783e-38 1768976227
-2.234665 -27.382072 9.272422 1.880790849211783e-38 1768976227
-2.515668 -30.825294 10.141264 1.880790849211783e-38 1768976227
-3.083534 -37.783543 9.780238 1.880790849211783e-38 1768976227
-2.525283 -30.943117 9.843674 1.880790849211783e-38 1768976227
-2.482221 -30.415462 9.326485 1.880790849211783e-38 1768976227
-2.785903 -34.136570 6.245765 1.880790849211783e-38 1768976227
-2.807204 -34.397579 5.983110 1.880790849211783e-38 1768976227
-3.328848 -40.789448 9.370383 1.880790849211783e-38 1768976227
-2.860721 -35.053345 5.809603 1.880790849211783e-38 1768976227
-3.051848 -37.395283 5.867955 1.880790849211783e-38 1768976227
-3.265072 -40.007988 8.805207 1.880790849211783e-38 1768976227
-3.351519 -41.067249 8.735120 1.880790849211783e-38 1768976227
-3.198255 -37.783287 4.732661 1.880790849211783e-38 1768976227
-3.190406 -37.690559 4.527744 1.880790849211783e-38 1768976227
-4.345322 -51.334412 -0.299305 1.880790849211783e-38 1768976227
-4.329777 -51.150761 -0.592050 1.880790849211783e-38 1768976227
-3.204851 -37.861206 4.322998 1.880790849211783e-38 1768976227
-3.189132 -37.675510 4.039009 1.880790849211783e-38 1768976227
-3.199387 -37.796658 5.688059 1.880790849211783e-38 1768976227
-3.155508 -37.278275 5.365327 1.880790849211783e-38 1768976227
-3.180024 -37.567909 3.857922 1.880790849211783e-38 1768976227
-3.167358 -37.418278 3.596917 1.880790849211783e-38 1768976227
-3.148242 -37.192444 5.146967 1.880790849211783e-38 1768976227
-3.123957 -36.905552 4.895275 1.880790849211783e-38 1768976227
-4.333879 -51.199238 2.736948 1.880790849211783e-38 1768976227
-4.331254 -51.168221 2.483362 1.880790849211783e-38 1768976227
-3.198309 -37.783924 3.353020 1.880790849211783e-38 1768976227
-3.219312 -38.032051 3.203393 1.880790849211783e-38 1768976227
-4.319077 -51.024368 2.130955 1.880790849211783e-38 1768976227
-4.320299 -51.038807 1.890738 1.880790849211783e-38 1768976227
-4.281914 -50.585327 3.939041 1.880790849211783e-38 1768976227
-4.273716 -50.488480 3.610415 1.880790849211783e-38 1768976227
-4.309731 -50.913956 1.541433 1.880790849211783e-38 1768976227
-4.265744 -50.394306 1.277584 1.880790849211783e-38 1768976227
-4.291689 -50.700809 3.365572 1.880790849211783e-38 1768976227
-4.354983 -51.448547 3.088018 1.880790849211783e-38 1768976227
-4.265847 -50.395523 -0.903800 1.880790849211783e-38 1768976227
-4.349830 -51.387676 -1.206228 1.880790849211783e-38 1768976227
-4.315376 -50.980637 0.884567 1.880790849211783e-38 1768976227
-4.327024 -51.118252 0.624787 1.880790849211783e-38 1768976227
-4.285316 -50.625526 -1.499907 1.880790849211783e-38 1768976227
-4.327598 -51.125031 -1.766421 1.880790849211783e-38 1768976227
-4.336243 -51.227161 0.310846 1.880790849211783e-38 1768976227
-4.319738 -51.032169 0.037467 1.880790849211783e-38 1768976227
-2.313781 -27.334360 11.428706 1.880790849211783e-38 1768976227
-2.207085 -26.073883 10.687733 1.880790849211783e-38 1768976227
-3.161475 -37.348782 7.524775 1.880790849211783e-38 1768976227
-2.841497 -33.568649 6.411969 1.880790849211783e-38 1768976227
-2.265264 -26.761194 10.711433 1.880790849211783e-38 1768976227
-2.415583 -28.537024 11.106097 1.880790849211783e-38 1768976227
-2.357386 -27.849503 12.969560 1.880790849211783e-38 1768976227
-2.367586 -27.969994 12.652705 1.880790849211783e-38 1768976227
-2.332006 -27.549664 10.427945 1.880790849211783e-38 1768976227
-2.327899 -27.501141 10.054148 1.880790849211783e-38 1768976227
-2.309014 -27.278042 12.043102 1.880790849211783e-38 1768976227
-2.351341 -27.778080 11.870664 1.880790849211783e-38 1768976227
-3.349735 -39.572834 11.398753 1.880790849211783e-38 1768976227
-2.338531 -27.626749 9.777019 1.880790849211783e-38 1768976227
-2.376693 -28.077581 9.758006 1.880790849211783e-38 1768976227
-3.140906 -37.105785 10.322749 1.880790849211783e-38 1768976227
-3.134947 -37.035378 9.968865 1.880790849211783e-38 1768976227
-2.600236 -30.718460 10.404836 1.880790849211783e-38 1768976227
-2.602790 -30.748634 10.118580 1.880790849211783e-38 1768976227
-3.135871 -37.046299 9.591808 1.880790849211783e-38 1768976227
-2.601011 -30.727610 9.777568 1.880790849211783e-38 1768976227
-2.596611 -30.675640 9.408623 1.880790849211783e-38 1768976227
-2.935861 -34.683437 6.347413 1.880790849211783e-38 1768976227
-2.883556 -34.065521 5.926837 1.880790849211783e-38 1768976227
-3.366019 -39.765205 9.137380 1.880790849211783e-38 1768976227
-2.978328 -35.185131 5.832907 1.880790849211783e-38 1768976227
-3.202552 -37.834045 5.938293 1.880790849211783e-38 1768976227
-3.473976 -41.040573 9.034731 1.880790849211783e-38 1768976227
-3.494090 -41.278194 8.782189 1.880790849211783e-38 1768976227
-3.338000 -38.067768 4.769533 1.880790849211783e-38 1768976227
-3.305800 -37.700550 4.530121 1.880790849211783e-38 1768976227
-4.469512 -50.971931 -0.297269 1.880790849211783e-38 1768976227
-4.441162 -50.648624 -0.586390 1.880790849211783e-38 1768976227
-3.308562 -37.732040 4.309369 1.880790849211783e-38 1768976227
-3.305435 -37.696377 4.042296 1.880790849211783e-38 1768976227
-3.285499 -37.469028 5.640219 1.880790849211783e-38 1768976227
-3.301908 -37.656155 5.421122 1.880790849211783e-38 1768976227
-3.250452 -37.069336 3.807712 1.880790849211783e-38 1768976227
-3.325701 -37.927505 3.646815 1.880790849211783e-38 1768976227
-3.264268 -37.226902 5.153074 1.880790849211783e-38 1768976227
-3.316817 -37.826187 5.018695 1.880790849211783e-38 1768976227
-4.488178 -51.184814 2.736888 1.880790849211783e-38 1768976227
-4.465721 -50.928703 2.472380 1.880790849211783e-38 1768976227
-3.283181 -37.442589 3.323593 1.880790849211783e-38 1768976227
-4.473443 -51.016766 4.298196 1.880790849211783e-38 1768976227
-4.458006 -50.840714 2.123837 1.880790849211783e-38 1768976227
-4.471005 -50.988972 1.889382 1.880790849211783e-38 1768976227
-4.455189 -50.808594 3.957455 1.880790849211783e-38 1768976227
-4.460537 -50.869587 3.638614 1.880790849211783e-38 1768976227
-4.523499 -51.587620 1.562235 1.880790849211783e-38 1768976227
-4.450218 -50.751904 1.286984 1.880790849211783e-38 1768976227
-4.404647 -50.232201 3.335332 1.880790849211783e-38 1768976227
-4.491720 -51.225204 3.075412 1.880790849211783e-38 1768976227
-4.480957 -51.102459 -0.916717 1.880790849211783e-38 1768976227
-4.483063 -51.126480 -1.200409 1.880790849211783e-38 1768976227
-4.484373 -51.141411 0.887588 1.880790849211783e-38 1768976227
-4.468128 -50.956150 0.622968 1.880790849211783e-38 1768976227
-4.410783 -50.302174 -1.490714 1.880790849211783e-38 1768976227
-4.465611 -50.927452 -1.760052 1.880790849211783e-38 1768976227
-4.489334 -51.197994 0.310750 1.880790849211783e-38 1768976227
-4.456383 -50.822208 0.037322 1.880790849211783e-38 1768976227
-2.428071 -27.690599 11.580662 1.880790849211783e-38 1768976227
-2.271595 -25.906099 10.621718 1.880790849211783e-38 1768976227
-3.267709 -37.266148 7.510077 1.880790849211783e-38 1768976227
-2.949227 -33.634052 6.426131 1.880790849211783e-38 1768976227
-2.334301 -26.621208 10.658173 1.880790849211783e-38 1768976227
-2.499789 -28.508499 11.097880 1.880790849211783e-38 1768976227
-2.407834 -27.459812 12.791405 1.880790849211783e-38 1768976227
-2.430803 -27.721762 12.543674 1.880790849211783e-38 1768976227
-2.484658 -28.335939 10.728351 1.880790849211783e-38 1768976227
-2.473069 -28.203775 10.313704 1.880790849211783e-38 1768976227
-2.364991 -26.971214 11.910735 1.880790849211783e-38 1768976227
-2.419728 -27.595461 11.795690 1.880790849211783e-38 1768976227
-3.178663 -36.250637 10.719753 1.880790849211783e-38 1768976227
-3.487095 -39.768101 11.457976 1.880790849211783e-38 1768976227
-2.441320 -27.841698 9.855650 1.880790849211783e-38 1768976227
-2.470787 -28.177752 9.795364 1.880790849211783e-38 1768976227
-3.151254 -35.938042 10.000484 1.880790849211783e-38 1768976227
-3.242120 -36.974316 9.955015 1.880790849211783e-38 1768976227
-2.727898 -31.109943 10.540176 1.880790849211783e-38 1768976227
-2.682763 -30.595207 10.070708 1.880790849211783e-38 1768976227
-3.301638 -37.653084 9.751447 1.880790849211783e-38 1768976227
-2.738680 -31.232901 9.940935 1.880790849211783e-38 1768976227
-2.885734 -32.909962 10.096543 1.880790849211783e-38 1768976227
-3.037721 -34.643276 6.341711 1.880790849211783e-38 1768976227
-3.030515 -34.561096 6.014622 1.880790849211783e-38 1768976227
-3.494578 -39.853436 9.160034 1.880790849211783e-38 1768976227
-3.052489 -34.811699 5.772500 1.880790849211783e-38 1768976227
-3.296898 -37.599022 5.902938 1.880790849211783e-38 1768976227
-3.549044 -40.474590 8.912450 1.880790849211783e-38 1768976227
-3.613245 -41.206753 8.769269 1.880790849211783e-38 1768976227
-3.445230 -37.974216 4.759093 1.880790849211783e-38 1768976227
-3.408710 -37.571690 4.515852 1.880790849211783e-38 1768976227
-4.652853 -51.284962 -0.299175 1.880790849211783e-38 1768976227
-4.661585 -51.381203 -0.595032 1.880790849211783e-38 1768976227
-3.425711 -37.759079 4.313618 1.880790849211783e-38 1768976227
