# .PCD v0.7 - Point Cloud Data file format
VERSION 0.7
FIELDS x y z rgb label
SIZE 4 4 4 4 4
TYPE F F F F U
COUNT 1 1 1 1 1
WIDTH 753
HEIGHT 1
VIEWPOINT 0 0 0 1 0 0 0
POINTS 753
DATA ascii
-22.732651 62.500889 3.216279 1.880790849211783e-38 1768976227
-21.945467 60.336613 5.388519 1.880790849211783e-38 1768976227
-22.899664 62.960072 2.787978 1.880790849211783e-38 1768976227
-22.851753 62.828346 2.467822 1.880790849211783e-38 1768976227
-22.291361 61.287609 5.060188 1.880790849211783e-38 1768976227
-22.364710 61.489273 4.662214 1.880790849211783e-38 1768976227
-22.840649 62.797813 2.015857 1.880790849211783e-38 1768976227
-23.168274 63.698578 1.712241 1.880790849211783e-38 1768976227
-22.514311 61.900581 4.356791 1.880790849211783e-38 1768976227
-22.665600 62.316532 3.965865 1.880790849211783e-38 1768976227
-23.207661 63.806877 1.173869 1.880790849211783e-38 1768976227
-17.986549 49.452015 10.564024 1.880790849211783e-38 1768976227
-17.748566 48.797703 9.882919 1.880790849211783e-38 1768976227
-18.108826 49.788193 14.686169 1.880790849211783e-38 1768976227
-17.990059 49.461658 14.116467 1.880790849211783e-38 1768976227
-18.703859 51.424171 14.117290 1.880790849211783e-38 1768976227
-18.560390 51.029720 13.365216 1.880790849211783e-38 1768976227
-17.577991 48.328724 9.377958 1.880790849211783e-38 1768976227
-18.166204 49.945953 9.213755 1.880790849211783e-38 1768976227
-19.318890 53.115131 13.287519 1.880790849211783e-38 1768976227
-17.916889 49.260483 8.658705 1.880790849211783e-38 1768976227
-17.654114 48.538010 11.329535 1.880790849211783e-38 1768976227
-17.300760 47.566505 10.730297 1.880790849211783e-38 1768976227
-22.442619 62.287659 3.526620 1.880790849211783e-38 1768976227
-22.417994 62.219318 3.198295 1.880790849211783e-38 1768976227
-21.792912 60.484451 5.395828 1.880790849211783e-38 1768976227
-22.858471 63.441822 2.806246 1.880790849211783e-38 1768976227
-22.833691 63.373055 2.486501 1.880790849211783e-38 1768976227
-22.228865 61.694401 5.088216 1.880790849211783e-38 1768976227
-22.318064 61.941971 4.691414 1.880790849211783e-38 1768976227
-22.977812 63.773045 2.044929 1.880790849211783e-38 1768976227
-22.944965 63.681889 1.709924 1.880790849211783e-38 1768976227
-22.463068 62.344414 4.383241 1.880790849211783e-38 1768976227
-22.348686 62.026962 3.943129 1.880790849211783e-38 1768976227
-23.022966 63.898365 1.174269 1.880790849211783e-38 1768976227
-23.260847 64.558586 0.835721 1.880790849211783e-38 1768976227
-18.450897 51.208961 10.927409 1.880790849211783e-38 1768976227
-17.574892 48.777683 9.868085 1.880790849211783e-38 1768976227
-18.032118 50.046677 14.746305 1.880790849211783e-38 1768976227
-17.703547 49.134754 14.007864 1.880790849211783e-38 1768976227
-17.950003 49.818771 17.872408 1.880790849211783e-38 1768976227
-17.966631 49.864925 17.379736 1.880790849211783e-38 1768976227
-18.337276 50.893620 13.956394 1.880790849211783e-38 1768976227
-18.391113 51.043041 13.354115 1.880790849211783e-38 1768976227
-17.965429 49.861591 9.664845 1.880790849211783e-38 1768976227
-17.923639 49.745602 9.166781 1.880790849211783e-38 1768976227
-19.275095 53.496456 13.368310 1.880790849211783e-38 1768976227
-18.325113 50.859859 8.930078 1.880790849211783e-38 1768976227
-17.649426 48.984543 11.421287 1.880790849211783e-38 1768976227
-17.826302 49.475452 11.148747 1.880790849211783e-38 1768976227
-22.148678 62.058121 3.509826 1.880790849211783e-38 1768976227
-22.477949 62.980701 3.233933 1.880790849211783e-38 1768976227
-21.542978 60.361019 5.667218 1.880790849211783e-38 1768976227
-21.808323 61.104488 5.445249 1.880790849211783e-38 1768976227
-22.799707 63.882233 2.822672 1.880790849211783e-38 1768976227
-22.608622 63.346836 2.482786 1.880790849211783e-38 1768976227
-22.199459 62.200401 5.124403 1.880790849211783e-38 1768976227
-22.276480 62.416206 4.722222 1.880790849211783e-38 1768976227
-22.645338 63.449707 2.032362 1.880790849211783e-38 1768976227
-22.367411 62.670994 1.680961 1.880790849211783e-38 1768976227
-22.128769 62.002342 4.354479 1.880790849211783e-38 1768976227
-22.372311 62.684715 3.980636 1.880790849211783e-38 1768976227
-22.869217 64.076996 1.176279 1.880790849211783e-38 1768976227
-18.118328 50.765526 10.821076 1.880790849211783e-38 1768976227
-17.909370 50.180054 10.140821 1.880790849211783e-38 1768976227
-17.697960 49.587708 14.595276 1.880790849211783e-38 1768976227
-17.451096 48.896019 13.924735 1.880790849211783e-38 1768976227
-17.796673 49.864288 17.869400 1.880790849211783e-38 1768976227
-18.016205 50.479397 17.574884 1.880790849211783e-38 1768976227
-17.768793 49.786175 13.637944 1.880790849211783e-38 1768976227
-18.198166 50.989223 13.325617 1.880790849211783e-38 1768976227
-17.677612 49.530693 9.590328 1.880790849211783e-38 1768976227
-17.612656 49.348698 9.083812 1.880790849211783e-38 1768976227
-17.368645 48.665009 11.334517 1.880790849211783e-38 1768976227
-18.319536 51.329296 11.553988 1.880790849211783e-38 1768976227
-22.229162 62.882057 3.552617 1.880790849211783e-38 1768976227
-22.235323 62.899487 3.226305 1.880790849211783e-38 1768976227
-21.623772 61.169525 5.736978 1.880790849211783e-38 1768976227
-21.756561 61.545162 5.478647 1.880790849211783e-38 1768976227
-22.273500 63.007484 2.781039 1.880790849211783e-38 1768976227
-22.352119 63.229881 2.475549 1.880790849211783e-38 1768976227
-21.955921 62.109112 5.111403 1.880790849211783e-38 1768976227
-22.224632 62.869244 4.751404 1.880790849211783e-38 1768976227
-22.397926 63.359467 2.027298 1.880790849211783e-38 1768976227
-22.778801 64.436890 1.726475 1.880790849211783e-38 1768976227
-22.101950 62.522205 4.386288 1.880790849211783e-38 1768976227
-21.918167 62.002316 3.933086 1.880790849211783e-38 1768976227
-22.717958 64.264771 1.178463 1.880790849211783e-38 1768976227
-17.817503 50.402321 10.732152 1.880790849211783e-38 1768976227
-17.874212 50.562733 10.207215 1.880790849211783e-38 1768976227
-17.943027 50.757397 14.923557 1.880790849211783e-38 1768976227
-17.719742 50.125771 14.259662 1.880790849211783e-38 1768976227
-17.429058 49.303486 17.649513 1.880790849211783e-38 1768976227
-17.685467 50.028809 17.399357 1.880790849211783e-38 1768976227
-17.643147 49.909096 13.656978 1.880790849211783e-38 1768976227
-18.182673 51.435310 13.427805 1.880790849211783e-38 1768976227
-17.762554 50.246880 9.718582 1.880790849211783e-38 1768976227
-17.786026 50.313271 9.251449 1.880790849211783e-38 1768976227
-17.883804 50.589867 12.285737 1.880790849211783e-38 1768976227
-17.337166 49.043537 11.410450 1.880790849211783e-38 1768976227
-17.944010 50.760178 11.413649 1.880790849211783e-38 1768976227
-22.211023 63.438877 3.580276 1.880790849211783e-38 1768976227
-21.880884 62.495937 3.202207 1.880790849211783e-38 1768976227
-21.442505 61.243851 5.737858 1.880790849211783e-38 1768976227
-21.718079 62.030933 5.516035 1.880790849211783e-38 1768976227
-21.880217 62.494038 2.755452 1.880790849211783e-38 1768976227
-22.200678 63.409332 2.479942 1.880790849211783e-38 1768976227
-21.551722 61.555790 5.060495 1.880790849211783e-38 1768976227
-21.568804 61.604580 4.650889 1.880790849211783e-38 1768976227
-22.598347 64.545158 2.063046 1.880790849211783e-38 1768976227
-22.327785 63.772377 1.706860 1.880790849211783e-38 1768976227
-21.690134 61.951122 4.341615 1.880790849211783e-38 1768976227
-21.443432 61.246490 3.881021 1.880790849211783e-38 1768976227
-17.774645 50.767750 10.798501 1.880790849211783e-38 1768976227
-17.623730 50.336700 10.150811 1.880790849211783e-38 1768976227
-17.701979 50.560200 14.849814 1.880790849211783e-38 1768976227
-17.697449 50.547260 14.364320 1.880790849211783e-38 1768976227
-17.491833 49.959980 17.865559 1.880790849211783e-38 1768976227
-17.658577 50.436234 17.522455 1.880790849211783e-38 1768976227
-17.538790 50.094093 13.693066 1.880790849211783e-38 1768976227
-17.971245 51.329269 13.385913 1.880790849211783e-38 1768976227
-17.699858 50.554146 16.983116 1.880790849211783e-38 1768976227
-18.027308 51.489399 9.457673 1.880790849211783e-38 1768976227
-17.648582 50.407684 12.228514 1.880790849211783e-38 1768976227
-16.832930 48.078033 11.173956 1.880790849211783e-38 1768976227
-18.101810 51.702194 11.613138 1.880790849211783e-38 1768976227
-20.766407 59.891338 6.071731 1.880790849211783e-38 1768976227
-21.653406 62.449486 3.520736 1.880790849211783e-38 1768976227
-21.796623 62.862522 3.217607 1.880790849211783e-38 1768976227
-20.998289 60.560097 5.667839 1.880790849211783e-38 1768976227
-21.325695 61.504349 5.463464 1.880790849211783e-38 1768976227
-21.773636 62.796234 2.765868 1.880790849211783e-38 1768976227
-21.600302 62.296329 2.433854 1.880790849211783e-38 1768976227
-21.269567 61.342476 5.037662 1.880790849211783e-38 1768976227
-21.594494 62.279583 4.696911 1.880790849211783e-38 1768976227
-22.438358 64.713326 2.066249 1.880790849211783e-38 1768976227
-22.245153 64.156113 1.715326 1.880790849211783e-38 1768976227
-21.147949 60.991722 4.269889 1.880790849211783e-38 1768976227
-22.012800 63.485992 4.018707 1.880790849211783e-38 1768976227
-17.695898 51.035843 10.844123 1.880790849211783e-38 1768976227
-20.574387 59.337543 11.953337 1.880790849211783e-38 1768976227
-17.786663 51.297607 15.050572 1.880790849211783e-38 1768976227
-17.418301 50.235237 14.260656 1.880790849211783e-38 1768976227
-17.352051 50.044167 17.876867 1.880790849211783e-38 1768976227
-17.546518 50.605019 17.562628 1.880790849211783e-38 1768976227
-17.449005 50.323788 13.741405 1.880790849211783e-38 1768976227
-17.850870 51.482792 13.411847 1.880790849211783e-38 1768976227
-17.584873 50.715645 17.019476 1.880790849211783e-38 1768976227
-17.547827 50.608791 9.767933 1.880790849211783e-38 1768976227
-17.518753 50.524944 12.244087 1.880790849211783e-38 1768976227
-17.198637 49.601707 11.515970 1.880790849211783e-38 1768976227
-17.800587 51.337765 11.519170 1.880790849211783e-38 1768976227
-20.870029 60.781830 6.155598 1.880790849211783e-38 1768976227
-21.654558 63.066689 3.551834 1.880790849211783e-38 1768976227
-21.497385 62.608940 3.201295 1.880790849211783e-38 1768976227
-20.913334 60.907944 5.694465 1.880790849211783e-38 1768976227
-21.087931 61.416443 5.449981 1.880790849211783e-38 1768976227
-21.486897 62.578388 2.753407 1.880790849211783e-38 1768976227
-21.342073 62.156609 2.425869 1.880790849211783e-38 1768976227
-21.340708 62.152637 5.098886 1.880790849211783e-38 1768976227
-21.152058 61.603210 4.641069 1.880790849211783e-38 1768976227
-22.278719 64.884499 2.069560 1.880790849211783e-38 1768976227
-22.252584 64.808380 1.730964 1.880790849211783e-38 1768976227
-21.421228 62.387138 4.363037 1.880790849211783e-38 1768976227
-21.466017 62.517582 3.953290 1.880790849211783e-38 1768976227
-17.403999 50.687378 10.758879 1.880790849211783e-38 1768976227
-20.554838 59.863865 12.046819 1.880790849211783e-38 1768976227
-16.842699 49.052639 17.960320 1.880790849211783e-38 1768976227
-17.417124 50.725597 14.867267 1.880790849211783e-38 1768976227
-16.890951 49.193172 13.950313 1.880790849211783e-38 1768976227
-17.253197 50.248180 17.931074 1.880790849211783e-38 1768976227
-17.430132 50.763477 17.599298 1.880790849211783e-38 1768976227
-17.428173 50.757778 13.845493 1.880790849211783e-38 1768976227
-17.778568 51.778267 13.474792 1.880790849211783e-38 1768976227
-17.574966 51.185291 17.159218 1.880790849211783e-38 1768976227
-16.983664 49.463184 9.536892 1.880790849211783e-38 1768976227
-17.398043 50.670021 12.266474 1.880790849211783e-38 1768976227
-16.931610 49.311588 11.436705 1.880790849211783e-38 1768976227
-17.426548 50.753044 11.376125 1.880790849211783e-38 1768976227
-19.510502 57.385250 9.088946 1.880790849211783e-38 1768976227
-20.456017 60.166241 6.502670 1.880790849211783e-38 1768976227
-20.597149 60.581345 6.128975 1.880790849211783e-38 1768976227
-21.253956 62.513187 3.517035 1.880790849211783e-38 1768976227
-21.199804 62.353912 3.184971 1.880790849211783e-38 1768976227
-20.935665 61.577011 5.751089 1.880790849211783e-38 1768976227
-21.237066 62.463509 5.537187 1.880790849211783e-38 1768976227
-21.064810 61.956860 2.723252 1.880790849211783e-38 1768976227
-21.196836 62.345181 2.430723 1.880790849211783e-38 1768976227
-21.194128 62.337215 5.108761 1.880790849211783e-38 1768976227
-20.951466 61.623482 4.637815 1.880790849211783e-38 1768976227
-22.013378 64.746834 2.063042 1.880790849211783e-38 1768976227
-21.977184 64.640381 1.724699 1.880790849211783e-38 1768976227
-21.286270 62.608227 4.373988 1.880790849211783e-38 1768976227
-21.215487 62.400040 3.941793 1.880790849211783e-38 1768976227
-18.032976 53.039482 11.246540 1.880790849211783e-38 1768976227
-17.246435 50.726067 10.197443 1.880790849211783e-38 1768976227
-16.741421 49.240688 18.010603 1.880790849211783e-38 1768976227
-17.229477 50.676189 14.837487 1.880790849211783e-38 1768976227
-17.097013 50.286583 14.245697 1.880790849211783e-38 1768976227
-16.961103 49.886841 17.783796 1.880790849211783e-38 1768976227
-17.225651 50.664932 17.547043 1.880790849211783e-38 1768976227
-17.408812 51.203659 13.952733 1.880790849211783e-38 1768976227
-17.522417 51.537800 13.398398 1.880790849211783e-38 1768976227
-17.329611 50.970707 17.069681 1.880790849211783e-38 1768976227
-17.557947 51.642296 9.946786 1.880790849211783e-38 1768976227
-17.870934 52.562870 13.052058 1.880790849211783e-38 1768976227
-17.384344 51.131695 12.365487 1.880790849211783e-38 1768976227
-18.756519 55.167599 9.625261 1.880790849211783e-38 1768976227
-19.217800 56.524342 9.337204 1.880790849211783e-38 1768976227
-17.454721 51.338680 11.894580 1.880790849211783e-38 1768976227
-17.359875 51.059719 11.433078 1.880790849211783e-38 1768976227
-21.085421 62.636715 7.059988 1.880790849211783e-38 1768976227
-19.186024 56.994331 9.017825 1.880790849211783e-38 1768976227
-19.567865 58.128635 8.796094 1.880790849211783e-38 1768976227
-20.499392 60.895847 6.574812 1.880790849211783e-38 1768976227
-20.686718 61.452312 6.210751 1.880790849211783e-38 1768976227
-21.060951 62.564022 3.516306 1.880790849211783e-38 1768976227
-20.911022 62.118637 3.169718 1.880790849211783e-38 1768976227
-20.927986 62.169033 5.800460 1.880790849211783e-38 1768976227
-20.932619 62.182796 5.506681 1.880790849211783e-38 1768976227
-20.830542 61.879566 2.717081 1.880790849211783e-38 1768976227
-21.719067 64.519035 2.512912 1.880790849211783e-38 1768976227
-20.779676 61.728462 5.053713 1.880790849211783e-38 1768976227
-21.053303 62.541294 4.702089 1.880790849211783e-38 1768976227
-21.726917 64.542358 2.054429 1.880790849211783e-38 1768976227
-21.024342 62.455276 4.358853 1.880790849211783e-38 1768976227
-21.287304 63.236427 3.990553 1.880790849211783e-38 1768976227
-17.749115 52.725822 11.168631 1.880790849211783e-38 1768976227
-16.943504 50.332661 10.108039 1.880790849211783e-38 1768976227
-16.817814 49.959286 18.254805 1.880790849211783e-38 1768976227
-16.874569 50.127880 14.661981 1.880790849211783e-38 1768976227
-16.700205 49.609917 14.039672 1.880790849211783e-38 1768976227
-16.844551 50.038708 17.819744 1.880790849211783e-38 1768976227
-16.916216 50.251602 17.386143 1.880790849211783e-38 1768976227
-17.041445 50.623608 13.780604 1.880790849211783e-38 1768976227
-17.270473 51.303967 13.324007 1.880790849211783e-38 1768976227
-17.108202 50.821922 17.002497 1.880790849211783e-38 1768976227
-17.556540 52.153763 10.035054 1.880790849211783e-38 1768976227
-17.538912 52.101395 12.924273 1.880790849211783e-38 1768976227
-17.167364 50.997662 12.320496 1.880790849211783e-38 1768976227
-18.857033 56.017029 9.763496 1.880790849211783e-38 1768976227
-19.022635 56.508965 9.325145 1.880790849211783e-38 1768976227
-17.358002 51.563976 11.934596 1.880790849211783e-38 1768976227
-17.288824 51.358479 11.488247 1.880790849211783e-38 1768976227
-20.633585 61.911400 7.424749 1.880790849211783e-38 1768976227
-20.193466 60.590820 6.822493 1.880790849211783e-38 1768976227
-19.285749 57.867203 9.146688 1.880790849211783e-38 1768976227
-19.239964 57.729820 8.726924 1.880790849211783e-38 1768976227
-20.438013 61.324589 6.614418 1.880790849211783e-38 1768976227
-20.496031 61.498669 6.209159 1.880790849211783e-38 1768976227
-21.416111 64.259384 3.607944 1.880790849211783e-38 1768976227
-21.384882 64.165680 3.270865 1.880790849211783e-38 1768976227
-20.674162 62.033157 5.781939 1.880790849211783e-38 1768976227
-20.633270 61.910458 5.477027 1.880790849211783e-38 1768976227
-21.573296 64.731018 2.839416 1.880790849211783e-38 1768976227
-21.324434 63.984310 2.489569 1.880790849211783e-38 1768976227
-20.987961 62.974712 5.150538 1.880790849211783e-38 1768976227
-20.750977 62.263634 4.676487 1.880790849211783e-38 1768976227
-21.740273 65.232040 2.074286 1.880790849211783e-38 1768976227
-20.784430 62.364006 4.348089 1.880790849211783e-38 1768976227
-21.104944 63.325722 3.992153 1.880790849211783e-38 1768976227
-17.702795 53.117519 11.240241 1.880790849211783e-38 1768976227
-16.440237 49.329197 9.896515 1.880790849211783e-38 1768976227
-16.825846 50.486217 15.676531 1.880790849211783e-38 1768976227
-16.447296 49.350376 18.014107 1.880790849211783e-38 1768976227
-16.940382 50.829884 14.852299 1.880790849211783e-38 1768976227
-16.810059 50.438847 14.259848 1.880790849211783e-38 1768976227
-16.631508 49.903103 17.753508 1.880790849211783e-38 1768976227
-16.912231 50.745419 17.539267 1.880790849211783e-38 1768976227
-17.006687 51.028835 13.876888 1.880790849211783e-38 1768976227
-17.077087 51.240070 13.293976 1.880790849211783e-38 1768976227
-16.944859 50.843311 16.992479 1.880790849211783e-38 1768976227
-17.602247 52.815823 10.152183 1.880790849211783e-38 1768976227
-17.668213 53.013760 13.137317 1.880790849211783e-38 1768976227
-17.046719 51.148952 12.344569 1.880790849211783e-38 1768976227
-18.556183 55.678127 9.694629 1.880790849211783e-38 1768976227
-17.727623 53.192013 8.768917 1.880790849211783e-38 1768976227
-16.993732 50.989964 11.789823 1.880790849211783e-38 1768976227
-16.907778 50.732056 11.336667 1.880790849211783e-38 1768976227
-20.493246 62.114227 7.441628 1.880790849211783e-38 1768976227
-20.152498 61.081432 6.870861 1.880790849211783e-38 1768976227
-19.027403 57.671307 9.106612 1.880790849211783e-38 1768976227
-19.217936 58.248814 8.796577 1.880790849211783e-38 1768976227
-20.316135 61.577412 6.635047 1.880790849211783e-38 1768976227
-20.405458 61.848152 6.238203 1.880790849211783e-38 1768976227
-21.156473 64.124435 3.596768 1.880790849211783e-38 1768976227
-21.278004 64.492790 3.284254 1.880790849211783e-38 1768976227
-20.532095 62.231976 5.794672 1.880790849211783e-38 1768976227
-20.689203 62.708168 5.542053 1.880790849211783e-38 1768976227
-21.422417 64.930504 2.845320 1.880790849211783e-38 1768976227
-21.318411 64.615273 2.511606 1.880790849211783e-38 1768976227
-20.883442 63.296886 5.171713 1.880790849211783e-38 1768976227
-20.991735 63.625126 4.773969 1.880790849211783e-38 1768976227
-20.898037 63.341125 4.411800 1.880790849211783e-38 1768976227
-21.030811 63.743572 4.014478 1.880790849211783e-38 1768976227
-16.764614 50.812885 10.741808 1.880790849211783e-38 1768976227
-17.211382 52.167027 10.455384 1.880790849211783e-38 1768976227
-16.613279 50.354195 15.619906 1.880790849211783e-38 1768976227
-16.218605 49.157959 17.925932 1.880790849211783e-38 1768976227
-16.555288 50.178432 14.172042 1.880790849211783e-38 1768976227
-16.505211 50.026646 17.779667 1.880790849211783e-38 1768976227
-16.635254 50.420799 17.409649 1.880790849211783e-38 1768976227
-16.804062 50.932457 13.836834 1.880790849211783e-38 1768976227
-16.973400 51.445713 13.333986 1.880790849211783e-38 1768976227
-16.943760 51.355869 17.146626 1.880790849211783e-38 1768976227
-17.445227 52.875793 10.153550 1.880790849211783e-38 1768976227
-17.150627 51.982883 12.868979 1.880790849211783e-38 1768976227
-16.800602 50.921963 12.277502 1.880790849211783e-38 1768976227
-18.518827 56.129841 9.763512 1.880790849211783e-38 1768976227
-18.896849 57.275608 9.432675 1.880790849211783e-38 1768976227
-16.612303 50.351242 11.630501 1.880790849211783e-38 1768976227
-16.815426 50.966900 11.377760 1.880790849211783e-38 1768976227
-20.260777 62.037842 7.425121 1.880790849211783e-38 1768976227
-19.876488 60.861164 6.839309 1.880790849211783e-38 1768976227
-18.903912 57.883163 9.131021 1.880790849211783e-38 1768976227
-20.182426 61.797928 6.652220 1.880790849211783e-38 1768976227
-20.311438 62.192966 6.266775 1.880790849211783e-38 1768976227
-21.103544 64.618362 3.620886 1.880790849211783e-38 1768976227
-21.067129 64.506866 3.281720 1.880790849211783e-38 1768976227
-20.530199 62.862808 5.847619 1.880790849211783e-38 1768976227
-20.625957 63.156013 5.576110 1.880790849211783e-38 1768976227
-21.283598 65.169685 2.852975 1.880790849211783e-38 1768976227
-21.176693 64.842346 2.517938 1.880790849211783e-38 1768976227
-20.481590 62.713963 5.119014 1.880790849211783e-38 1768976227
-20.456238 62.636333 4.695127 1.880790849211783e-38 1768976227
-20.663647 63.271412 4.402584 1.880790849211783e-38 1768976227
-20.747593 63.528454 3.996971 1.880790849211783e-38 1768976227
-16.708958 51.162281 10.804967 1.880790849211783e-38 1768976227
-17.090656 52.331036 10.477877 1.880790849211783e-38 1768976227
-16.642914 50.960060 15.792205 1.880790849211783e-38 1768976227
-17.038679 52.171883 15.752636 1.880790849211783e-38 1768976227
-16.162447 49.488892 18.028751 1.880790849211783e-38 1768976227
-17.460682 53.464039 15.590929 1.880790849211783e-38 1768976227
-16.113668 49.339527 13.921319 1.880790849211783e-38 1768976227
-16.456020 50.387802 17.890305 1.880790849211783e-38 1768976227
-16.607754 50.852402 17.541300 1.880790849211783e-38 1768976227
-16.750029 51.288044 13.919648 1.880790849211783e-38 1768976227
-16.819485 51.500717 13.335035 1.880790849211783e-38 1768976227
-16.644341 50.964428 16.999092 1.880790849211783e-38 1768976227
-16.789053 51.407532 16.527826 1.880790849211783e-38 1768976227
-20.108276 61.570885 11.811538 1.880790849211783e-38 1768976227
-16.231596 49.700619 9.064132 1.880790849211783e-38 1768976227
-17.024117 52.127293 12.891959 1.880790849211783e-38 1768976227
-16.735025 51.242100 12.342463 1.880790849211783e-38 1768976227
-17.137123 52.473312 9.118445 1.880790849211783e-38 1768976227
-18.870432 57.780647 9.506433 1.880790849211783e-38 1768976227
-16.709829 51.164951 11.806763 1.880790849211783e-38 1768976227
-17.480606 53.525051 11.937013 1.880790849211783e-38 1768976227
-20.061058 62.059834 7.420479 1.880790849211783e-38 1768976227
-19.896643 61.551201 6.910078 1.880790849211783e-38 1768976227
-18.852428 58.320877 9.191060 1.880790849211783e-38 1768976227
-20.170580 62.398643 6.710305 1.880790849211783e-38 1768976227
-20.243578 62.624462 6.304074 1.880790849211783e-38 1768976227
-20.726511 64.118439 3.589355 1.880790849211783e-38 1768976227
-21.024563 65.040474 3.305626 1.880790849211783e-38 1768976227
-20.302786 62.807625 5.836764 1.880790849211783e-38 1768976227
-20.102558 62.188213 5.485285 1.880790849211783e-38 1768976227
-21.045824 65.106247 2.847406 1.880790849211783e-38 1768976227
-20.044931 62.009937 5.056591 1.880790849211783e-38 1768976227
-20.349571 62.952358 4.714194 1.880790849211783e-38 1768976227
-20.449911 63.262764 4.397671 1.880790849211783e-38 1768976227
-20.676617 63.964088 4.020439 1.880790849211783e-38 1768976227
-16.156778 49.981758 10.545314 1.880790849211783e-38 1768976227
-16.821177 52.037102 10.408820 1.880790849211783e-38 1768976227
-16.606176 51.371990 15.904268 1.880790849211783e-38 1768976227
-16.900496 52.282482 15.770570 1.880790849211783e-38 1768976227
-16.009167 49.525116 18.024279 1.880790849211783e-38 1768976227
-16.837460 52.087471 15.174626 1.880790849211783e-38 1768976227
-15.916924 49.239750 13.879561 1.880790849211783e-38 1768976227
-16.330791 50.520069 17.919701 1.880790849211783e-38 1768976227
-16.342773 50.557140 17.422371 1.880790849211783e-38 1768976227
-16.608217 51.378304 13.930489 1.880790849211783e-38 1768976227
-16.724766 51.738850 13.383575 1.880790849211783e-38 1768976227
-16.460333 50.920815 16.967913 1.880790849211783e-38 1768976227
-16.582861 51.299866 16.477058 1.880790849211783e-38 1768976227
-17.167393 53.108135 10.178097 1.880790849211783e-38 1768976227
-16.305958 50.443245 9.190558 1.880790849211783e-38 1768976227
-16.706429 51.682129 12.769344 1.880790849211783e-38 1768976227
-16.577459 51.283142 12.340253 1.880790849211783e-38 1768976227
-17.142796 53.032043 9.206513 1.880790849211783e-38 1768976227
-18.163769 56.190472 9.235755 1.880790849211783e-38 1768976227
-16.575386 51.276737 11.820970 1.880790849211783e-38 1768976227
-17.172426 53.123707 11.835905 1.880790849211783e-38 1768976227
-19.658819 61.448093 7.340211 1.880790849211783e-38 1768976227
-19.671919 61.489037 6.896407 1.880790849211783e-38 1768976227
-18.639317 58.261402 9.172786 1.880790849211783e-38 1768976227
-19.961535 62.394299 6.703333 1.880790849211783e-38 1768976227
-20.039059 62.636620 6.299185 1.880790849211783e-38 1768976227
-20.470297 63.984550 3.578387 1.880790849211783e-38 1768976227
-20.805578 65.032547 3.302019 1.880790849211783e-38 1768976227
-20.309158 63.480869 5.893610 1.880790849211783e-38 1768976227
-19.721895 61.645248 5.432122 1.880790849211783e-38 1768976227
-21.652113 67.678589 2.957037 1.880790849211783e-38 1768976227
-20.307407 63.475403 5.171074 1.880790849211783e-38 1768976227
-20.252718 63.304462 4.735966 1.880790849211783e-38 1768976227
-20.579453 64.325737 4.467228 1.880790849211783e-38 1768976227
-20.668047 64.602654 4.056639 1.880790849211783e-38 1768976227
-15.995699 49.998184 10.538553 1.880790849211783e-38 1768976227
-16.845263 52.653683 10.521943 1.880790849211783e-38 1768976227
-16.199043 50.633785 15.660531 1.880790849211783e-38 1768976227
-16.941153 52.953411 15.957466 1.880790849211783e-38 1768976227
-15.823519 49.459999 17.983130 1.880790849211783e-38 1768976227
-16.866669 52.720596 15.344185 1.880790849211783e-38 1768976227
-15.732153 49.174408 13.847704 1.880790849211783e-38 1768976227
-16.092070 50.299412 17.824135 1.880790849211783e-38 1768976227
-16.258257 50.818867 17.495586 1.880790849211783e-38 1768976227
-16.483231 51.522076 13.955929 1.880790849211783e-38 1768976227
-16.694904 52.183708 13.485563 1.880790849211783e-38 1768976227
-16.328999 51.039989 16.991135 1.880790849211783e-38 1768976227
-16.336996 51.064987 16.385717 1.880790849211783e-38 1768976227
-18.649481 58.293179 11.160973 1.880790849211783e-38 1768976227
-16.152203 50.487366 9.189680 1.880790849211783e-38 1768976227
-16.810247 52.544239 12.969766 1.880790849211783e-38 1768976227
-16.430464 51.357140 12.346077 1.880790849211783e-38 1768976227
-16.934889 52.933826 9.180554 1.880790849211783e-38 1768976227
-18.271057 57.110329 9.377847 1.880790849211783e-38 1768976227
-16.385479 51.216526 11.795644 1.880790849211783e-38 1768976227
-16.996859 53.127537 11.825282 1.880790849211783e-38 1768976227
-17.791344 56.194283 7.055603 1.880790849211783e-38 1768976227
-19.685217 62.176121 7.420051 1.880790849211783e-38 1768976227
-19.701414 62.227283 6.972510 1.880790849211783e-38 1768976227
-18.377863 58.046822 9.130234 1.880790849211783e-38 1768976227
-19.836134 62.652798 6.724647 1.880790849211783e-38 1768976227
-19.850370 62.697762 6.299284 1.880790849211783e-38 1768976227
-20.717154 65.435516 3.656022 1.880790849211783e-38 1768976227
-20.684742 65.333138 3.314099 1.880790849211783e-38 1768976227
-19.781445 62.480061 5.795129 1.880790849211783e-38 1768976227
-20.023220 63.243710 5.567629 1.880790849211783e-38 1768976227
-20.074530 63.405781 5.160447 1.880790849211783e-38 1768976227
-20.088728 63.450623 4.742346 1.880790849211783e-38 1768976227
-20.314445 64.163559 4.451690 1.880790849211783e-38 1768976227
-20.469454 64.653152 4.055915 1.880790849211783e-38 1768976227
-15.777734 49.834263 10.493924 1.880790849211783e-38 1768976227
-16.666412 52.641171 10.509351 1.880790849211783e-38 1768976227
-16.026321 50.619434 15.641071 1.880790849211783e-38 1768976227
-16.809927 53.094463 15.984622 1.880790849211783e-38 1768976227
-15.697310 49.580246 18.009556 1.880790849211783e-38 1768976227
-16.649321 52.587185 15.290672 1.880790849211783e-38 1768976227
-15.657506 49.454521 13.913224 1.880790849211783e-38 1768976227
-15.905717 50.238503 17.785473 1.880790849211783e-38 1768976227
-16.189991 51.136387 17.588011 1.880790849211783e-38 1768976227
-16.117958 50.908867 13.776597 1.880790849211783e-38 1768976227
-16.655396 52.606377 13.581747 1.880790849211783e-38 1768976227
-16.067619 50.749878 16.878347 1.880790849211783e-38 1768976227
-16.328068 51.572514 16.532694 1.880790849211783e-38 1768976227
-18.505468 58.449867 11.180236 1.880790849211783e-38 1768976227
-16.157709 51.034424 9.280343 1.880790849211783e-38 1768976227
-16.688164 52.709877 12.998167 1.880790849211783e-38 1768976227
-16.226540 51.251827 12.308940 1.880790849211783e-38 1768976227
-16.860907 53.255486 9.227479 1.880790849211783e-38 1768976227
-17.805506 56.239017 9.225912 1.880790849211783e-38 1768976227
-16.420572 51.864677 11.933458 1.880790849211783e-38 1768976227
-16.794504 53.045757 11.795752 1.880790849211783e-38 1768976227
-17.466103 55.750774 7.291833 1.880790849211783e-38 1768976227
-17.557209 56.041580 7.029749 1.880790849211783e-38 1768976227
-19.304739 61.619598 7.346654 1.880790849211783e-38 1768976227
-19.546635 62.391712 6.984297 1.880790849211783e-38 1768976227
-19.973276 63.753525 10.018325 1.880790849211783e-38 1768976227
-20.256168 64.656502 9.717012 1.880790849211783e-38 1768976227
-19.671257 62.789497 6.732921 1.880790849211783e-38 1768976227
-19.853518 63.371262 6.360907 1.880790849211783e-38 1768976227
-20.717428 66.128815 9.555812 1.880790849211783e-38 1768976227
-20.330658 64.894272 3.622339 1.880790849211783e-38 1768976227
-21.003565 67.042152 3.397562 1.880790849211783e-38 1768976227
-19.882666 63.464302 5.880831 1.880790849211783e-38 1768976227
-19.728367 62.971798 5.538428 1.880790849211783e-38 1768976227
-21.195627 67.655205 2.950376 1.880790849211783e-38 1768976227
-19.931074 63.618820 5.172870 1.880790849211783e-38 1768976227
-19.578474 62.493347 4.666364 1.880790849211783e-38 1768976227
-20.246002 64.624054 4.479382 1.880790849211783e-38 1768976227
-20.216173 64.528847 4.044273 1.880790849211783e-38 1768976227
-15.783031 50.378513 10.598459 1.880790849211783e-38 1768976227
-16.750738 53.467377 10.664161 1.880790849211783e-38 1768976227
-15.994593 51.053802 15.760310 1.880790849211783e-38 1768976227
-16.136932 51.508141 15.492319 1.880790849211783e-38 1768976227
-15.440982 49.286713 17.885935 1.880790849211783e-38 1768976227
-16.430820 52.446217 15.235204 1.880790849211783e-38 1768976227
-15.459019 49.344284 13.869030 1.880790849211783e-38 1768976227
-15.248403 48.672009 17.214540 1.880790849211783e-38 1768976227
-16.095798 51.376846 17.653938 1.880790849211783e-38 1768976227
-16.023844 51.147167 13.827944 1.880790849211783e-38 1768976227
-16.461248 52.543335 13.552592 1.880790849211783e-38 1768976227
-16.173965 51.626343 17.153543 1.880790849211783e-38 1768976227
-15.971756 50.980911 16.327528 1.880790849211783e-38 1768976227
-15.194067 48.498573 9.267954 1.880790849211783e-38 1768976227
-15.875642 50.674118 9.206075 1.880790849211783e-38 1768976227
-16.470417 52.572613 12.952009 1.880790849211783e-38 1768976227
-15.916990 50.806099 12.190306 1.880790849211783e-38 1768976227
-16.465540 52.557045 9.097815 1.880790849211783e-38 1768976227
-17.902607 57.144070 9.365484 1.880790849211783e-38 1768976227
-16.344383 52.170311 11.992384 1.880790849211783e-38 1768976227
-16.650370 53.147003 11.807045 1.880790849211783e-38 1768976227
-17.425938 56.216316 7.345816 1.880790849211783e-38 1768976227
-19.721535 63.621937 7.973118 1.880790849211783e-38 1768976227
-19.214354 61.985771 7.383368 1.880790849211783e-38 1768976227
-19.499664 62.906181 7.035273 1.880790849211783e-38 1768976227
-16.173168 52.174866 8.191135 1.880790849211783e-38 1768976227
-20.059736 64.712997 9.716366 1.880790849211783e-38 1768976227
-19.548849 63.064857 6.756095 1.880790849211783e-38 1768976227
-19.195440 61.924759 6.209874 1.880790849211783e-38 1768976227
-20.352753 65.658272 9.478904 1.880790849211783e-38 1768976227
-20.278984 65.420288 9.052527 1.880790849211783e-38 1768976227
-20.477268 66.059959 3.683943 1.880790849211783e-38 1768976227
-20.902300 67.431107 3.414063 1.880790849211783e-38 1768976227
-19.584099 63.178570 5.848854 1.880790849211783e-38 1768976227
-19.516178 62.959465 5.532142 1.880790849211783e-38 1768976227
-21.034466 67.857483 2.956417 1.880790849211783e-38 1768976227
-21.182096 68.333733 2.640810 1.880790849211783e-38 1768976227
-19.625090 63.310814 5.142989 1.880790849211783e-38 1768976227
-19.720882 63.619835 4.746016 1.880790849211783e-38 1768976227
-20.145172 64.988602 4.500419 1.880790849211783e-38 1768976227
-20.289972 65.455742 4.098511 1.880790849211783e-38 1768976227
-16.165085 52.148788 10.960577 1.880790849211783e-38 1768976227
-15.065032 48.600002 9.684248 1.880790849211783e-38 1768976227
-15.958901 51.483643 15.878072 1.880790849211783e-38 1768976227
-15.858186 51.158730 15.372769 1.880790849211783e-38 1768976227
-15.082808 48.657349 17.640953 1.880790849211783e-38 1768976227
-16.248123 52.416676 15.212317 1.880790849211783e-38 1768976227
-15.296862 49.347889 13.857015 1.880790849211783e-38 1768976227
-15.037628 48.511604 17.141689 1.880790849211783e-38 1768976227
-15.884721 51.244335 17.591862 1.880790849211783e-38 1768976227
-15.975197 51.536209 13.920033 1.880790849211783e-38 1768976227
-16.250418 52.424076 13.509129 1.880790849211783e-38 1768976227
-15.834048 51.080864 16.956354 1.880790849211783e-38 1768976227
-15.899344 51.291504 16.411570 1.880790849211783e-38 1768976227
-15.137515 48.833832 9.323255 1.880790849211783e-38 1768976227
-15.816439 51.024052 9.260940 1.880790849211783e-38 1768976227
-16.021816 51.686604 12.721766 1.880790849211783e-38 1768976227
-15.764399 50.856171 12.190857 1.880790849211783e-38 1768976227
-16.214119 52.306976 9.046021 1.880790849211783e-38 1768976227
-17.678009 57.029507 9.337928 1.880790849211783e-38 1768976227
-16.133097 52.045593 11.952476 1.880790849211783e-38 1768976227
-15.924438 51.372459 11.402093 1.880790849211783e-38 1768976227
-17.224422 56.164639 7.332241 1.880790849211783e-38 1768976227
-19.592508 63.886383 7.998816 1.880790849211783e-38 1768976227
-18.926025 61.713150 7.344063 1.880790849211783e-38 1768976227
-19.278772 62.863377 7.023951 1.880790849211783e-38 1768976227
-19.671799 64.144943 10.061004 1.880790849211783e-38 1768976227
-19.925344 64.971687 9.746140 1.880790849211783e-38 1768976227
-19.299225 62.930061 6.735388 1.880790849211783e-38 1768976227
-19.439358 63.387005 6.350601 1.880790849211783e-38 1768976227
-19.859116 64.755737 9.339918 1.880790849211783e-38 1768976227
-16.892479 55.082249 7.614917 1.880790849211783e-38 1768976227
-20.511576 66.883247 3.726388 1.880790849211783e-38 1768976227
-20.565233 67.058212 3.392027 1.880790849211783e-38 1768976227
-19.540379 63.716415 5.893163 1.880790849211783e-38 1768976227
-18.777885 61.230095 5.375185 1.880790849211783e-38 1768976227
-21.024490 68.555733 2.984062 1.880790849211783e-38 1768976227
-21.123495 68.878563 2.659391 1.880790849211783e-38 1768976227
-19.503380 63.595764 5.161335 1.880790849211783e-38 1768976227
-19.750641 64.402023 4.799901 1.880790849211783e-38 1768976227
-19.917681 64.946693 4.493337 1.880790849211783e-38 1768976227
-20.052946 65.387772 4.090450 1.880790849211783e-38 1768976227
-15.847471 51.674740 10.850846 1.880790849211783e-38 1768976227
-14.924806 48.666145 9.688415 1.880790849211783e-38 1768976227
-15.825695 51.603733 15.900316 1.880790849211783e-38 1768976227
-15.722645 51.267708 15.391199 1.880790849211783e-38 1768976227
-14.848787 48.418274 17.537960 1.880790849211783e-38 1768976227
-16.120106 52.563732 15.240817 1.880790849211783e-38 1768976227
-15.188383 49.525612 13.893993 1.880790849211783e-38 1768976227
-14.772245 48.168690 17.004700 1.880790849211783e-38 1768976227
-15.576656 50.791676 17.420259 1.880790849211783e-38 1768976227
-15.750342 51.358025 13.859011 1.880790849211783e-38 1768976227
-16.154173 52.674824 13.561127 1.880790849211783e-38 1768976227
-15.779633 51.453533 17.064186 1.880790849211783e-38 1768976227
-15.808947 51.549118 16.478664 1.880790849211783e-38 1768976227
-15.032393 49.016972 9.349520 1.880790849211783e-38 1768976227
-15.047002 49.064602 8.897019 1.880790849211783e-38 1768976227
-15.839857 51.649906 12.700917 1.880790849211783e-38 1768976227
-15.688032 51.154846 12.251055 1.880790849211783e-38 1768976227
-15.999722 52.171185 9.014152 1.880790849211783e-38 1768976227
-17.385860 56.691051 9.273881 1.880790849211783e-38 1768976227
-15.830737 51.620171 11.843758 1.880790849211783e-38 1768976227
-15.822207 51.592354 11.440257 1.880790849211783e-38 1768976227
-17.181669 56.634010 7.386719 1.880790849211783e-38 1768976227
-18.842781 62.109356 7.769175 1.880790849211783e-38 1768976227
-19.008423 62.655338 7.449330 1.880790849211783e-38 1768976227
-19.063435 62.836662 7.014510 1.880790849211783e-38 1768976227
-19.018898 62.689869 9.823737 1.880790849211783e-38 1768976227
-19.944839 65.741943 9.852616 1.880790849211783e-38 1768976227
-19.207893 63.312828 6.770124 1.880790849211783e-38 1768976227
-18.958210 62.489822 6.254958 1.880790849211783e-38 1768976227
-19.434710 64.060455 9.231139 1.880790849211783e-38 1768976227
-16.632286 54.823147 7.572128 1.880790849211783e-38 1768976227
-20.201721 66.588684 3.706565 1.880790849211783e-38 1768976227
-20.396538 67.230827 3.397632 1.880790849211783e-38 1768976227
-18.496111 60.966663 5.633652 1.880790849211783e-38 1768976227
-19.329000 63.712025 5.587922 1.880790849211783e-38 1768976227
-20.835009 68.676102 2.986553 1.880790849211783e-38 1768976227
-19.319139 63.679516 5.163380 1.880790849211783e-38 1768976227
-19.599777 64.604553 4.810568 1.880790849211783e-38 1768976227
-19.806025 65.284386 4.512546 1.880790849211783e-38 1768976227
-20.031523 66.027672 4.126682 1.880790849211783e-38 1768976227
-15.864305 52.291737 10.970308 1.880790849211783e-38 1768976227
-14.700198 48.454620 9.637434 1.880790849211783e-38 1768976227
-15.684313 51.698448 15.914853 1.880790849211783e-38 1768976227
-15.648855 51.581570 15.471184 1.880790849211783e-38 1768976227
-14.932883 49.221592 18.138493 1.880790849211783e-38 1768976227
-14.703914 48.466869 17.539417 1.880790849211783e-38 1768976227
-15.907171 52.433025 15.188939 1.880790849211783e-38 1768976227
-15.743695 51.894180 14.545088 1.880790849211783e-38 1768976227
-14.961987 49.317528 17.394257 1.880790849211783e-38 1768976227
-14.982010 49.383526 16.921726 1.880790849211783e-38 1768976227
-15.622945 51.496170 13.883512 1.880790849211783e-38 1768976227
-16.051870 52.909988 13.609144 1.880790849211783e-38 1768976227
-15.515861 51.143196 16.945669 1.880790849211783e-38 1768976227
-15.514396 51.138371 16.332329 1.880790849211783e-38 1768976227
-14.960166 49.311520 9.397054 1.880790849211783e-38 1768976227
-15.047136 49.598194 8.985507 1.880790849211783e-38 1768976227
-15.633575 51.531208 12.660077 1.880790849211783e-38 1768976227
-15.497630 51.083111 12.222626 1.880790849211783e-38 1768976227
-15.994052 52.719402 9.100496 1.880790849211783e-38 1768976227
-15.715796 51.802227 8.466345 1.880790849211783e-38 1768976227
-16.139654 53.199333 12.194857 1.880790849211783e-38 1768976227
-15.524324 51.171097 11.336411 1.880790849211783e-38 1768976227
-19.031754 63.420010 8.264286 1.880790849211783e-38 1768976227
-18.717758 62.373680 7.795143 1.880790849211783e-38 1768976227
-18.830843 62.750507 7.453860 1.880790849211783e-38 1768976227
-18.745972 62.467690 6.966980 1.880790849211783e-38 1768976227
-18.898613 62.976337 9.859653 1.880790849211783e-38 1768976227
-18.971327 63.218643 9.465837 1.880790849211783e-38 1768976227
-18.940592 63.116226 6.742964 1.880790849211783e-38 1768976227
-18.669584 62.213142 6.221600 1.880790849211783e-38 1768976227
-19.158537 63.842495 9.191364 1.880790849211783e-38 1768976227
-16.731001 55.753155 7.693577 1.880790849211783e-38 1768976227
-19.868837 66.209450 3.682104 1.880790849211783e-38 1768976227
-20.572298 68.553619 3.461330 1.880790849211783e-38 1768976227
-19.033991 63.427471 5.855713 1.880790849211783e-38 1768976227
-19.124584 63.729355 5.584358 1.880790849211783e-38 1768976227
-19.405182 64.664391 5.238470 1.880790849211783e-38 1768976227
-19.546076 65.133904 4.845574 1.880790849211783e-38 1768976227
-19.637749 65.439377 4.519146 1.880790849211783e-38 1768976227
-19.835938 66.099808 4.127433 1.880790849211783e-38 1768976227
-14.054580 46.834442 9.816484 1.880790849211783e-38 1768976227
-14.641983 48.791866 9.695684 1.880790849211783e-38 1768976227
-15.644960 52.134109 16.034370 1.880790849211783e-38 1768976227
-15.349159 51.148407 15.327310 1.880790849211783e-38 1768976227
-14.574462 48.566864 17.880941 1.880790849211783e-38 1768976227
-14.551011 48.488712 17.531364 1.880790849211783e-38 1768976227
-15.755063 52.501011 15.194801 1.880790849211783e-38 1768976227
-15.492232 51.625175 14.456530 1.880790849211783e-38 1768976227
-14.644268 48.799480 17.195889 1.880790849211783e-38 1768976227
-14.971223 49.888996 17.079384 1.880790849211783e-38 1768976227
-15.336148 51.105053 13.765534 1.880790849211783e-38 1768976227
-15.812416 52.692131 13.540782 1.880790849211783e-38 1768976227
-15.365418 51.202591 16.949919 1.880790849211783e-38 1768976227
-15.609632 52.016384 16.597637 1.880790849211783e-38 1768976227
-14.752172 49.159046 9.359478 1.880790849211783e-38 1768976227
-14.995366 49.969448 9.044532 1.880790849211783e-38 1768976227
-15.521503 51.722713 12.695569 1.880790849211783e-38 1768976227
-15.229059 50.748188 12.131446 1.880790849211783e-38 1768976227
-15.878873 52.913582 9.125709 1.880790849211783e-38 1768976227
-16.728296 55.744148 9.102309 1.880790849211783e-38 1768976227
-16.019077 53.380791 12.225324 1.880790849211783e-38 1768976227
-15.425981 51.404400 11.377740 1.880790849211783e-38 1768976227
-18.941479 63.817703 8.308629 1.880790849211783e-38 1768976227
-18.488165 62.290401 7.777731 1.880790849211783e-38 1768976227
-18.579203 62.597118 7.428950 1.880790849211783e-38 1768976227
-18.808586 63.369965 7.061250 1.880790849211783e-38 1768976227
-18.812040 63.381592 9.914171 1.880790849211783e-38 1768976227
-19.013121 64.059082 9.583046 1.880790849211783e-38 1768976227
-18.593224 62.644367 6.686531 1.880790849211783e-38 1768976227
-18.409096 62.023994 6.197104 1.880790849211783e-38 1768976227
-16.039604 54.040699 7.773206 1.880790849211783e-38 1768976227
-16.614872 55.978889 7.717777 1.880790849211783e-38 1768976227
-19.519114 65.763878 3.654034 1.880790849211783e-38 1768976227
-20.377594 68.656265 3.463394 1.880790849211783e-38 1768976227
-18.970558 63.915672 5.895476 1.880790849211783e-38 1768976227
-19.100790 64.354462 5.634060 1.880790849211783e-38 1768976227
-18.604994 62.684010 5.073469 1.880790849211783e-38 1768976227
-19.102057 64.358719 4.783597 1.880790849211783e-38 1768976227
-19.449186 65.528267 4.521213 1.880790849211783e-38 1768976227
-19.682663 66.314903 4.137139 1.880790849211783e-38 1768976227
-13.945127 46.983971 9.838965 1.880790849211783e-38 1768976227
-14.067433 47.396046 9.409841 1.880790849211783e-38 1768976227
-15.501477 52.227631 16.048683 1.880790849211783e-38 1768976227
-15.342952 51.693531 15.476727 1.880790849211783e-38 1768976227
-14.354214 48.362278 17.789598 1.880790849211783e-38 1768976227
-14.417870 48.576740 17.547390 1.880790849211783e-38 1768976227
-15.745092 53.048424 15.339420 1.880790849211783e-38 1768976227
-15.340741 51.686089 14.460565 1.880790849211783e-38 1768976227
-14.630921 49.294559 17.354715 1.880790849211783e-38 1768976227
-14.638530 49.320190 16.869463 1.880790849211783e-38 1768976227
-15.040859 50.675720 13.637610 1.880790849211783e-38 1768976227
-15.699712 52.895531 13.580822 1.880790849211783e-38 1768976227
-15.288138 51.508854 17.035961 1.880790849211783e-38 1768976227
-13.914585 46.881073 14.945578 1.880790849211783e-38 1768976227
-14.720509 49.596401 9.434250 1.880790849211783e-38 1768976227
-14.602929 49.200241 8.897292 1.880790849211783e-38 1768976227
-15.568564 52.453667 12.863401 1.880790849211783e-38 1768976227
-15.156015 51.063702 12.195888 1.880790849211783e-38 1768976227
-15.636761 52.683430 9.077841 1.880790849211783e-38 1768976227
-16.600368 55.930035 9.124445 1.880790849211783e-38 1768976227
-16.316282 54.972878 12.578617 1.880790849211783e-38 1768976227
-15.213848 51.258553 11.335251 1.880790849211783e-38 1768976227
-19.081799 65.008606 8.456144 1.880790849211783e-38 1768976227
-18.160149 61.868698 7.718203 1.880790849211783e-38 1768976227
-18.281971 62.283726 7.385179 1.880790849211783e-38 1768976227
-18.565639 63.250134 7.041627 1.880790849211783e-38 1768976227
-18.550924 63.200001 9.876970 1.880790849211783e-38 1768976227
-18.365152 62.567112 9.351523 1.880790849211783e-38 1768976227
-18.266273 62.230244 6.636418 1.880790849211783e-38 1768976227
-18.687946 63.666817 6.355585 1.880790849211783e-38 1768976227
-15.704511 53.502728 7.688976 1.880790849211783e-38 1768976227
-16.425217 55.958057 7.708040 1.880790849211783e-38 1768976227
-19.484154 66.379372 3.684950 1.880790849211783e-38 1768976227
-18.421705 62.759769 5.783707 1.880790849211783e-38 1768976227
-18.460571 62.892189 5.501143 1.880790849211783e-38 1768976227
-18.858381 64.247452 5.195383 1.880790849211783e-38 1768976227
-16.387203 55.828548 4.145882 1.880790849211783e-38 1768976227
-19.444164 66.243126 4.566469 1.880790849211783e-38 1768976227
-19.423367 66.172279 4.124568 1.880790849211783e-38 1768976227
-13.823915 47.095844 9.853617 1.880790849211783e-38 1768976227
-13.891523 47.326176 9.387608 1.880790849211783e-38 1768976227
-15.318109 52.186325 16.021719 1.880790849211783e-38 1768976227
-15.173779 51.694603 15.463277 1.880790849211783e-38 1768976227
-14.236343 48.500919 17.824722 1.880790849211783e-38 1768976227
-14.330450 48.821529 17.620121 1.880790849211783e-38 1768976227
-15.080459 51.376686 14.842803 1.880790849211783e-38 1768976227
-15.345307 52.278984 14.613429 1.880790849211783e-38 1768976227
-14.568819 49.633614 17.458534 1.880790849211783e-38 1768976227
-14.743065 50.227238 17.164423 1.880790849211783e-38 1768976227
-14.977904 51.027298 13.720005 1.880790849211783e-38 1768976227
-15.640909 53.286049 13.668914 1.880790849211783e-38 1768976227
-14.684387 50.027336 16.531244 1.880790849211783e-38 1768976227
-13.759056 46.874886 14.930307 1.880790849211783e-38 1768976227
-14.577512 49.663235 9.438558 1.880790849211783e-38 1768976227
-14.744308 50.231476 9.075696 1.880790849211783e-38 1768976227
-15.295535 52.109413 12.767608 1.880790849211783e-38 1768976227
-14.849408 50.589535 12.071887 1.880790849211783e-38 1768976227
-15.298452 52.119358 8.972655 1.880790849211783e-38 1768976227
-16.305954 55.551746 9.054667 1.880790849211783e-38 1768976227
-16.017094 54.567654 12.474785 1.880790849211783e-38 1768976227
-14.982903 51.044334 11.277835 1.880790849211783e-38 1768976227
-18.767080 64.657372 8.403056 1.880790849211783e-38 1768976227
-18.327835 63.144058 7.870374 1.880790849211783e-38 1768976227
-18.232075 62.814137 7.441518 1.880790849211783e-38 1768976227
-18.088394 62.319118 6.931872 1.880790849211783e-38 1768976227
-18.392872 63.368122 9.894530 1.880790849211783e-38 1768976227
-18.354143 63.234695 9.442987 1.880790849211783e-38 1768976227
-18.522034 63.813122 6.799232 1.880790849211783e-38 1768976227
-18.274115 62.958977 6.279394 1.880790849211783e-38 1768976227
-15.607458 53.771667 7.720826 1.880790849211783e-38 1768976227
-16.417576 56.562729 7.784475 1.880790849211783e-38 1768976227
-19.256020 66.341888 3.679629 1.880790849211783e-38 1768976227
-18.685406 64.375977 5.927429 1.880790849211783e-38 1768976227
-18.564058 63.957909 5.589438 1.880790849211783e-38 1768976227
-15.858405 54.636242 4.414283 1.880790849211783e-38 1768976227
-19.069029 65.697662 4.874478 1.880790849211783e-38 1768976227
-19.091997 65.776794 4.530332 1.880790849211783e-38 1768976227
-19.313391 66.539551 4.143810 1.880790849211783e-38 1768976227
-13.883337 47.831635 9.998756 1.880790849211783e-38 1768976227
-13.768692 47.436646 9.401241 1.880790849211783e-38 1768976227
