# .PCD v0.7 - Point Cloud Data file format
VERSION 0.7
FIELDS x y z rgb label
SIZE 4 4 4 4 4
TYPE F F F F U
COUNT 1 1 1 1 1
WIDTH 750
HEIGHT 1
VIEWPOINT 0 0 0 1 0 0 0
POINTS 750
DATA ascii
-63.562901 59.389645 20.451227 1.880790849211783e-38 1768976227
-63.513302 59.343300 19.902220 1.880790849211783e-38 1768976227
-58.323299 54.494045 13.185186 1.880790849211783e-38 1768976227
-55.869377 52.201241 11.958343 1.880790849211783e-38 1768976227
-58.806831 54.945831 17.654194 1.880790849211783e-38 1768976227
-58.794693 54.934502 17.058413 1.880790849211783e-38 1768976227
-61.816330 58.107925 10.588992 1.880790849211783e-38 1768976227
-60.169205 56.559612 9.884831 1.880790849211783e-38 1768976227
-58.941196 55.405281 9.203547 1.880790849211783e-38 1768976227
-67.513588 63.463406 9.898118 1.880790849211783e-38 1768976227
-55.284283 51.967739 11.377797 1.880790849211783e-38 1768976227
-59.812111 56.223942 11.772677 1.880790849211783e-38 1768976227
-68.007851 63.928020 9.550831 1.880790849211783e-38 1768976227
-65.043251 61.141262 8.550559 1.880790849211783e-38 1768976227
-59.580452 56.006180 11.275770 1.880790849211783e-38 1768976227
-62.816505 59.048103 11.394753 1.880790849211783e-38 1768976227
-72.783707 68.417366 5.320869 1.880790849211783e-38 1768976227
-72.591248 68.236450 4.818028 1.880790849211783e-38 1768976227
-63.992092 60.153156 7.766066 1.880790849211783e-38 1768976227
-71.907158 67.593391 8.282819 1.880790849211783e-38 1768976227
-64.849777 60.959396 3.703823 1.880790849211783e-38 1768976227
-63.858479 60.027569 6.800332 1.880790849211783e-38 1768976227
-62.328766 58.589619 6.095355 1.880790849211783e-38 1768976227
-62.505360 58.755623 5.674228 1.880790849211783e-38 1768976227
-59.109264 55.563255 16.286152 1.880790849211783e-38 1768976227
-55.359650 52.038586 14.460945 1.880790849211783e-38 1768976227
-66.252602 62.278057 23.458729 1.880790849211783e-38 1768976227
-66.864532 62.853287 22.587393 1.880790849211783e-38 1768976227
-57.198193 53.766842 14.315377 1.880790849211783e-38 1768976227
-56.664192 53.264870 13.482255 1.880790849211783e-38 1768976227
-63.487595 59.678932 20.484814 1.880790849211783e-38 1768976227
-63.498543 59.689220 19.953913 1.880790849211783e-38 1768976227
-57.968262 54.490707 13.142017 1.880790849211783e-38 1768976227
-56.149208 52.780781 12.052255 1.880790849211783e-38 1768976227
-58.557220 55.044331 17.629017 1.880790849211783e-38 1768976227
-58.641209 55.123276 17.062038 1.880790849211783e-38 1768976227
-61.982430 58.617126 10.647675 1.880790849211783e-38 1768976227
-60.492607 57.208195 9.966258 1.880790849211783e-38 1768976227
-58.771736 55.580757 9.203215 1.880790849211783e-38 1768976227
-67.369400 63.711617 9.905101 1.880790849211783e-38 1768976227
-55.222481 52.224209 11.397437 1.880790849211783e-38 1768976227
-59.789871 56.543617 11.801807 1.880790849211783e-38 1768976227
-67.910416 64.223259 9.564302 1.880790849211783e-38 1768976227
-65.084152 61.550446 8.580297 1.880790849211783e-38 1768976227
-59.273853 56.055614 11.249684 1.880790849211783e-38 1768976227
-61.269577 57.942978 11.145788 1.880790849211783e-38 1768976227
-72.462944 68.528610 5.312503 1.880790849211783e-38 1768976227
-72.526550 68.588760 4.827440 1.880790849211783e-38 1768976227
-64.007294 60.532055 7.790028 1.880790849211783e-38 1768976227
-71.696022 67.803329 8.282013 1.880790849211783e-38 1768976227
-74.429588 70.388474 4.263068 1.880790849211783e-38 1768976227
-64.538460 61.034386 6.892312 1.880790849211783e-38 1768976227
-62.560928 59.164219 6.135478 1.880790849211783e-38 1768976227
-62.126389 58.753273 5.655883 1.880790849211783e-38 1768976227
-73.406898 69.421310 6.042601 1.880790849211783e-38 1768976227
-61.282047 57.954777 16.932886 1.880790849211783e-38 1768976227
-55.200001 52.202953 14.460299 1.880790849211783e-38 1768976227
-66.593651 62.977985 22.559937 1.880790849211783e-38 1768976227
-57.230545 54.123245 14.364256 1.880790849211783e-38 1768976227
-56.550034 53.479683 13.493403 1.880790849211783e-38 1768976227
-63.040169 59.617439 20.398363 1.880790849211783e-38 1768976227
-63.411663 59.968761 19.983347 1.880790849211783e-38 1768976227
-57.837193 54.696957 13.149635 1.880790849211783e-38 1768976227
-56.149185 53.100594 12.086565 1.880790849211783e-38 1768976227
-58.221207 55.060127 17.577766 1.880790849211783e-38 1768976227
-58.564678 55.384941 17.088287 1.880790849211783e-38 1768976227
-62.173370 59.153946 10.711075 1.880790849211783e-38 1768976227
-63.594280 60.505844 10.507280 1.880790849211783e-38 1768976227
-66.534149 63.302940 10.448602 1.880790849211783e-38 1768976227
-67.365486 64.093903 9.932900 1.880790849211783e-38 1768976227
-55.188995 52.508762 11.423161 1.880790849211783e-38 1768976227
-59.497459 56.607986 11.777736 1.880790849211783e-38 1768976227
-67.264366 63.997688 9.500455 1.880790849211783e-38 1768976227
-64.901428 61.749504 8.580720 1.880790849211783e-38 1768976227
-61.396648 58.414940 11.685958 1.880790849211783e-38 1768976227
-61.253555 58.278801 11.174799 1.880790849211783e-38 1768976227
-72.680229 69.150536 5.343699 1.880790849211783e-38 1768976227
-73.383003 69.819183 4.898440 1.880790849211783e-38 1768976227
-63.841038 60.740623 7.792055 1.880790849211783e-38 1768976227
-70.748611 67.312729 8.195987 1.880790849211783e-38 1768976227
-62.934494 59.878101 6.189798 1.880790849211783e-38 1768976227
-70.723961 67.289276 6.457039 1.880790849211783e-38 1768976227
-73.421776 69.856064 6.061141 1.880790849211783e-38 1768976227
-61.697933 58.701599 17.096642 1.880790849211783e-38 1768976227
-54.819454 52.157166 14.401752 1.880790849211783e-38 1768976227
-66.515930 63.285603 22.598166 1.880790849211783e-38 1768976227
-57.815453 55.007664 14.552634 1.880790849211783e-38 1768976227
-56.390438 53.651859 13.493871 1.880790849211783e-38 1768976227
-62.437237 59.405003 20.261152 1.880790849211783e-38 1768976227
-63.274212 60.201321 19.997160 1.880790849211783e-38 1768976227
-58.561836 55.717796 13.352532 1.880790849211783e-38 1768976227
-56.099525 53.375076 12.110473 1.880790849211783e-38 1768976227
-59.192993 56.318306 17.922361 1.880790849211783e-38 1768976227
-58.546150 55.702877 17.131823 1.880790849211783e-38 1768976227
-61.816502 59.170635 10.680290 1.880790849211783e-38 1768976227
-60.966328 58.356850 10.102115 1.880790849211783e-38 1768976227
-65.654999 62.844833 10.340257 1.880790849211783e-38 1768976227
-67.077034 64.206009 9.918877 1.880790849211783e-38 1768976227
-55.350872 52.981743 11.489688 1.880790849211783e-38 1768976227
-59.157040 56.625004 11.744102 1.880790849211783e-38 1768976227
-67.131706 64.258331 9.509048 1.880790849211783e-38 1768976227
-64.950394 62.170395 8.611946 1.880790849211783e-38 1768976227
-60.825493 58.222042 11.610616 1.880790849211783e-38 1768976227
-60.936520 58.328312 11.149002 1.880790849211783e-38 1768976227
-72.399132 69.300316 5.338375 1.880790849211783e-38 1768976227
-73.067207 69.939781 4.891418 1.880790849211783e-38 1768976227
-63.541012 60.821339 7.777789 1.880790849211783e-38 1768976227
-71.340706 68.287178 8.288400 1.880790849211783e-38 1768976227
-70.231987 67.225929 6.927439 1.880790849211783e-38 1768976227
-70.221855 67.216209 6.429675 1.880790849211783e-38 1768976227
-73.339287 70.200218 6.071782 1.880790849211783e-38 1768976227
-61.605263 58.968441 17.120167 1.880790849211783e-38 1768976227
-57.331158 54.877277 15.105021 1.880790849211783e-38 1768976227
-66.084915 63.256351 22.516449 1.880790849211783e-38 1768976227
-57.739933 55.268551 14.575517 1.880790849211783e-38 1768976227
-56.473545 54.056362 13.552709 1.880790849211783e-38 1768976227
-62.273308 59.607883 20.266201 1.880790849211783e-38 1768976227
-63.056683 60.357735 19.985853 1.880790849211783e-38 1768976227
-58.398350 55.898785 13.353636 1.880790849211783e-38 1768976227
-56.200699 53.795197 12.167283 1.880790849211783e-38 1768976227
-59.451336 56.906700 18.052464 1.880790849211783e-38 1768976227
-64.243790 61.494034 18.853258 1.880790849211783e-38 1768976227
-61.499897 59.224045 10.656402 1.880790849211783e-38 1768976227
-61.159462 58.896202 10.163505 1.880790849211783e-38 1768976227
-65.325661 62.908226 10.318223 1.880790849211783e-38 1768976227
-66.479279 64.019157 9.858992 1.880790849211783e-38 1768976227
-59.898640 57.682037 12.469765 1.880790849211783e-38 1768976227
-60.738739 58.491043 12.093073 1.880790849211783e-38 1768976227
-66.906471 64.430534 9.504625 1.880790849211783e-38 1768976227
-65.123528 62.713581 8.659942 1.880790849211783e-38 1768976227
-60.730213 58.482838 11.626045 1.880790849211783e-38 1768976227
-60.681034 58.435482 11.134454 1.880790849211783e-38 1768976227
-71.993057 69.328888 5.323826 1.880790849211783e-38 1768976227
-72.437340 69.756737 4.863315 1.880790849211783e-38 1768976227
-64.094955 61.723064 7.868345 1.880790849211783e-38 1768976227
-73.703484 70.976028 8.587740 1.880790849211783e-38 1768976227
-69.390060 66.822227 6.864242 1.880790849211783e-38 1768976227
-69.917084 67.329742 6.420334 1.880790849211783e-38 1768976227
-73.325096 70.611641 6.088211 1.880790849211783e-38 1768976227
-61.597458 59.317989 17.167637 1.880790849211783e-38 1768976227
-56.629150 54.533543 14.963329 1.880790849211783e-38 1768976227
-56.956783 54.849045 14.419516 1.880790849211783e-38 1768976227
-56.468281 54.378624 13.590743 1.880790849211783e-38 1768976227
-62.082752 59.785324 20.262775 1.880790849211783e-38 1768976227
-62.778858 60.455669 19.955496 1.880790849211783e-38 1768976227
-58.060417 55.911846 13.314861 1.880790849211783e-38 1768976227
-58.333881 56.175182 12.665732 1.880790849211783e-38 1768976227
-59.545551 57.342018 18.133505 1.880790849211783e-38 1768976227
-64.065681 61.694878 18.855509 1.880790849211783e-38 1768976227
-61.393929 59.479912 10.669075 1.880790849211783e-38 1768976227
-62.592968 60.641567 10.432072 1.880790849211783e-38 1768976227
-68.488182 66.352982 10.849304 1.880790849211783e-38 1768976227
-66.338348 64.270180 9.866793 1.880790849211783e-38 1768976227
-60.123329 58.248920 12.553056 1.880790849211783e-38 1768976227
-60.798763 58.903297 12.140339 1.880790849211783e-38 1768976227
-66.424088 64.353249 9.463629 1.880790849211783e-38 1768976227
-70.739883 68.534500 9.434233 1.880790849211783e-38 1768976227
-60.776691 58.881916 11.668887 1.880790849211783e-38 1768976227
-60.520164 58.633392 11.137334 1.880790849211783e-38 1768976227
-71.814705 69.575813 5.326131 1.880790849211783e-38 1768976227
-72.526939 70.265831 4.883536 1.880790849211783e-38 1768976227
-70.994171 68.780846 8.740724 1.880790849211783e-38 1768976227
-68.207520 66.081085 6.766946 1.880790849211783e-38 1768976227
-69.805099 67.628860 6.428752 1.880790849211783e-38 1768976227
-73.031403 70.754570 6.081516 1.880790849211783e-38 1768976227
-65.545753 63.502304 18.321350 1.880790849211783e-38 1768976227
-56.269432 54.515179 14.911656 1.880790849211783e-38 1768976227
-56.657196 54.890850 14.385518 1.880790849211783e-38 1768976227
-56.796314 55.025623 13.709573 1.880790849211783e-38 1768976227
-61.569786 59.650288 20.153978 1.880790849211783e-38 1768976227
-62.122597 60.185863 19.804501 1.880790849211783e-38 1768976227
-58.902573 57.066223 13.547400 1.880790849211783e-38 1768976227
-60.029564 58.158085 13.071933 1.880790849211783e-38 1768976227
-69.459183 67.293724 20.502539 1.880790849211783e-38 1768976227
-61.947933 60.379906 10.796947 1.880790849211783e-38 1768976227
-62.782749 61.193592 10.494413 1.880790849211783e-38 1768976227
-63.933441 62.315155 10.157508 1.880790849211783e-38 1768976227
-65.632851 63.971550 9.790513 1.880790849211783e-38 1768976227
-59.399712 57.896187 12.438375 1.880790849211783e-38 1768976227
-60.300732 58.774403 12.076234 1.880790849211783e-38 1768976227
-66.279541 64.601875 9.470751 1.880790849211783e-38 1768976227
-70.577393 68.790947 9.440189 1.880790849211783e-38 1768976227
-60.387070 58.858555 11.628111 1.880790849211783e-38 1768976227
-60.109116 58.587631 11.094156 1.880790849211783e-38 1768976227
-72.353683 70.522263 5.381854 1.880790849211783e-38 1768976227
-72.064850 70.240738 4.866664 1.880790849211783e-38 1768976227
-68.945183 67.200050 6.860207 1.880790849211783e-38 1768976227
-67.891113 66.172653 6.270833 1.880790849211783e-38 1768976227
-73.097160 71.246918 6.104857 1.880790849211783e-38 1768976227
-65.552048 63.892792 18.376890 1.880790849211783e-38 1768976227
-56.248028 54.824276 14.949733 1.880790849211783e-38 1768976227
-56.381115 54.953991 14.357435 1.880790849211783e-38 1768976227
-57.568420 56.111252 13.936731 1.880790849211783e-38 1768976227
-61.543865 59.986069 20.204622 1.880790849211783e-38 1768976227
-61.023403 59.478783 14.076379 1.880790849211783e-38 1768976227
-60.008915 58.489964 13.105789 1.880790849211783e-38 1768976227
-68.024605 66.302757 20.837059 1.880790849211783e-38 1768976227
-69.127014 67.377266 20.464380 1.880790849211783e-38 1768976227
-59.774467 58.614040 10.448897 1.880790849211783e-38 1768976227
-62.374893 61.163986 10.457026 1.880790849211783e-38 1768976227
-63.197796 61.970917 10.070281 1.880790849211783e-38 1768976227
-65.661980 64.387253 9.823781 1.880790849211783e-38 1768976227
-60.092518 58.925922 12.620607 1.880790849211783e-38 1768976227
-59.700550 58.541553 11.991341 1.880790849211783e-38 1768976227
-70.094460 68.733688 10.045444 1.880790849211783e-38 1768976227
-70.445992 69.078400 9.450438 1.880790849211783e-38 1768976227
-59.525669 58.370071 11.496086 1.880790849211783e-38 1768976227
-59.980358 58.815933 11.103082 1.880790849211783e-38 1768976227
-71.381897 69.996132 5.325248 1.880790849211783e-38 1768976227
-72.240784 70.838341 4.892951 1.880790849211783e-38 1768976227
-68.693947 67.360359 6.855391 1.880790849211783e-38 1768976227
-68.039246 66.718369 6.303073 1.880790849211783e-38 1768976227
-73.155357 71.735161 6.127759 1.880790849211783e-38 1768976227
-64.349609 63.100368 18.093067 1.880790849211783e-38 1768976227
-55.946598 54.860481 14.913527 1.880790849211783e-38 1768976227
-55.781216 54.698307 14.246616 1.880790849211783e-38 1768976227
-56.984016 55.877762 13.835988 1.880790849211783e-38 1768976227
-60.926918 59.744122 20.061146 1.880790849211783e-38 1768976227
-63.258808 62.030743 14.635113 1.880790849211783e-38 1768976227
-59.686111 58.527401 13.073782 1.880790849211783e-38 1768976227
-64.870865 63.611492 19.261095 1.880790849211783e-38 1768976227
-59.444275 58.642918 10.422042 1.880790849211783e-38 1768976227
-62.186588 61.348267 10.456425 1.880790849211783e-38 1768976227
-61.447842 60.619480 9.820518 1.880790849211783e-38 1768976227
-65.137939 64.259827 9.774325 1.880790849211783e-38 1768976227
-59.775475 58.969658 12.591311 1.880790849211783e-38 1768976227
-59.556263 58.753403 11.997893 1.880790849211783e-38 1768976227
-69.876022 68.934036 10.043884 1.880790849211783e-38 1768976227
-70.876778 69.921303 9.536470 1.880790849211783e-38 1768976227
-59.241940 58.443310 11.475275 1.880790849211783e-38 1768976227
-59.745495 58.940079 11.092456 1.880790849211783e-38 1768976227
-71.286812 70.325813 5.333951 1.880790849211783e-38 1768976227
-72.084114 71.112358 4.896841 1.880790849211783e-38 1768976227
-71.021240 70.063820 7.108699 1.880790849211783e-38 1768976227
-67.746841 66.833565 6.294627 1.880790849211783e-38 1768976227
-72.871712 71.889343 6.122131 1.880790849211783e-38 1768976227
-62.557407 61.714085 17.641401 1.880790849211783e-38 1768976227
-56.162815 55.405697 15.015632 1.880790849211783e-38 1768976227
-61.220947 60.395641 15.682377 1.880790849211783e-38 1768976227
-57.140659 56.370361 13.915234 1.880790849211783e-38 1768976227
-60.990314 60.168118 14.152202 1.880790849211783e-38 1768976227
-59.542221 58.739544 13.081003 1.880790849211783e-38 1768976227
-64.991302 64.115173 19.354176 1.880790849211783e-38 1768976227
-65.312500 64.821884 11.485111 1.880790849211783e-38 1768976227
-62.222420 61.755016 10.493719 1.880790849211783e-38 1768976227
-61.787651 61.323521 9.904339 1.880790849211783e-38 1768976227
-69.921410 69.396179 10.523472 1.880790849211783e-38 1768976227
-60.204605 59.752361 12.719607 1.880790849211783e-38 1768976227
-59.576260 59.128742 12.037793 1.880790849211783e-38 1768976227
-69.719109 69.195396 10.051282 1.880790849211783e-38 1768976227
-71.101898 70.567802 9.595353 1.880790849211783e-38 1768976227
-59.116737 58.672672 11.485249 1.880790849211783e-38 1768976227
-59.925632 59.475483 11.159154 1.880790849211783e-38 1768976227
-70.821083 70.289101 5.314942 1.880790849211783e-38 1768976227
-71.433861 70.897263 4.867172 1.880790849211783e-38 1768976227
-66.760025 66.258537 6.221477 1.880790849211783e-38 1768976227
-72.333260 71.789909 6.095057 1.880790849211783e-38 1768976227
-62.928970 62.456264 17.799223 1.880790849211783e-38 1768976227
-55.664547 55.246407 14.926895 1.880790849211783e-38 1768976227
-65.787125 65.292946 16.902420 1.880790849211783e-38 1768976227
-57.301006 56.870571 13.995988 1.880790849211783e-38 1768976227
-60.919312 60.461693 14.177974 1.880790849211783e-38 1768976227
-59.161194 58.716793 13.036141 1.880790849211783e-38 1768976227
-64.709732 64.223648 19.327919 1.880790849211783e-38 1768976227
-65.252953 65.154617 11.509143 1.880790849211783e-38 1768976227
-61.443001 61.350418 10.393430 1.880790849211783e-38 1768976227
-61.499016 61.406338 9.887713 1.880790849211783e-38 1768976227
-62.690304 62.595840 9.463531 1.880790849211783e-38 1768976227
-59.849274 59.759087 12.682557 1.880790849211783e-38 1768976227
-59.619305 59.529469 12.082712 1.880790849211783e-38 1768976227
-69.982048 69.876595 10.119527 1.880790849211783e-38 1768976227
-70.451241 70.345078 9.536134 1.880790849211783e-38 1768976227
-59.253929 59.164631 11.546515 1.880790849211783e-38 1768976227
-59.647038 59.557159 11.140674 1.880790849211783e-38 1768976227
-69.973648 69.868210 5.267134 1.880790849211783e-38 1768976227
-71.511368 71.403610 4.887104 1.880790849211783e-38 1768976227
-67.922173 67.819824 6.348813 1.880790849211783e-38 1768976227
-72.176239 72.067482 6.100113 1.880790849211783e-38 1768976227
-65.807755 65.708588 18.669443 1.880790849211783e-38 1768976227
-55.540482 55.456791 14.938412 1.880790849211783e-38 1768976227
-65.619995 65.521111 16.910172 1.880790849211783e-38 1768976227
-63.140331 63.045189 15.468639 1.880790849211783e-38 1768976227
-60.217896 60.127151 14.056872 1.880790849211783e-38 1768976227
-59.305050 59.215679 13.107133 1.880790849211783e-38 1768976227
-64.448799 64.351685 19.307865 1.880790849211783e-38 1768976227
-64.894005 65.188248 11.480456 1.880790849211783e-38 1768976227
-64.928368 65.222763 11.016224 1.880790849211783e-38 1768976227
-61.446037 61.724648 9.909081 1.880790849211783e-38 1768976227
-62.030544 62.311802 9.392262 1.880790849211783e-38 1768976227
-59.906895 60.178524 12.733170 1.880790849211783e-38 1768976227
-59.424843 59.694286 12.079735 1.880790849211783e-38 1768976227
-69.758926 70.075226 10.117777 1.880790849211783e-38 1768976227
-70.270012 70.588638 9.540378 1.880790849211783e-38 1768976227
-59.139236 59.407387 11.559030 1.880790849211783e-38 1768976227
-58.848030 59.114861 11.024688 1.880790849211783e-38 1768976227
-70.691536 71.012070 4.845691 1.880790849211783e-38 1768976227
-70.846939 71.168175 6.642229 1.880790849211783e-38 1768976227
-71.241982 71.565010 6.039367 1.880790849211783e-38 1768976227
-65.448631 65.745392 18.623732 1.880790849211783e-38 1768976227
-55.468693 55.720200 14.964233 1.880790849211783e-38 1768976227
-65.306847 65.602959 16.880386 1.880790849211783e-38 1768976227
-63.962757 64.252777 15.717527 1.880790849211783e-38 1768976227
-60.727806 61.003155 14.218786 1.880790849211783e-38 1768976227
-59.374039 59.643253 13.162077 1.880790849211783e-38 1768976227
-65.037140 65.332031 19.543064 1.880790849211783e-38 1768976227
-63.978230 64.657166 11.352893 1.880790849211783e-38 1768976227
-64.491676 65.176071 10.975433 1.880790849211783e-38 1768976227
-60.905540 61.551880 9.851811 1.880790849211783e-38 1768976227
-61.722805 62.377808 9.374109 1.880790849211783e-38 1768976227
-59.738613 60.372566 12.736047 1.880790849211783e-38 1768976227
-59.382000 60.012165 12.107762 1.880790849211783e-38 1768976227
-62.348515 63.010159 9.070498 1.880790849211783e-38 1768976227
-70.206367 70.951401 9.560745 1.880790849211783e-38 1768976227
-58.989845 59.615852 11.564920 1.880790849211783e-38 1768976227
-58.731167 59.354427 11.036282 1.880790849211783e-38 1768976227
-66.825584 67.534737 5.682219 1.880790849211783e-38 1768976227
-64.955910 65.645226 18.539780 1.880790849211783e-38 1768976227
-55.085354 55.669918 14.906045 1.880790849211783e-38 1768976227
-65.581902 66.277855 17.003073 1.880790849211783e-38 1768976227
-63.525887 64.200020 15.657683 1.880790849211783e-38 1768976227
-60.280483 60.920174 14.157004 1.880790849211783e-38 1768976227
-60.535587 61.177998 13.460413 1.880790849211783e-38 1768976227
-66.595528 67.302246 20.072248 1.880790849211783e-38 1768976227
-64.288841 65.364204 11.442943 1.880790849211783e-38 1768976227
-64.204369 65.278320 10.959993 1.880790849211783e-38 1768976227
-64.336258 65.412415 10.438613 1.880790849211783e-38 1768976227
-61.299576 62.324936 9.338337 1.880790849211783e-38 1768976227
-58.686348 59.667999 12.550015 1.880790849211783e-38 1768976227
-59.330513 60.322933 12.134305 1.880790849211783e-38 1768976227
-61.308136 62.333637 8.946453 1.880790849211783e-38 1768976227
-69.697823 70.863663 9.520553 1.880790849211783e-38 1768976227
-59.151154 60.140579 11.632052 1.880790849211783e-38 1768976227
-58.799534 59.783081 11.082960 1.880790849211783e-38 1768976227
-67.296112 68.421768 5.739749 1.880790849211783e-38 1768976227
-64.679230 65.761124 18.517334 1.880790849211783e-38 1768976227
-64.251312 65.326042 17.439581 1.880790849211783e-38 1768976227
-65.210495 66.301270 16.958546 1.880790849211783e-38 1768976227
-63.007412 64.061340 15.577443 1.880790849211783e-38 1768976227
-60.083469 61.088482 14.153942 1.880790849211783e-38 1768976227
-60.574482 61.587704 13.510301 1.880790849211783e-38 1768976227
-66.294815 67.403732 20.042793 1.880790849211783e-38 1768976227
-62.693420 64.127823 11.193343 1.880790849211783e-38 1768976227
-63.083057 64.526375 10.801753 1.880790849211783e-38 1768976227
-63.065331 64.508247 10.263924 1.880790849211783e-38 1768976227
-60.753891 62.143917 9.283718 1.880790849211783e-38 1768976227
-59.700893 61.066826 12.806303 1.880790849211783e-38 1768976227
-59.321953 60.679214 12.169929 1.880790849211783e-38 1768976227
-61.215199 62.615772 8.960408 1.880790849211783e-38 1768976227
-58.933235 60.281612 11.624899 1.880790849211783e-38 1768976227
-58.805950 60.151405 11.118312 1.880790849211783e-38 1768976227
-64.317406 65.788971 18.470469 1.880790849211783e-38 1768976227
-63.863491 65.324669 17.387714 1.880790849211783e-38 1768976227
-65.132706 66.622925 16.990496 1.880790849211783e-38 1768976227
-63.954540 65.417801 15.860310 1.880790849211783e-38 1768976227
-63.318218 64.766914 14.961904 1.880790849211783e-38 1768976227
-60.783749 62.174461 13.598737 1.880790849211783e-38 1768976227
-65.150085 66.640701 20.443209 1.880790849211783e-38 1768976227
-64.834351 66.317741 19.661634 1.880790849211783e-38 1768976227
-58.050964 59.738468 10.396590 1.880790849211783e-38 1768976227
-62.752190 64.576363 10.778394 1.880790849211783e-38 1768976227
-62.891659 64.719887 10.267376 1.880790849211783e-38 1768976227
-63.579815 65.428047 9.745649 1.880790849211783e-38 1768976227
-59.929169 61.671268 12.895104 1.880790849211783e-38 1768976227
-59.047726 60.764206 12.151206 1.880790849211783e-38 1768976227
-60.765762 62.532188 8.922184 1.880790849211783e-38 1768976227
-58.936874 60.650135 11.661640 1.880790849211783e-38 1768976227
-58.093681 59.782425 11.017679 1.880790849211783e-38 1768976227
-63.956406 65.815582 18.423708 1.880790849211783e-38 1768976227
-64.883629 66.769745 17.720196 1.880790849211783e-38 1768976227
-64.955597 66.843811 16.996796 1.880790849211783e-38 1768976227
-63.640530 65.490517 15.831341 1.880790849211783e-38 1768976227
-63.379795 65.222198 15.022861 1.880790849211783e-38 1768976227
-58.931652 60.644753 13.225233 1.880790849211783e-38 1768976227
-65.054703 66.945801 20.476534 1.880790849211783e-38 1768976227
-65.030991 66.921402 19.782375 1.880790849211783e-38 1768976227
-58.207031 60.261662 10.457044 1.880790849211783e-38 1768976227
-62.208302 64.404167 10.718289 1.880790849211783e-38 1768976227
-62.655285 64.866928 10.260679 1.880790849211783e-38 1768976227
-63.061337 65.287315 9.696313 1.880790849211783e-38 1768976227
-59.907444 62.022095 12.930621 1.880790849211783e-38 1768976227
-59.775429 61.885410 12.339310 1.880790849211783e-38 1768976227
-63.403065 65.641098 9.338441 1.880790849211783e-38 1768976227
-59.209660 61.299686 11.752144 1.880790849211783e-38 1768976227
-58.832561 60.909275 11.192600 1.880790849211783e-38 1768976227
-63.672398 65.919952 18.399084 1.880790849211783e-38 1768976227
-64.811073 67.098808 17.755569 1.880790849211783e-38 1768976227
-64.786514 67.073387 17.005409 1.880790849211783e-38 1768976227
-63.927647 66.184204 15.952349 1.880790849211783e-38 1768976227
-63.048496 65.274017 14.990929 1.880790849211783e-38 1768976227
-58.782269 60.857197 13.232840 1.880790849211783e-38 1768976227
-64.594681 66.874779 20.395128 1.880790849211783e-38 1768976227
-65.850258 68.174683 20.094053 1.880790849211783e-38 1768976227
-58.217735 60.637657 10.491774 1.880790849211783e-38 1768976227
-61.983921 64.560402 10.713129 1.880790849211783e-38 1768976227
-61.736332 64.302521 10.141901 1.880790849211783e-38 1768976227
-62.423882 65.018646 9.628407 1.880790849211783e-38 1768976227
-59.968884 62.461605 12.984486 1.880790849211783e-38 1768976227
-59.655819 62.135529 12.353249 1.880790849211783e-38 1768976227
-63.138474 65.762939 9.328642 1.880790849211783e-38 1768976227
-59.060196 61.515144 11.759248 1.880790849211783e-38 1768976227
-58.635349 61.072636 11.190072 1.880790849211783e-38 1768976227
-63.741581 66.391121 18.476851 1.880790849211783e-38 1768976227
-64.376549 67.052483 17.691851 1.880790849211783e-38 1768976227
-63.633682 66.278740 16.755205 1.880790849211783e-38 1768976227
-69.734459 72.633102 17.455950 1.880790849211783e-38 1768976227
-63.037113 65.657372 15.035237 1.880790849211783e-38 1768976227
-59.117367 61.574688 13.350021 1.880790849211783e-38 1768976227
-65.545898 68.270432 20.063917 1.880790849211783e-38 1768976227
-58.358574 61.152466 10.550345 1.880790849211783e-38 1768976227
-61.820713 64.780357 10.718641 1.880790849211783e-38 1768976227
-61.568264 64.515823 10.146212 1.880790849211783e-38 1768976227
-62.729328 65.732468 9.706053 1.880790849211783e-38 1768976227
-60.297523 63.184242 13.096843 1.880790849211783e-38 1768976227
-61.058392 63.981537 12.683587 1.880790849211783e-38 1768976227
-60.802921 63.713837 12.144441 1.880790849211783e-38 1768976227
-58.929012 61.750217 11.281607 1.880790849211783e-38 1768976227
-63.165691 66.189720 18.367701 1.880790849211783e-38 1768976227
-64.138870 67.209496 17.682159 1.880790849211783e-38 1768976227
-63.581627 66.625580 16.794333 1.880790849211783e-38 1768976227
-62.971996 65.986763 15.067106 1.880790849211783e-38 1768976227
-59.362022 62.203957 13.447576 1.880790849211783e-38 1768976227
-66.083969 69.247719 20.292463 1.880790849211783e-38 1768976227
-58.049877 61.197487 10.527859 1.880790849211783e-38 1768976227
-61.433678 64.764763 10.685353 1.880790849211783e-38 1768976227
-61.534790 64.871353 10.172891 1.880790849211783e-38 1768976227
-61.179417 64.496712 9.496292 1.880790849211783e-38 1768976227
-62.904854 66.315704 13.706546 1.880790849211783e-38 1768976227
-60.113995 63.373516 12.527057 1.880790849211783e-38 1768976227
-61.852341 65.206116 9.196563 1.880790849211783e-38 1768976227
-60.975765 64.282013 12.217630 1.880790849211783e-38 1768976227
-60.581940 63.866837 11.634873 1.880790849211783e-38 1768976227
-63.161526 66.586296 18.424801 1.880790849211783e-38 1768976227
-63.879536 67.343239 17.666578 1.880790849211783e-38 1768976227
-63.412029 66.850380 16.802713 1.880790849211783e-38 1768976227
-64.365723 67.855789 16.214211 1.880790849211783e-38 1768976227
-63.277065 66.708099 15.188168 1.880790849211783e-38 1768976227
-62.827232 66.233879 14.277755 1.880790849211783e-38 1768976227
-65.745712 69.310608 20.252693 1.880790849211783e-38 1768976227
-60.014503 63.652027 10.918927 1.880790849211783e-38 1768976227
-58.133957 61.657490 10.143721 1.880790849211783e-38 1768976227
-60.977924 64.673836 10.113030 1.880790849211783e-38 1768976227
-61.151638 64.858078 9.522301 1.880790849211783e-38 1768976227
-65.802498 69.790825 14.383720 1.880790849211783e-38 1768976227
-60.178520 63.825981 12.580561 1.880790849211783e-38 1768976227
-61.320869 65.037567 9.146665 1.880790849211783e-38 1768976227
-60.495945 64.162636 12.160210 1.880790849211783e-38 1768976227
-60.717747 64.397888 11.698203 1.880790849211783e-38 1768976227
-62.849960 66.659340 18.392479 1.880790849211783e-38 1768976227
-63.724190 67.586563 17.679911 1.880790849211783e-38 1768976227
-62.793865 66.599838 16.692062 1.880790849211783e-38 1768976227
-63.499207 67.347931 16.047024 1.880790849211783e-38 1768976227
-62.115692 65.880554 14.957031 1.880790849211783e-38 1768976227
-62.686329 66.485786 14.291239 1.880790849211783e-38 1768976227
-65.310875 69.269417 20.183008 1.880790849211783e-38 1768976227
-60.316887 64.360519 11.009209 1.880790849211783e-38 1768976227
-58.477200 62.397503 10.236403 1.880790849211783e-38 1768976227
-60.965176 65.052277 10.143409 1.880790849211783e-38 1768976227
-61.105209 65.201698 9.545649 1.880790849211783e-38 1768976227
-65.463577 69.852249 14.355622 1.880790849211783e-38 1768976227
-62.390324 66.572960 13.084863 1.880790849211783e-38 1768976227
-61.712109 65.849289 9.234604 1.880790849211783e-38 1768976227
-60.222370 64.259674 12.144120 1.880790849211783e-38 1768976227
-60.284798 64.326279 11.652114 1.880790849211783e-38 1768976227
-64.623810 68.956177 18.972355 1.880790849211783e-38 1768976227
-62.043625 66.203018 17.268963 1.880790849211783e-38 1768976227
-62.162514 66.329880 16.577337 1.880790849211783e-38 1768976227
-64.093582 68.390411 15.482891 1.880790849211783e-38 1768976227
-62.958565 67.179306 14.399429 1.880790849211783e-38 1768976227
-64.904518 69.255707 20.121885 1.880790849211783e-38 1768976227
-60.491508 64.938217 11.076774 1.880790849211783e-38 1768976227
-59.873951 64.275261 10.514785 1.880790849211783e-38 1768976227
-57.853767 62.106579 9.656847 1.880790849211783e-38 1768976227
-60.512703 64.960968 9.483647 1.880790849211783e-38 1768976227
-67.557953 72.524117 14.862794 1.880790849211783e-38 1768976227
-65.749535 70.582771 13.833954 1.880790849211783e-38 1768976227
-61.107704 65.599709 9.173721 1.880790849211783e-38 1768976227
-59.617195 63.999634 12.060947 1.880790849211783e-38 1768976227
-59.954075 64.361282 11.625652 1.880790849211783e-38 1768976227
-65.079857 69.863853 19.168007 1.880790849211783e-38 1768976227
-61.884926 66.434067 17.280474 1.880790849211783e-38 1768976227
-65.327919 70.130142 15.832080 1.880790849211783e-38 1768976227
-67.848366 72.835876 15.567952 1.880790849211783e-38 1768976227
-64.512543 69.254829 20.065018 1.880790849211783e-38 1768976227
-59.860020 64.650169 10.996794 1.880790849211783e-38 1768976227
-60.275833 65.099251 10.619794 1.880790849211783e-38 1768976227
-60.249508 65.070824 10.089453 1.880790849211783e-38 1768976227
-60.449749 65.287094 9.504598 1.880790849211783e-38 1768976227
-62.597660 67.606873 13.816321 1.880790849211783e-38 1768976227
-65.347527 70.576797 13.794092 1.880790849211783e-38 1768976227
-60.857761 65.727753 9.165916 1.880790849211783e-38 1768976227
-59.205334 63.943089 12.016585 1.880790849211783e-38 1768976227
-59.658596 64.432625 11.605985 1.880790849211783e-38 1768976227
-64.313766 69.460312 19.003984 1.880790849211783e-38 1768976227
-65.491104 70.731857 18.346933 1.880790849211783e-38 1768976227
-66.059906 71.346184 16.061550 1.880790849211783e-38 1768976227
-67.413635 72.808243 15.518517 1.880790849211783e-38 1768976227
-64.048096 69.173386 19.985363 1.880790849211783e-38 1768976227
-59.706085 64.875305 11.004410 1.880790849211783e-38 1768976227
-59.699604 64.868271 10.552691 1.880790849211783e-38 1768976227
-60.155209 65.363319 10.106629 1.880790849211783e-38 1768976227
-60.164715 65.373650 9.490739 1.880790849211783e-38 1768976227
-64.785004 70.393951 13.720103 1.880790849211783e-38 1768976227
-60.345303 65.569870 9.118477 1.880790849211783e-38 1768976227
-65.463303 71.130974 13.330214 1.880790849211783e-38 1768976227
-59.043762 64.155647 11.523965 1.880790849211783e-38 1768976227
-63.794697 69.317909 18.912294 1.880790849211783e-38 1768976227
-65.021606 70.651031 18.275017 1.880790849211783e-38 1768976227
-65.941643 71.650734 16.085264 1.880790849211783e-38 1768976227
-67.098694 72.907944 15.496566 1.880790849211783e-38 1768976227
-63.444878 68.937798 19.861923 1.880790849211783e-38 1768976227
-59.404442 64.939522 10.984861 1.880790849211783e-38 1768976227
-59.704678 65.267738 10.588335 1.880790849211783e-38 1768976227
-59.964565 65.551834 10.107768 1.880790849211783e-38 1768976227
-60.218521 65.829460 9.530502 1.880790849211783e-38 1768976227
-68.148064 74.497849 14.479847 1.880790849211783e-38 1768976227
-59.980274 65.569016 9.093161 1.880790849211783e-38 1768976227
-64.924789 70.974243 13.264086 1.880790849211783e-38 1768976227
-58.859425 64.343727 11.525810 1.880790849211783e-38 1768976227
-64.009933 69.974144 19.038580 1.880790849211783e-38 1768976227
-63.630432 69.559280 17.942894 1.880790849211783e-38 1768976227
-64.394455 70.394493 17.397755 1.880790849211783e-38 1768976227
-65.857605 71.993973 16.117659 1.880790849211783e-38 1768976227
-66.814934 73.040512 15.481838 1.880790849211783e-38 1768976227
-63.173588 69.059875 19.842110 1.880790849211783e-38 1768976227
-59.059006 64.954185 10.508523 1.880790849211783e-38 1768976227
-59.136715 65.039658 10.001245 1.880790849211783e-38 1768976227
-59.339844 65.263062 9.422547 1.880790849211783e-38 1768976227
-67.263115 73.977211 14.339157 1.880790849211783e-38 1768976227
-59.622936 65.574409 9.068929 1.880790849211783e-38 1768976227
-66.728165 73.388870 13.677670 1.880790849211783e-38 1768976227
-68.700943 75.558563 13.497532 1.880790849211783e-38 1768976227
-65.736420 72.298126 15.282389 1.880790849211783e-38 1768976227
-68.695816 76.012245 11.656605 1.880790849211783e-38 1768976227
-67.046486 74.187263 14.340611 1.880790849211783e-38 1768976227
-66.975304 74.108498 13.774080 1.880790849211783e-38 1768976227
-67.771194 74.989159 13.359241 1.880790849211783e-38 1768976227
-64.570160 71.447189 15.061283 1.880790849211783e-38 1768976227
-67.500320 75.143784 14.486091 1.880790849211783e-38 1768976227
-66.275475 73.780235 13.675855 1.880790849211783e-38 1768976227
-67.606445 75.261917 13.371449 1.880790849211783e-38 1768976227
-64.751137 72.083290 15.154140 1.880790849211783e-38 1768976227
-66.184334 74.127197 14.901612 1.880790849211783e-38 1768976227
-66.862991 74.887299 14.397712 1.880790849211783e-38 1768976227
-66.487434 74.466675 13.765867 1.880790849211783e-38 1768976227
-67.233566 75.302361 13.342551 1.880790849211783e-38 1768976227
-64.267426 71.980240 15.091662 1.880790849211783e-38 1768976227
-67.119751 75.632797 12.621030 1.880790849211783e-38 1768976227
-64.642235 72.841049 14.603803 1.880790849211783e-38 1768976227
-66.712059 75.173393 14.413967 1.880790849211783e-38 1768976227
-66.582260 75.027130 13.832288 1.880790849211783e-38 1768976227
-65.768188 74.109802 13.096043 1.880790849211783e-38 1768976227
-67.202950 76.188156 12.679824 1.880790849211783e-38 1768976227
-66.886330 75.829208 12.103359 1.880790849211783e-38 1768976227
-65.278725 74.006660 14.797953 1.880790849211783e-38 1768976227
-66.002998 74.827766 14.309462 1.880790849211783e-38 1768976227
-66.578392 75.480095 13.878715 1.880790849211783e-38 1768976227
-66.670021 75.583984 13.320952 1.880790849211783e-38 1768976227
-66.869026 76.272064 12.660166 1.880790849211783e-38 1768976227
-66.662163 76.036110 12.104239 1.880790849211783e-38 1768976227
-65.308640 74.492256 14.855597 1.880790849211783e-38 1768976227
-65.672005 74.906723 14.286617 1.880790849211783e-38 1768976227
-66.384689 75.719612 13.885879 1.880790849211783e-38 1768976227
-65.751175 74.997025 13.182498 1.880790849211783e-38 1768976227
-66.779091 76.634521 12.686839 1.880790849211783e-38 1768976227
-66.375214 76.171043 12.093795 1.880790849211783e-38 1768976227
-65.694962 75.390396 14.341011 1.880790849211783e-38 1768976227
-65.903770 75.630013 13.832932 1.880790849211783e-38 1768976227
-66.329765 76.118874 13.344465 1.880790849211783e-38 1768976227
-65.902199 76.090332 12.563788 1.880790849211783e-38 1768976227
-65.958282 76.155083 12.059621 1.880790849211783e-38 1768976227
-64.428734 74.389084 14.113510 1.880790849211783e-38 1768976227
-65.554398 75.688766 13.807453 1.880790849211783e-38 1768976227
-65.842323 76.021202 13.292468 1.880790849211783e-38 1768976227
-65.542557 76.137894 12.538945 1.880790849211783e-38 1768976227
-65.057968 75.574974 13.750838 1.880790849211783e-38 1768976227
-65.831444 76.473480 13.336772 1.880790849211783e-38 1768976227
-65.362709 76.393761 12.548559 1.880790849211783e-38 1768976227
-64.988594 75.956512 13.212372 1.880790849211783e-38 1768976227
-64.965034 76.394119 12.516382 1.880790849211783e-38 1768976227
-64.689636 76.536819 12.507739 1.880790849211783e-38 1768976227
-32.612461 48.695320 -2.017727 1.880790849211783e-38 1768976227
-31.940334 48.004238 -1.702216 1.880790849211783e-38 1768976227
-32.243271 48.459530 -2.003919 1.880790849211783e-38 1768976227
-32.166935 48.662403 -1.364382 1.880790849211783e-38 1768976227
-31.568411 47.756950 -1.690064 1.880790849211783e-38 1768976227
-31.727785 47.998051 -1.980869 1.880790849211783e-38 1768976227
-32.163288 48.977356 -1.047093 1.880790849211783e-38 1768976227
-31.647961 48.192627 -1.348528 1.880790849211783e-38 1768976227
-31.689034 48.255173 -1.704305 1.880790849211783e-38 1768976227
-31.341820 47.726444 -1.965750 1.880790849211783e-38 1768976227
-31.871071 48.852863 -0.672743 1.880790849211783e-38 1768976227
-31.888931 48.880241 -1.042956 1.880790849211783e-38 1768976227
-31.505077 48.291859 -1.348640 1.880790849211783e-38 1768976227
-31.332729 48.027676 -1.692925 1.880790849211783e-38 1768976227
-31.388371 48.112968 -1.977762 1.880790849211783e-38 1768976227
-31.704315 48.918980 -0.338678 1.880790849211783e-38 1768976227
-31.378426 48.416142 -0.665423 1.880790849211783e-38 1768976227
-31.269247 48.247684 -1.027442 1.880790849211783e-38 1768976227
-31.402933 48.453957 -1.350516 1.880790849211783e-38 1768976227
-30.856903 47.611446 -1.674966 1.880790849211783e-38 1768976227
-30.719658 47.399677 -1.944624 1.880790849211783e-38 1768976227
-31.460039 48.864349 -0.337642 1.880790849211783e-38 1768976227
-31.294743 48.607609 -0.666755 1.880790849211783e-38 1768976227
-30.852907 47.921337 -1.018507 1.880790849211783e-38 1768976227
-30.740555 47.746830 -1.328217 1.880790849211783e-38 1768976227
-30.540747 47.436485 -1.665563 1.880790849211783e-38 1768976227
-30.631067 47.576767 -1.948091 1.880790849211783e-38 1768976227
-31.264465 48.560577 0.042247 1.880790849211783e-38 1768976227
-31.207111 48.794186 -0.336505 1.880790849211783e-38 1768976227
-30.638077 47.904472 -0.655839 1.880790849211783e-38 1768976227
-30.972202 48.426899 -1.027262 1.880790849211783e-38 1768976227
-30.878017 48.279629 -1.340441 1.880790849211783e-38 1768976227
-30.360685 47.470757 -1.663543 1.880790849211783e-38 1768976227
-30.445244 47.602962 -1.945395 1.880790849211783e-38 1768976227
-31.550056 49.330406 0.354051 1.880790849211783e-38 1768976227
-31.389465 49.079315 0.042615 1.880790849211783e-38 1768976227
-30.850595 48.558796 -0.334238 1.880790849211783e-38 1768976227
-30.419455 47.880177 -0.654247 1.880790849211783e-38 1768976227
-29.960985 47.158546 -0.998435 1.880790849211783e-38 1768976227
-30.442972 47.917194 -1.327824 1.880790849211783e-38 1768976227
-31.624771 49.777344 0.718228 1.880790849211783e-38 1768976227
-30.109423 47.392185 -1.657600 1.880790849211783e-38 1768976227
-30.150373 47.456646 -1.935690 1.880790849211783e-38 1768976227
-31.135191 49.006752 0.351053 1.880790849211783e-38 1768976227
-30.795671 48.472347 0.042007 1.880790849211783e-38 1768976227
-30.598646 48.484676 -0.333091 1.880790849211783e-38 1768976227
-30.427546 48.213566 -0.657546 1.880790849211783e-38 1768976227
-30.138689 47.755859 -1.009152 1.880790849211783e-38 1768976227
-29.908991 47.391891 -1.310761 1.880790849211783e-38 1768976227
-30.927109 49.005138 1.001874 1.880790849211783e-38 1768976227
-31.425705 49.795177 0.717114 1.880790849211783e-38 1768976227
-30.204290 47.859806 -1.670762 1.880790849211783e-38 1768976227
-30.071762 47.649815 -1.939861 1.880790849211783e-38 1768976227
-30.750946 48.726002 0.348376 1.880790849211783e-38 1768976227
-30.634096 48.540852 0.041986 1.880790849211783e-38 1768976227
-30.283613 48.307690 -0.331247 1.880790849211783e-38 1768976227
-30.315857 48.359127 -0.658281 1.880790849211783e-38 1768976227
-31.052807 49.534691 1.476862 1.880790849211783e-38 1768976227
-30.278526 48.299580 -1.018708 1.880790849211783e-38 1768976227
-29.957733 47.787857 -1.319208 1.880790849211783e-38 1768976227
-30.900385 49.291553 1.005819 1.880790849211783e-38 1768976227
-30.522968 48.689507 0.699862 1.880790849211783e-38 1768976227
-29.706507 47.387108 -1.651125 1.880790849211783e-38 1768976227
-29.801973 47.539387 -1.931697 1.880790849211783e-38 1768976227
-30.455936 48.582577 0.346692 1.880790849211783e-38 1768976227
-30.412195 48.512798 0.041883 1.880790849211783e-38 1768976227
-29.870790 47.970039 -0.328312 1.880790849211783e-38 1768976227
-29.997843 48.174076 -0.654528 1.880790849211783e-38 1768976227
-30.897791 49.619320 1.763368 1.880790849211783e-38 1768976227
-30.623442 49.178741 1.463489 1.880790849211783e-38 1768976227
-29.680519 47.664478 -1.003420 1.880790849211783e-38 1768976227
-29.973925 48.135662 -1.326308 1.880790849211783e-38 1768976227
-30.209539 48.514050 0.988090 1.880790849211783e-38 1768976227
-30.421301 48.854118 0.700906 1.880790849211783e-38 1768976227
-29.636915 47.594463 -1.655228 1.880790849211783e-38 1768976227
-29.535622 47.431793 -1.923697 1.880790849211783e-38 1768976227
-30.515858 49.005970 0.349055 1.880790849211783e-38 1768976227
-30.073521 48.295609 0.041617 1.880790849211783e-38 1768976227
-29.705343 48.026501 -0.328084 1.880790849211783e-38 1768976227
-30.006199 48.512917 -0.657899 1.880790849211783e-38 1768976227
-30.713638 49.656681 2.155262 1.880790849211783e-38 1768976227
-30.537176 49.371376 1.751277 1.880790849211783e-38 1768976227
-30.208672 48.840267 1.450699 1.880790849211783e-38 1768976227
-29.651297 47.939125 -1.007315 1.880790849211783e-38 1768976227
-29.743662 48.088455 -1.322530 1.880790849211783e-38 1768976227
-30.472940 49.267525 1.001560 1.880790849211783e-38 1768976227
-30.278048 48.952431 0.701004 1.880790849211783e-38 1768976227
-29.640247 47.921261 -1.663477 1.880790849211783e-38 1768976227
-29.548775 47.773373 -1.933928 1.880790849211783e-38 1768976227
-30.325661 49.029411 0.348569 1.880790849211783e-38 1768976227
-30.044117 48.574226 0.041779 1.880790849211783e-38 1768976227
-29.514561 48.041321 -0.327576 1.880790849211783e-38 1768976227
-29.240543 47.595306 -0.644256 1.880790849211783e-38 1768976227
-30.645748 49.882584 2.436295 1.880790849211783e-38 1768976227
-30.628384 49.854313 2.159821 1.880790849211783e-38 1768976227
-30.381649 49.452698 1.750903 1.880790849211783e-38 1768976227
-30.282175 49.290787 1.461361 1.880790849211783e-38 1768976227
-29.526506 48.060772 -1.007995 1.880790849211783e-38 1768976227
-29.270281 47.643711 -1.307864 1.880790849211783e-38 1768976227
-30.196186 49.150822 0.997332 1.880790849211783e-38 1768976227
-30.107229 49.006020 0.700468 1.880790849211783e-38 1768976227
-29.283951 47.665955 -1.651542 1.880790849211783e-38 1768976227
-29.253298 47.616062 -1.923980 1.880790849211783e-38 1768976227
-30.013443 48.853363 0.346672 1.880790849211783e-38 1768976227
-29.615976 48.206398 0.041385 1.880790849211783e-38 1768976227
-29.607931 48.520802 -0.330235 1.880790849211783e-38 1768976227
-29.393013 48.168598 -0.650813 1.880790849211783e-38 1768976227
-30.694187 50.300934 2.849695 1.880790849211783e-38 1768976227
-30.546995 50.059723 2.440436 1.880790849211783e-38 1768976227
-30.251690 49.575779 2.143792 1.880790849211783e-38 1768976227
-30.027346 49.208130 1.739029 1.880790849211783e-38 1768976227
-30.023264 49.201447 1.456021 1.880790849211783e-38 1768976227
-29.586975 48.486465 -1.015047 1.880790849211783e-38 1768976227
-29.127989 47.734287 -1.307933 1.880790849211783e-38 1768976227
-30.087778 49.307163 0.998658 1.880790849211783e-38 1768976227
-30.157930 49.422127 0.705112 1.880790849211783e-38 1768976227
-29.141802 47.756920 -1.651641 1.880790849211783e-38 1768976227
-29.190268 47.836346 -1.929314 1.880790849211783e-38 1768976227
-29.334759 48.073132 0.340506 1.880790849211783e-38 1768976227
-29.772882 48.791122 0.041810 1.880790849211783e-38 1768976227
-28.988565 47.829632 -0.324934 1.880790849211783e-38 1768976227
-29.072647 47.968361 -0.646920 1.880790849211783e-38 1768976227
-30.679617 50.619781 3.152894 1.880790849211783e-38 1768976227
-30.183493 49.801197 2.816213 1.880790849211783e-38 1768976227
-29.902271 49.337193 2.400805 1.880790849211783e-38 1768976227
-29.796007 49.161869 2.121998 1.880790849211783e-38 1768976227
-29.897591 49.329475 1.740123 1.880790849211783e-38 1768976227
-29.878183 49.297459 1.456189 1.880790849211783e-38 1768976227
-29.038906 47.912693 -1.001197 1.880790849211783e-38 1768976227
-29.013023 47.869987 -1.309248 1.880790849211783e-38 1768976227
-29.709347 49.018887 0.991000 1.880790849211783e-38 1768976227
-29.397636 48.504574 0.690753 1.880790849211783e-38 1768976227
-28.890860 47.668415 -1.645559 1.880790849211783e-38 1768976227
-29.114128 48.036804 -1.933849 1.880790849211783e-38 1768976227
-29.347174 48.421314 0.342344 1.880790849211783e-38 1768976227
-29.080698 47.981647 0.041041 1.880790849211783e-38 1768976227
-29.098795 48.339821 -0.327802 1.880790849211783e-38 1768976227
-29.014574 48.199902 -0.648860 1.880790849211783e-38 1768976227
-30.133841 50.059261 3.112307 1.880790849211783e-38 1768976227
-30.064487 49.944054 2.819151 1.880790849211783e-38 1768976227
-29.977259 49.799145 2.418874 1.880790849211783e-38 1768976227
-29.628302 49.219444 2.120616 1.880790849211783e-38 1768976227
-29.793991 49.494701 1.742774 1.880790849211783e-38 1768976227
-29.534836 49.064182 1.446661 1.880790849211783e-38 1768976227
-30.428226 50.548309 3.528648 1.880790849211783e-38 1768976227
-28.865505 47.952274 -1.000201 1.880790849211783e-38 1768976227
-28.708790 47.691925 -1.302004 1.880790849211783e-38 1768976227
-29.391214 48.825596 0.985296 1.880790849211783e-38 1768976227
-29.516005 49.032894 0.697006 1.880790849211783e-38 1768976227
-28.679064 47.642548 -1.641672 1.880790849211783e-38 1768976227
-28.743093 47.748913 -1.918761 1.880790849211783e-38 1768976227
-29.492687 48.994164 0.345764 1.880790849211783e-38 1768976227
-29.026133 48.219109 0.041169 1.880790849211783e-38 1768976227
-29.125723 48.716480 -0.329759 1.880790849211783e-38 1768976227
-28.815233 48.197144 -0.647650 1.880790849211783e-38 1768976227
-29.914318 50.035507 3.105206 1.880790849211783e-38 1768976227
-29.689363 49.659237 2.798007 1.880790849211783e-38 1768976227
-29.839401 49.910194 2.419885 1.880790849211783e-38 1768976227
-29.699263 49.675793 2.136409 1.880790849211783e-38 1768976227
-29.709148 49.692329 1.746570 1.880790849211783e-38 1768976227
-29.495569 49.335091 1.452019 1.880790849211783e-38 1768976227
-30.124447 50.386971 3.883037 1.880790849211783e-38 1768976227
-29.964132 50.118828 3.492343 1.880790849211783e-38 1768976227
-28.649687 47.920246 -0.997726 1.880790849211783e-38 1768976227
-28.797678 48.167778 -1.312618 1.880790849211783e-38 1768976227
-29.189749 48.823570 0.983474 1.880790849211783e-38 1768976227
-29.330194 49.058483 0.696109 1.880790849211783e-38 1768976227
-28.527826 47.716423 -1.641245 1.880790849211783e-38 1768976227
-28.246120 47.245232 -1.895088 1.880790849211783e-38 1768976227
-29.222033 48.877571 0.344317 1.880790849211783e-38 1768976227
