# .PCD v0.7 - Point Cloud Data file format
VERSION 0.7
FIELDS x y z rgb label
SIZE 4 4 4 4 4
TYPE F F F F U
COUNT 1 1 1 1 1
WIDTH 756
HEIGHT 1
VIEWPOINT 0 0 0 1 0 0 0
POINTS 756
DATA ascii
17.411697 -23.367075 3.488194 1.880790849211783e-38 1768976227
16.090889 -21.594505 -0.156457 1.880790849211783e-38 1768976227
16.042473 -21.529533 -0.309662 1.880790849211783e-38 1768976227
17.285992 -23.198374 3.291510 1.880790849211783e-38 1768976227
17.177700 -23.053043 3.071079 1.880790849211783e-38 1768976227
17.121868 -22.978117 2.932229 1.880790849211783e-38 1768976227
17.041311 -22.870005 2.731869 1.880790849211783e-38 1768976227
16.608242 -22.288809 1.480597 1.880790849211783e-38 1768976227
16.564013 -22.229456 1.340650 1.880790849211783e-38 1768976227
16.958563 -22.758951 2.509738 1.880790849211783e-38 1768976227
16.911987 -22.696447 2.375556 1.880790849211783e-38 1768976227
16.503590 -22.148365 1.149437 1.880790849211783e-38 1768976227
16.461727 -22.092184 1.016989 1.880790849211783e-38 1768976227
16.846792 -22.608953 2.187728 1.880790849211783e-38 1768976227
16.782093 -22.522127 2.001342 1.880790849211783e-38 1768976227
16.402044 -22.012085 0.828125 1.880790849211783e-38 1768976227
16.358908 -21.954195 0.691628 1.880790849211783e-38 1768976227
16.730289 -22.452602 1.852071 1.880790849211783e-38 1768976227
16.667578 -22.368443 1.668359 1.880790849211783e-38 1768976227
15.989208 -21.458048 -0.478209 1.880790849211783e-38 1768976227
15.943102 -21.396172 -0.624099 1.880790849211783e-38 1768976227
16.289291 -21.860769 0.471344 1.880790849211783e-38 1768976227
16.244976 -21.801296 0.331120 1.880790849211783e-38 1768976227
15.892292 -21.327982 -0.785221 1.880790849211783e-38 1768976227
15.853724 -21.276224 -0.913487 1.880790849211783e-38 1768976227
16.192118 -21.730360 0.163855 1.880790849211783e-38 1768976227
16.146582 -21.669249 0.019769 1.880790849211783e-38 1768976227
17.332407 -23.407682 3.635283 1.880790849211783e-38 1768976227
17.232809 -23.273176 3.466403 1.880790849211783e-38 1768976227
16.009026 -21.620438 -0.156295 1.880790849211783e-38 1768976227
15.963199 -21.558546 -0.309386 1.880790849211783e-38 1768976227
17.143848 -23.153032 3.277725 1.880790849211783e-38 1768976227
17.057711 -23.036701 3.062034 1.880790849211783e-38 1768976227
17.002434 -22.962051 2.923622 1.880790849211783e-38 1768976227
16.933800 -22.869360 2.725679 1.880790849211783e-38 1768976227
16.522545 -22.313953 1.478950 1.880790849211783e-38 1768976227
16.478594 -22.254597 1.339163 1.880790849211783e-38 1768976227
16.857634 -22.766493 2.504952 1.880790849211783e-38 1768976227
16.811426 -22.704092 2.371039 1.880790849211783e-38 1768976227
16.418543 -22.173496 1.148166 1.880790849211783e-38 1768976227
16.376947 -22.117321 1.015868 1.880790849211783e-38 1768976227
16.746744 -22.616737 2.183584 1.880790849211783e-38 1768976227
16.685719 -22.534321 1.997944 1.880790849211783e-38 1768976227
16.317631 -22.037212 0.827215 1.880790849211783e-38 1768976227
16.274765 -21.979322 0.690870 1.880790849211783e-38 1768976227
16.639034 -22.471273 1.849463 1.880790849211783e-38 1768976227
16.581511 -22.393585 1.666497 1.880790849211783e-38 1768976227
15.912775 -21.490448 -0.477859 1.880790849211783e-38 1768976227
15.869115 -21.431484 -0.623730 1.880790849211783e-38 1768976227
16.205584 -21.885891 0.470830 1.880790849211783e-38 1768976227
16.161545 -21.826416 0.330760 1.880790849211783e-38 1768976227
15.820883 -21.366346 -0.784873 1.880790849211783e-38 1768976227
15.782507 -21.314520 -0.913083 1.880790849211783e-38 1768976227
16.109015 -21.755472 0.163677 1.880790849211783e-38 1768976227
16.063761 -21.694359 0.019748 1.880790849211783e-38 1768976227
17.166536 -23.330463 3.615233 1.880790849211783e-38 1768976227
17.097153 -23.236168 3.453195 1.880790849211783e-38 1768976227
15.936749 -21.659103 -0.156226 1.880790849211783e-38 1768976227
15.891156 -21.597137 -0.309250 1.880790849211783e-38 1768976227
17.023726 -23.136375 3.268084 1.880790849211783e-38 1768976227
16.947315 -23.032528 3.054672 1.880790849211783e-38 1768976227
16.900425 -22.968800 2.917978 1.880790849211783e-38 1768976227
16.832676 -22.876726 2.720494 1.880790849211783e-38 1768976227
17.306093 -23.520132 3.859513 1.880790849211783e-38 1768976227
16.437046 -22.339039 1.477321 1.880790849211783e-38 1768976227
16.393372 -22.279684 1.337692 1.880790849211783e-38 1768976227
16.757109 -22.774027 2.500209 1.880790849211783e-38 1768976227
16.715370 -22.717300 2.367143 1.880790849211783e-38 1768976227
16.333698 -22.198584 1.146909 1.880790849211783e-38 1768976227
16.292364 -22.142405 1.014759 1.880790849211783e-38 1768976227
16.657080 -22.638081 2.180785 1.880790849211783e-38 1768976227
16.599194 -22.559408 1.995721 1.880790849211783e-38 1768976227
16.233418 -22.062296 0.826316 1.880790849211783e-38 1768976227
16.190817 -22.004398 0.690120 1.880790849211783e-38 1768976227
16.552805 -22.496363 1.847412 1.880790849211783e-38 1768976227
16.495638 -22.418673 1.664654 1.880790849211783e-38 1768976227
15.840980 -21.528944 -0.477651 1.880790849211783e-38 1768976227
15.797534 -21.469898 -0.623459 1.880790849211783e-38 1768976227
16.123451 -21.912842 0.470361 1.880790849211783e-38 1768976227
16.081770 -21.856194 0.330474 1.880790849211783e-38 1768976227
15.749540 -21.404673 -0.784532 1.880790849211783e-38 1768976227
15.711352 -21.352774 -0.912688 1.880790849211783e-38 1768976227
16.032034 -21.788601 0.163562 1.880790849211783e-38 1768976227
15.989181 -21.730362 0.019737 1.880790849211783e-38 1768976227
17.040182 -23.305664 3.603410 1.880790849211783e-38 1768976227
16.980328 -23.223801 3.443731 1.880790849211783e-38 1768976227
15.864532 -21.697741 -0.156159 1.880790849211783e-38 1768976227
15.819163 -21.635689 -0.309118 1.880790849211783e-38 1768976227
16.918079 -23.138664 3.261185 1.880790849211783e-38 1768976227
16.845671 -23.039631 3.048862 1.880790849211783e-38 1768976227
16.799149 -22.976004 2.912443 1.880790849211783e-38 1768976227
16.737774 -22.892063 2.716302 1.880790849211783e-38 1768976227
17.241140 -23.580513 4.028065 1.880790849211783e-38 1768976227
17.135971 -23.436672 3.837319 1.880790849211783e-38 1768976227
16.351734 -22.364082 1.475709 1.880790849211783e-38 1768976227
16.308332 -22.304724 1.336236 1.880790849211783e-38 1768976227
16.669661 -22.798904 2.497409 1.880790849211783e-38 1768976227
16.628307 -22.742346 2.364516 1.880790849211783e-38 1768976227
16.250706 -22.225906 1.145784 1.880790849211783e-38 1768976227
16.211582 -22.172396 1.013888 1.880790849211783e-38 1768976227
16.570385 -22.663124 2.178373 1.880790849211783e-38 1768976227
16.512863 -22.584455 1.993522 1.880790849211783e-38 1768976227
16.155779 -22.096075 0.825752 1.880790849211783e-38 1768976227
16.115437 -22.040899 0.689737 1.880790849211783e-38 1768976227
16.466768 -22.521408 1.845381 1.880790849211783e-38 1768976227
16.409962 -22.443718 1.662831 1.880790849211783e-38 1768976227
15.769236 -21.567402 -0.477447 1.880790849211783e-38 1768976227
15.726005 -21.508278 -0.623193 1.880790849211783e-38 1768976227
16.050308 -21.951822 0.470157 1.880790849211783e-38 1768976227
16.008833 -21.895100 0.330331 1.880790849211783e-38 1768976227
15.678247 -21.442963 -0.784199 1.880790849211783e-38 1768976227
15.640253 -21.390997 -0.912302 1.880790849211783e-38 1768976227
15.959346 -21.827414 0.163491 1.880790849211783e-38 1768976227
15.916704 -21.769094 0.019728 1.880790849211783e-38 1768976227
16.931625 -23.304386 3.595301 1.880790849211783e-38 1768976227
16.878017 -23.230602 3.437176 1.880790849211783e-38 1768976227
15.792378 -21.736345 -0.156093 1.880790849211783e-38 1768976227
15.747234 -21.674212 -0.308988 1.880790849211783e-38 1768976227
16.818012 -23.148012 3.255339 1.880790849211783e-38 1768976227
16.752783 -23.058231 3.044624 1.880790849211783e-38 1768976227
17.171385 -23.634388 4.189639 1.880790849211783e-38 1768976227
16.710846 -23.000511 2.909148 1.880790849211783e-38 1768976227
16.650217 -22.917061 2.713298 1.880790849211783e-38 1768976227
17.082373 -23.511873 4.007521 1.880790849211783e-38 1768976227
17.011013 -23.413654 3.825133 1.880790849211783e-38 1768976227
16.273912 -22.399124 1.474776 1.880790849211783e-38 1768976227
16.232807 -22.342546 1.335563 1.880790849211783e-38 1768976227
16.582533 -22.823902 2.494658 1.880790849211783e-38 1768976227
16.541445 -22.767345 2.361918 1.880790849211783e-38 1768976227
16.176628 -22.265221 1.145290 1.880790849211783e-38 1768976227
16.137701 -22.211643 1.013452 1.880790849211783e-38 1768976227
16.483885 -22.688124 2.175988 1.880790849211783e-38 1768976227
16.426729 -22.609455 1.991347 1.880790849211783e-38 1768976227
16.082176 -22.135220 0.825398 1.880790849211783e-38 1768976227
16.042032 -22.079967 0.689443 1.880790849211783e-38 1768976227
16.382805 -22.549002 1.843585 1.880790849211783e-38 1768976227
16.329042 -22.475000 1.661493 1.880790849211783e-38 1768976227
15.697554 -21.605833 -0.477247 1.880790849211783e-38 1768976227
15.654538 -21.546625 -0.622934 1.880790849211783e-38 1768976227
15.977226 -21.990767 0.469957 1.880790849211783e-38 1768976227
15.935960 -21.933971 0.330191 1.880790849211783e-38 1768976227
15.607018 -21.481220 -0.783873 1.880790849211783e-38 1768976227
15.569211 -21.429182 -0.911923 1.880790849211783e-38 1768976227
15.886719 -21.866196 0.163422 1.880790849211783e-38 1768976227
15.844291 -21.807796 0.019720 1.880790849211783e-38 1768976227
16.833574 -23.316996 3.589398 1.880790849211783e-38 1768976227
16.785275 -23.250092 3.432553 1.880790849211783e-38 1768976227
15.720282 -21.774921 -0.156029 1.880790849211783e-38 1768976227
15.675364 -21.712700 -0.308861 1.880790849211783e-38 1768976227
16.729591 -23.172964 3.251737 1.880790849211783e-38 1768976227
16.664776 -23.083183 3.041268 1.880790849211783e-38 1768976227
17.125517 -23.721380 4.387266 1.880790849211783e-38 1768976227
17.030102 -23.589216 4.172508 1.880790849211783e-38 1768976227
16.623104 -23.025459 2.905949 1.880790849211783e-38 1768976227
16.562860 -22.942017 2.710326 1.880790849211783e-38 1768976227
16.966980 -23.501785 3.997061 1.880790849211783e-38 1768976227
16.906464 -23.417957 3.817488 1.880790849211783e-38 1768976227
16.199415 -22.438589 1.474151 1.880790849211783e-38 1768976227
16.158514 -22.381937 1.334998 1.880790849211783e-38 1768976227
16.498693 -22.853136 2.492403 1.880790849211783e-38 1768976227
16.459799 -22.799261 2.360068 1.880790849211783e-38 1768976227
16.102615 -22.304506 1.144807 1.880790849211783e-38 1768976227
16.063883 -22.250856 1.013026 1.880790849211783e-38 1768976227
16.405300 -22.723772 2.174651 1.880790849211783e-38 1768976227
16.351164 -22.648783 1.990458 1.880790849211783e-38 1768976227
16.008635 -22.174330 0.825053 1.880790849211783e-38 1768976227
15.968691 -22.119001 0.689155 1.880790849211783e-38 1768976227
16.307766 -22.588669 1.842799 1.880790849211783e-38 1768976227
16.254269 -22.514568 1.660786 1.880790849211783e-38 1768976227
15.625928 -21.644224 -0.477052 1.880790849211783e-38 1768976227
15.583129 -21.584942 -0.622680 1.880790849211783e-38 1768976227
15.904211 -22.029686 0.469761 1.880790849211783e-38 1768976227
15.863150 -21.972813 0.330054 1.880790849211783e-38 1768976227
15.535843 -21.519445 -0.783555 1.880790849211783e-38 1768976227
15.498223 -21.467337 -0.911554 1.880790849211783e-38 1768976227
15.814154 -21.904945 0.163354 1.880790849211783e-38 1768976227
15.771937 -21.846468 0.019712 1.880790849211783e-38 1768976227
16.744701 -23.341898 3.585441 1.880790849211783e-38 1768976227
16.697044 -23.275463 3.428849 1.880790849211783e-38 1768976227
15.648250 -21.813456 -0.155966 1.880790849211783e-38 1768976227
15.603557 -21.751154 -0.308738 1.880790849211783e-38 1768976227
16.644356 -23.202017 3.248756 1.880790849211783e-38 1768976227
16.583006 -23.116495 3.039054 1.880790849211783e-38 1768976227
16.991880 -23.686457 4.371310 1.880790849211783e-38 1768976227
16.922258 -23.589407 4.163496 1.880790849211783e-38 1768976227
16.543549 -23.061489 2.904187 1.880790849211783e-38 1768976227
16.486490 -22.981953 2.709157 1.880790849211783e-38 1768976227
16.868834 -23.514935 3.990627 1.880790849211783e-38 1768976227
16.814299 -23.438913 3.812621 1.880790849211783e-38 1768976227
16.124992 -22.478027 1.473540 1.880790849211783e-38 1768976227
16.084295 -22.421299 1.334447 1.880790849211783e-38 1768976227
16.422766 -22.893124 2.491351 1.880790849211783e-38 1768976227
16.384069 -22.839178 2.359075 1.880790849211783e-38 1768976227
16.028675 -22.343763 1.144336 1.880790849211783e-38 1768976227
15.990137 -22.290043 1.012610 1.880790849211783e-38 1768976227
16.329844 -22.763590 2.173739 1.880790849211783e-38 1768976227
16.275978 -22.688503 1.989626 1.880790849211783e-38 1768976227
15.935163 -22.213409 0.824715 1.880790849211783e-38 1768976227
15.895422 -22.158010 0.688873 1.880790849211783e-38 1768976227
16.232798 -22.628309 1.842031 1.880790849211783e-38 1768976227
16.179569 -22.554108 1.660096 1.880790849211783e-38 1768976227
15.554366 -21.682583 -0.476862 1.880790849211783e-38 1768976227
15.511780 -21.623217 -0.622432 1.880790849211783e-38 1768976227
15.831263 -22.068573 0.469570 1.880790849211783e-38 1768976227
15.790404 -22.011618 0.329920 1.880790849211783e-38 1768976227
15.464729 -21.557631 -0.783243 1.880790849211783e-38 1768976227
15.427297 -21.505449 -0.911192 1.880790849211783e-38 1768976227
15.741650 -21.943655 0.163288 1.880790849211783e-38 1768976227
15.699646 -21.885101 0.019704 1.880790849211783e-38 1768976227
17.077908 -23.806379 4.582189 1.880790849211783e-38 1768976227
16.665264 -23.379719 3.583513 1.880790849211783e-38 1768976227
16.619804 -23.315945 3.427413 1.880790849211783e-38 1768976227
15.576271 -21.851971 -0.155905 1.880790849211783e-38 1768976227
15.531796 -21.789574 -0.308617 1.880790849211783e-38 1768976227
16.567383 -23.242399 3.247399 1.880790849211783e-38 1768976227
16.506338 -23.156759 3.037789 1.880790849211783e-38 1768976227
16.894695 -23.701588 4.364678 1.880790849211783e-38 1768976227
16.832861 -23.614840 4.159005 1.880790849211783e-38 1768976227
16.467077 -23.101683 2.902981 1.880790849211783e-38 1768976227
16.410307 -23.022041 2.708036 1.880790849211783e-38 1768976227
16.782784 -23.544588 3.987052 1.880790849211783e-38 1768976227
16.731163 -23.472168 3.809805 1.880790849211783e-38 1768976227
16.050623 -22.517435 1.472943 1.880790849211783e-38 1768976227
16.010132 -22.460632 1.333908 1.880790849211783e-38 1768976227
16.346905 -22.933090 2.490324 1.880790849211783e-38 1768976227
16.308397 -22.879070 2.358104 1.880790849211783e-38 1768976227
15.954792 -22.382998 1.143876 1.880790849211783e-38 1768976227
15.916448 -22.329205 1.012204 1.880790849211783e-38 1768976227
16.254450 -22.803385 2.172848 1.880790849211783e-38 1768976227
16.200855 -22.728199 1.988813 1.880790849211783e-38 1768976227
15.861750 -22.252468 0.824385 1.880790849211783e-38 1768976227
15.822205 -22.196989 0.688598 1.880790849211783e-38 1768976227
16.157888 -22.667919 1.841280 1.880790849211783e-38 1768976227
16.104929 -22.593622 1.659421 1.880790849211783e-38 1768976227
15.482855 -21.720915 -0.476676 1.880790849211783e-38 1768976227
15.440475 -21.661463 -0.622189 1.880790849211783e-38 1768976227
15.758366 -22.107428 0.469384 1.880790849211783e-38 1768976227
15.717711 -22.050396 0.329789 1.880790849211783e-38 1768976227
15.393664 -21.595789 -0.782939 1.880790849211783e-38 1768976227
15.356625 -21.543827 -0.910852 1.880790849211783e-38 1768976227
15.669206 -21.982347 0.163224 1.880790849211783e-38 1768976227
15.627408 -21.923710 0.019696 1.880790849211783e-38 1768976227
16.956953 -23.788925 4.568965 1.880790849211783e-38 1768976227
16.590363 -23.423782 3.582582 1.880790849211783e-38 1768976227
16.545380 -23.360273 3.426578 1.880790849211783e-38 1768976227
15.512450 -21.901890 -0.155927 1.880790849211783e-38 1768976227
15.468412 -21.839714 -0.308665 1.880790849211783e-38 1768976227
16.493505 -23.287035 3.246670 1.880790849211783e-38 1768976227
16.433105 -23.201756 3.037176 1.880790849211783e-38 1768976227
16.815268 -23.741327 4.362638 1.880790849211783e-38 1768976227
16.756172 -23.657888 4.157668 1.880790849211783e-38 1768976227
16.394255 -23.146904 2.902436 1.880790849211783e-38 1768976227
16.338076 -23.067583 2.707585 1.880790849211783e-38 1768976227
16.706627 -23.587938 3.985842 1.880790849211783e-38 1768976227
16.655561 -23.515841 3.808722 1.880790849211783e-38 1768976227
15.982081 -22.564959 1.472892 1.880790849211783e-38 1768976227
15.942002 -22.508373 1.333881 1.880790849211783e-38 1768976227
16.275333 -22.978996 2.489967 1.880790849211783e-38 1768976227
16.237223 -22.925194 2.357800 1.880790849211783e-38 1768976227
15.887217 -22.431021 1.143876 1.880790849211783e-38 1768976227
15.849259 -22.377426 1.012218 1.880790849211783e-38 1768976227
16.183830 -22.849804 2.172610 1.880790849211783e-38 1768976227
16.130783 -22.774910 1.988634 1.880790849211783e-38 1768976227
15.795108 -22.300972 0.824413 1.880790849211783e-38 1768976227
15.755959 -22.245699 0.688632 1.880790849211783e-38 1768976227
16.088259 -22.714869 1.841144 1.880790849211783e-38 1768976227
16.035837 -22.640858 1.659331 1.880790849211783e-38 1768976227
15.419946 -21.771282 -0.476758 1.880790849211783e-38 1768976227
15.377981 -21.712036 -0.622307 1.880790849211783e-38 1768976227
15.692754 -22.156460 0.469418 1.880790849211783e-38 1768976227
15.652505 -22.099630 0.329818 1.880790849211783e-38 1768976227
15.331622 -21.646580 -0.783101 1.880790849211783e-38 1768976227
15.294736 -21.594500 -0.911040 1.880790849211783e-38 1768976227
15.604478 -22.031820 0.163241 1.880790849211783e-38 1768976227
15.563088 -21.973387 0.019698 1.880790849211783e-38 1768976227
16.954512 -23.937927 4.845581 1.880790849211783e-38 1768976227
16.873882 -23.824083 4.565922 1.880790849211783e-38 1768976227
16.523502 -23.479189 3.583418 1.880790849211783e-38 1768976227
16.478695 -23.415518 3.427377 1.880790849211783e-38 1768976227
15.449703 -21.953367 -0.155961 1.880790849211783e-38 1768976227
15.405834 -21.891031 -0.308732 1.880790849211783e-38 1768976227
16.427019 -23.342093 3.247425 1.880790849211783e-38 1768976227
16.366842 -23.256584 3.037878 1.880790849211783e-38 1768976227
16.752047 -23.803940 4.364840 1.880790849211783e-38 1768976227
16.690939 -23.717112 4.159210 1.880790849211783e-38 1768976227
16.328144 -23.201593 2.903107 1.880790849211783e-38 1768976227
16.272179 -23.122068 2.708208 1.880790849211783e-38 1768976227
16.639729 -23.644342 3.986875 1.880790849211783e-38 1768976227
16.588457 -23.571489 3.809616 1.880790849211783e-38 1768976227
15.917538 -22.618139 1.473223 1.880790849211783e-38 1768976227
15.877614 -22.561409 1.334181 1.880790849211783e-38 1768976227
16.209671 -23.033247 2.490537 1.880790849211783e-38 1768976227
16.171709 -22.979307 2.358338 1.880790849211783e-38 1768976227
15.823036 -22.483858 1.144132 1.880790849211783e-38 1768976227
15.785222 -22.430126 1.012444 1.880790849211783e-38 1768976227
16.118515 -22.903719 2.173105 1.880790849211783e-38 1768976227
16.065672 -22.828634 1.989086 1.880790849211783e-38 1768976227
15.731282 -22.353479 0.824597 1.880790849211783e-38 1768976227
15.692281 -22.298056 0.688785 1.880790849211783e-38 1768976227
16.023308 -22.768435 1.841560 1.880790849211783e-38 1768976227
15.971089 -22.694233 1.659705 1.880790849211783e-38 1768976227
15.357553 -21.822424 -0.476862 1.880790849211783e-38 1768976227
15.315748 -21.763021 -0.622441 1.880790849211783e-38 1768976227
15.629316 -22.208591 0.469521 1.880790849211783e-38 1768976227
15.589221 -22.151615 0.329891 1.880790849211783e-38 1768976227
15.269566 -21.697399 -0.783270 1.880790849211783e-38 1768976227
15.232819 -21.645182 -0.911236 1.880790849211783e-38 1768976227
15.541374 -22.083632 0.163277 1.880790849211783e-38 1768976227
15.500146 -22.025045 0.019703 1.880790849211783e-38 1768976227
16.814419 -23.892570 4.569309 1.880790849211783e-38 1768976227
16.463495 -23.544477 3.585788 1.880790849211783e-38 1768976227
16.417149 -23.478197 3.429288 1.880790849211783e-38 1768976227
15.386923 -22.004869 -0.155996 1.880790849211783e-38 1768976227
15.343220 -21.942369 -0.308802 1.880790849211783e-38 1768976227
16.363716 -23.401785 3.248848 1.880790849211783e-38 1768976227
16.301508 -23.312820 3.038788 1.880790849211783e-38 1768976227
16.706167 -23.891525 4.371641 1.880790849211783e-38 1768976227
16.638210 -23.794338 4.163935 1.880790849211783e-38 1768976227
16.262001 -23.256319 2.903804 1.880790849211783e-38 1768976227
16.206249 -23.176592 2.708857 1.880790849211783e-38 1768976227
16.583342 -23.715872 3.990485 1.880790849211783e-38 1768976227
16.530695 -23.640581 3.812707 1.880790849211783e-38 1768976227
15.852966 -22.671360 1.473569 1.880790849211783e-38 1768976227
15.813190 -22.614477 1.334492 1.880790849211783e-38 1768976227
16.143982 -23.087540 2.491132 1.880790849211783e-38 1768976227
16.106163 -23.033457 2.358900 1.880790849211783e-38 1768976227
15.758825 -22.536730 1.144398 1.880790849211783e-38 1768976227
15.721154 -22.482855 1.012680 1.880790849211783e-38 1768976227
16.053173 -22.957678 2.173621 1.880790849211783e-38 1768976227
16.000534 -22.882395 1.989556 1.880790849211783e-38 1768976227
15.667418 -22.406008 0.824788 1.880790849211783e-38 1768976227
15.628568 -22.350449 0.688944 1.880790849211783e-38 1768976227
15.958333 -22.822042 1.841995 1.880790849211783e-38 1768976227
15.906311 -22.747650 1.660096 1.880790849211783e-38 1768976227
15.295127 -21.873594 -0.476970 1.880790849211783e-38 1768976227
15.253480 -21.814034 -0.622582 1.880790849211783e-38 1768976227
15.565845 -22.260748 0.469629 1.880790849211783e-38 1768976227
15.525903 -22.203625 0.329966 1.880790849211783e-38 1768976227
15.207477 -21.748243 -0.783446 1.880790849211783e-38 1768976227
15.170871 -21.695894 -0.911440 1.880790849211783e-38 1768976227
15.478242 -22.135466 0.163314 1.880790849211783e-38 1768976227
15.437171 -22.076729 0.019707 1.880790849211783e-38 1768976227
16.793165 -24.015942 4.583196 1.880790849211783e-38 1768976227
16.408615 -23.617350 3.589333 1.880790849211783e-38 1768976227
16.361092 -23.548948 3.432399 1.880790849211783e-38 1768976227
15.324109 -22.056393 -0.156033 1.880790849211783e-38 1768976227
15.280577 -21.993734 -0.308875 1.880790849211783e-38 1768976227
16.307793 -23.472231 3.251786 1.880790849211783e-38 1768976227
16.245739 -23.382919 3.041525 1.880790849211783e-38 1768976227
16.697397 -24.033001 4.388293 1.880790849211783e-38 1768976227
16.601662 -23.895206 4.172805 1.880790849211783e-38 1768976227
16.205843 -23.325493 2.906325 1.880790849211783e-38 1768976227
16.148157 -23.242464 2.710851 1.880790849211783e-38 1768976227
16.538607 -23.804451 3.996978 1.880790849211783e-38 1768976227
16.481482 -23.722227 3.817841 1.880790849211783e-38 1768976227
15.788366 -22.724607 1.473928 1.880790849211783e-38 1768976227
15.748740 -22.667576 1.334817 1.880790849211783e-38 1768976227
16.083746 -23.149755 2.492599 1.880790849211783e-38 1768976227
16.044640 -23.093466 2.360079 1.880790849211783e-38 1768976227
15.694584 -22.589626 1.144676 1.880790849211783e-38 1768976227
15.657062 -22.535616 1.012925 1.880790849211783e-38 1768976227
15.989849 -23.014608 2.174435 1.880790849211783e-38 1768976227
15.935439 -22.936295 1.990055 1.880790849211783e-38 1768976227
15.603531 -22.458569 0.824987 1.880790849211783e-38 1768976227
15.564831 -22.402866 0.689110 1.880790849211783e-38 1768976227
15.893328 -22.875683 1.842447 1.880790849211783e-38 1768976227
15.841507 -22.801094 1.660502 1.880790849211783e-38 1768976227
15.232666 -21.924776 -0.477082 1.880790849211783e-38 1768976227
15.191184 -21.865070 -0.622728 1.880790849211783e-38 1768976227
15.502345 -22.312929 0.469742 1.880790849211783e-38 1768976227
15.462557 -22.255663 0.330045 1.880790849211783e-38 1768976227
15.145354 -21.799105 -0.783629 1.880790849211783e-38 1768976227
15.108888 -21.746618 -0.911653 1.880790849211783e-38 1768976227
15.415080 -22.187326 0.163353 1.880790849211783e-38 1768976227
15.374166 -22.128441 0.019712 1.880790849211783e-38 1768976227
16.364521 -23.706148 3.595311 1.880790849211783e-38 1768976227
16.314348 -23.633465 3.437531 1.880790849211783e-38 1768976227
15.261267 -22.107939 -0.156072 1.880790849211783e-38 1768976227
15.217902 -22.045122 -0.308950 1.880790849211783e-38 1768976227
16.256533 -23.549713 3.255712 1.880790849211783e-38 1768976227
16.189882 -23.453157 3.044296 1.880790849211783e-38 1768976227
16.599941 -24.047182 4.190582 1.880790849211783e-38 1768976227
16.150082 -23.395504 2.908966 1.880790849211783e-38 1768976227
16.092543 -23.312153 2.713306 1.880790849211783e-38 1768976227
16.511885 -23.919624 4.007936 1.880790849211783e-38 1768976227
16.443729 -23.820889 3.825720 1.880790849211783e-38 1768976227
15.728298 -22.784492 1.474729 1.880790849211783e-38 1768976227
15.687328 -22.725145 1.335415 1.880790849211783e-38 1768976227
16.028299 -23.219086 2.494848 1.880790849211783e-38 1768976227
15.989289 -23.162575 2.362202 1.880790849211783e-38 1768976227
15.631344 -22.644043 1.145039 1.880790849211783e-38 1768976227
15.592935 -22.588406 1.013179 1.880790849211783e-38 1768976227
15.934642 -23.083412 2.176385 1.880790849211783e-38 1768976227
15.880370 -23.004791 1.991833 1.880790849211783e-38 1768976227
15.539612 -22.511156 0.825193 1.880790849211783e-38 1768976227
15.501060 -22.455307 0.689282 1.880790849211783e-38 1768976227
15.836870 -22.941774 1.843915 1.880790849211783e-38 1768976227
15.783258 -22.864111 1.661617 1.880790849211783e-38 1768976227
15.170178 -21.975985 -0.477198 1.880790849211783e-38 1768976227
15.128853 -21.916121 -0.622880 1.880790849211783e-38 1768976227
15.438818 -22.365147 0.469859 1.880790849211783e-38 1768976227
15.399181 -22.307728 0.330127 1.880790849211783e-38 1768976227
15.083200 -21.849987 -0.783819 1.880790849211783e-38 1768976227
15.046878 -21.797369 -0.911874 1.880790849211783e-38 1768976227
15.351888 -22.239214 0.163393 1.880790849211783e-38 1768976227
15.311131 -22.180172 0.019717 1.880790849211783e-38 1768976227
16.331247 -23.811222 3.603761 1.880790849211783e-38 1768976227
16.273653 -23.727249 3.444017 1.880790849211783e-38 1768976227
15.198398 -22.159508 -0.156111 1.880790849211783e-38 1768976227
15.155202 -22.096529 -0.309029 1.880790849211783e-38 1768976227
16.212421 -23.637972 3.261140 1.880790849211783e-38 1768976227
16.145226 -23.539997 3.049234 1.880790849211783e-38 1768976227
16.102045 -23.477041 2.913053 1.880790849211783e-38 1768976227
16.039642 -23.386059 2.716266 1.880790849211783e-38 1768976227
16.523094 -24.090939 4.028274 1.880790849211783e-38 1768976227
16.424225 -23.946787 3.837967 1.880790849211783e-38 1768976227
15.673531 -22.852261 1.476049 1.880790849211783e-38 1768976227
15.632668 -22.792683 1.336607 1.880790849211783e-38 1768976227
15.972758 -23.288540 2.497123 1.880790849211783e-38 1768976227
15.933851 -23.231812 2.364352 1.880790849211783e-38 1768976227
15.576830 -22.711269 1.146058 1.880790849211783e-38 1768976227
15.538142 -22.654863 1.014053 1.880790849211783e-38 1768976227
15.879345 -23.152344 2.178359 1.880790849211783e-38 1768976227
15.825211 -23.073410 1.993633 1.880790849211783e-38 1768976227
15.482975 -22.574429 0.825797 1.880790849211783e-38 1768976227
15.443097 -22.516285 0.689721 1.880790849211783e-38 1768976227
15.781821 -23.010149 1.845577 1.880790849211783e-38 1768976227
15.728352 -22.932190 1.663110 1.880790849211783e-38 1768976227
15.107660 -22.027212 -0.477319 1.880790849211783e-38 1768976227
15.066501 -21.967199 -0.623037 1.880790849211783e-38 1768976227
15.378734 -22.422443 0.470086 1.880790849211783e-38 1768976227
15.337757 -22.362694 0.330254 1.880790849211783e-38 1768976227
15.021022 -21.900892 -0.784017 1.880790849211783e-38 1768976227
14.984839 -21.848139 -0.912103 1.880790849211783e-38 1768976227
15.288871 -22.291418 0.163437 1.880790849211783e-38 1768976227
15.248069 -22.231932 0.019722 1.880790849211783e-38 1768976227
16.313799 -23.940260 3.615827 1.880790849211783e-38 1768976227
16.244562 -23.838652 3.453061 1.880790849211783e-38 1768976227
15.141625 -22.220110 -0.156216 1.880790849211783e-38 1768976227
15.096953 -22.154554 -0.309202 1.880790849211783e-38 1768976227
16.178207 -23.741283 3.268646 1.880790849211783e-38 1768976227
16.101101 -23.628126 3.054345 1.880790849211783e-38 1768976227
16.057907 -23.564741 2.917912 1.880790849211783e-38 1768976227
15.995577 -23.473270 2.720780 1.880790849211783e-38 1768976227
16.450556 -24.140947 3.861116 1.880790849211783e-38 1768976227
15.618668 -22.920166 1.477386 1.880790849211783e-38 1768976227
15.577910 -22.860353 1.337814 1.880790849211783e-38 1768976227
15.926029 -23.371210 2.500826 1.880790849211783e-38 1768976227
15.883822 -23.309275 2.367350 1.880790849211783e-38 1768976227
15.522215 -22.778622 1.147089 1.880790849211783e-38 1768976227
15.483633 -22.722002 1.014964 1.880790849211783e-38 1768976227
15.824732 -23.222561 2.180465 1.880790849211783e-38 1768976227
15.769956 -23.142178 1.995456 1.880790849211783e-38 1768976227
15.428609 -22.641254 0.826536 1.880790849211783e-38 1768976227
15.388832 -22.582884 0.690336 1.880790849211783e-38 1768976227
15.726676 -23.078667 1.847259 1.880790849211783e-38 1768976227
15.673346 -23.000402 1.664621 1.880790849211783e-38 1768976227
15.047796 -22.082417 -0.477530 1.880790849211783e-38 1768976227
15.005242 -22.019970 -0.623247 1.880790849211783e-38 1768976227
15.324638 -22.488680 0.470503 1.880790849211783e-38 1768976227
15.283768 -22.428703 0.330547 1.880790849211783e-38 1768976227
14.958803 -21.951824 -0.784221 1.880790849211783e-38 1768976227
14.922760 -21.898930 -0.912340 1.880790849211783e-38 1768976227
15.235011 -22.357155 0.163582 1.880790849211783e-38 1768976227
15.193007 -22.295515 0.019737 1.880790849211783e-38 1768976227
16.329441 -24.119215 3.635401 1.880790849211783e-38 1768976227
16.235182 -23.979992 3.466425 1.880790849211783e-38 1768976227
15.087921 -22.285439 -0.156355 1.880790849211783e-38 1768976227
15.043365 -22.219629 -0.309476 1.880790849211783e-38 1768976227
16.152967 -23.858555 3.278070 1.880790849211783e-38 1768976227
16.071751 -23.738596 3.062346 1.880790849211783e-38 1768976227
16.022207 -23.665417 2.924382 1.880790849211783e-38 1768976227
15.951366 -23.560785 2.725334 1.880790849211783e-38 1768976227
15.563705 -22.988194 1.478738 1.880790849211783e-38 1768976227
15.523058 -22.928152 1.339036 1.880790849211783e-38 1768976227
15.881895 -23.458170 2.504995 1.880790849211783e-38 1768976227
15.839735 -23.395901 2.371285 1.880790849211783e-38 1768976227
15.467505 -22.846098 1.148133 1.880790849211783e-38 1768976227
15.429026 -22.789263 1.015885 1.880790849211783e-38 1768976227
15.780711 -23.308720 2.184076 1.880790849211783e-38 1768976227
15.722123 -23.222183 1.998257 1.880790849211783e-38 1768976227
15.374144 -22.708202 0.827283 1.880790849211783e-38 1768976227
15.334476 -22.649611 0.690959 1.880790849211783e-38 1768976227
15.675194 -23.152866 1.849406 1.880790849211783e-38 1768976227
15.618239 -23.068741 1.666150 1.880790849211783e-38 1768976227
14.994341 -22.147219 -0.477951 1.880790849211783e-38 1768976227
14.951903 -22.084538 -0.623796 1.880790849211783e-38 1768976227
15.270448 -22.555038 0.470926 1.880790849211783e-38 1768976227
15.229687 -22.494833 0.330843 1.880790849211783e-38 1768976227
14.905031 -22.015305 -0.784880 1.880790849211783e-38 1768976227
14.867743 -21.960230 -0.913022 1.880790849211783e-38 1768976227
15.181060 -22.423012 0.163728 1.880790849211783e-38 1768976227
15.139167 -22.361132 0.019755 1.880790849211783e-38 1768976227
16.273706 -24.193737 3.490213 1.880790849211783e-38 1768976227
15.034125 -22.350880 -0.156495 1.880790849211783e-38 1768976227
14.989688 -22.284815 -0.309753 1.880790849211783e-38 1768976227
16.146063 -24.003975 3.291345 1.880790849211783e-38 1768976227
16.049643 -23.860622 3.071830 1.880790849211783e-38 1768976227
15.992679 -23.775938 2.932066 1.880790849211783e-38 1768976227
15.921107 -23.669537 2.732348 1.880790849211783e-38 1768976227
15.514263 -23.064690 1.480643 1.880790849211783e-38 1768976227
15.470187 -22.999165 1.340452 1.880790849211783e-38 1768976227
15.841348 -23.550959 2.509790 1.880790849211783e-38 1768976227
15.795519 -23.482826 2.375256 1.880790849211783e-38 1768976227
15.412705 -22.913708 1.149189 1.880790849211783e-38 1768976227
15.374322 -22.856644 1.016817 1.880790849211783e-38 1768976227
15.736557 -23.395170 2.187720 1.880790849211783e-38 1768976227
15.678041 -23.308172 2.001579 1.880790849211783e-38 1768976227
15.319590 -22.775272 0.828040 1.880790849211783e-38 1768976227
15.280024 -22.716454 0.691589 1.880790849211783e-38 1768976227
15.631161 -23.238480 1.852471 1.880790849211783e-38 1768976227
15.573421 -23.152637 1.668810 1.880790849211783e-38 1768976227
14.940796 -22.212132 -0.478377 1.880790849211783e-38 1768976227
14.898472 -22.149210 -0.624350 1.880790849211783e-38 1768976227
15.216166 -22.621517 0.471354 1.880790849211783e-38 1768976227
15.175512 -22.561079 0.331143 1.880790849211783e-38 1768976227
14.851724 -22.079708 -0.785575 1.880790849211783e-38 1768976227
14.814536 -22.024426 -0.913829 1.880790849211783e-38 1768976227
15.127015 -22.488976 0.163876 1.880790849211783e-38 1768976227
15.085231 -22.426861 0.019773 1.880790849211783e-38 1768976227
14.980227 -22.416443 -0.156637 1.880790849211783e-38 1768976227
14.935911 -22.350130 -0.310033 1.880790849211783e-38 1768976227
16.196159 -24.235966 3.316442 1.880790849211783e-38 1768976227
16.042828 -24.006523 3.084369 1.880790849211783e-38 1768976227
15.980089 -23.912640 2.942967 1.880790849211783e-38 1768976227
15.891444 -23.779993 2.739553 1.880790849211783e-38 1768976227
15.470222 -23.149673 1.483096 1.880790849211783e-38 1768976227
15.426199 -23.083796 1.342667 1.880790849211783e-38 1768976227
15.811555 -23.660444 2.516364 1.880790849211783e-38 1768976227
15.763173 -23.588043 2.381079 1.880790849211783e-38 1768976227
15.366077 -22.993834 1.150878 1.880790849211783e-38 1768976227
15.324452 -22.931545 1.018088 1.880790849211783e-38 1768976227
15.695496 -23.486773 2.191849 1.880790849211783e-38 1768976227
15.633806 -23.394459 2.004931 1.880790849211783e-38 1768976227
15.265121 -22.842760 0.828816 1.880790849211783e-38 1768976227
15.225469 -22.783426 0.692227 1.880790849211783e-38 1768976227
15.586983 -23.324396 1.855564 1.880790849211783e-38 1768976227
15.529311 -23.238094 1.671586 1.880790849211783e-38 1768976227
14.887148 -22.277159 -0.478808 1.880790849211783e-38 1768976227
14.844938 -22.213997 -0.624912 1.880790849211783e-38 1768976227
15.161784 -22.688124 0.471787 1.880790849211783e-38 1768976227
15.121239 -22.627453 0.331446 1.880790849211783e-38 1768976227
14.798318 -22.144236 -0.786280 1.880790849211783e-38 1768976227
14.761234 -22.088741 -0.914646 1.880790849211783e-38 1768976227
15.072867 -22.555073 0.164025 1.880790849211783e-38 1768976227
15.031199 -22.492720 0.019791 1.880790849211783e-38 1768976227
14.926229 -22.482124 -0.156781 1.880790849211783e-38 1768976227
14.882033 -22.415554 -0.310317 1.880790849211783e-38 1768976227
16.083698 -24.225521 3.106260 1.880790849211783e-38 1768976227
15.986560 -24.079212 2.957520 1.880790849211783e-38 1768976227
15.882833 -23.922977 2.750495 1.880790849211783e-38 1768976227
15.426038 -23.234943 1.485572 1.880790849211783e-38 1768976227
15.382070 -23.168718 1.344902 1.880790849211783e-38 1768976227
15.783941 -23.774023 2.523369 1.880790849211783e-38 1768976227
15.733195 -23.697590 2.387336 1.880790849211783e-38 1768976227
15.322021 -23.078272 1.152786 1.880790849211783e-38 1768976227
15.280445 -23.015652 1.019772 1.880790849211783e-38 1768976227
15.665472 -23.595583 2.197585 1.880790849211783e-38 1768976227
15.598325 -23.494448 2.009459 1.880790849211783e-38 1768976227
15.221185 -22.926394 0.830181 1.880790849211783e-38 1768976227
15.178375 -22.861912 0.693217 1.880790849211783e-38 1768976227
15.544596 -23.413521 1.858916 1.880790849211783e-38 1768976227
15.485059 -23.323841 1.674387 1.880790849211783e-38 1768976227
14.833404 -22.342310 -0.479245 1.880790849211783e-38 1768976227
14.791306 -22.278902 -0.625480 1.880790849211783e-38 1768976227
15.109318 -22.757896 0.472288 1.880790849211783e-38 1768976227
15.066864 -22.693949 0.331753 1.880790849211783e-38 1768976227
14.744811 -22.208870 -0.786992 1.880790849211783e-38 1768976227
14.707827 -22.153164 -0.915473 1.880790849211783e-38 1768976227
15.018623 -22.621290 0.164177 1.880790849211783e-38 1768976227
14.977065 -22.558695 0.019809 1.880790849211783e-38 1768976227
14.872132 -22.547928 -0.156926 1.880790849211783e-38 1768976227
14.828053 -22.481098 -0.310603 1.880790849211783e-38 1768976227
16.055260 -24.341688 2.983797 1.880790849211783e-38 1768976227
15.891476 -24.093374 2.764563 1.880790849211783e-38 1768976227
15.381713 -23.320513 1.488070 1.880790849211783e-38 1768976227
15.337796 -23.253929 1.347157 1.880790849211783e-38 1768976227
15.774931 -23.916676 2.533449 1.880790849211783e-38 1768976227
15.714897 -23.825659 2.395452 1.880790849211783e-38 1768976227
15.277822 -23.163000 1.154712 1.880790849211783e-38 1768976227
15.236298 -23.100044 1.021470 1.880790849211783e-38 1768976227
15.635297 -23.704977 2.203371 1.880790849211783e-38 1768976227
15.568107 -23.603106 2.014727 1.880790849211783e-38 1768976227
15.177108 -23.010303 0.831558 1.880790849211783e-38 1768976227
15.134352 -22.945484 0.694364 1.880790849211783e-38 1768976227
15.514339 -23.521591 1.863773 1.880790849211783e-38 1768976227
15.448184 -23.421286 1.678030 1.880790849211783e-38 1768976227
14.779556 -22.407570 -0.479687 1.880790849211783e-38 1768976227
14.737576 -22.343922 -0.626055 1.880790849211783e-38 1768976227
15.065381 -22.840918 0.473066 1.880790849211783e-38 1768976227
15.021500 -22.774387 0.332265 1.880790849211783e-38 1768976227
14.691208 -22.273623 -0.787713 1.880790849211783e-38 1768976227
14.654324 -22.217701 -0.916309 1.880790849211783e-38 1768976227
14.969181 -22.695061 0.164384 1.880790849211783e-38 1768976227
14.924129 -22.626760 0.019829 1.880790849211783e-38 1768976227
14.825229 -22.624973 -0.157150 1.880790849211783e-38 1768976227
14.777434 -22.552029 -0.310966 1.880790849211783e-38 1768976227
15.957020 -24.352211 2.788728 1.880790849211783e-38 1768976227
15.349990 -23.425817 1.491829 1.880790849211783e-38 1768976227
15.299571 -23.348873 1.349978 1.880790849211783e-38 1768976227
15.781352 -24.084124 2.546133 1.880790849211783e-38 1768976227
15.705621 -23.968550 2.405046 1.880790849211783e-38 1768976227
15.233479 -23.248007 1.156654 1.880790849211783e-38 1768976227
15.192004 -23.184715 1.023184 1.880790849211783e-38 1768976227
15.621516 -23.840195 2.211551 1.880790849211783e-38 1768976227
15.538306 -23.713205 2.020116 1.880790849211783e-38 1768976227
15.132891 -23.094498 0.832947 1.880790849211783e-38 1768976227
15.090187 -23.029327 0.695521 1.880790849211783e-38 1768976227
15.483933 -23.630230 1.868672 1.880790849211783e-38 1768976227
15.417734 -23.529203 1.682423 1.880790849211783e-38 1768976227
14.725616 -22.472952 -0.480133 1.880790849211783e-38 1768976227
14.683746 -22.409056 -0.626636 1.880790849211783e-38 1768976227
15.021306 -22.924210 0.473850 1.880790849211783e-38 1768976227
14.977480 -22.857327 0.332815 1.880790849211783e-38 1768976227
14.637507 -22.338486 -0.788442 1.880790849211783e-38 1768976227
14.600722 -22.282347 -0.917155 1.880790849211783e-38 1768976227
14.925227 -22.777580 0.164655 1.880790849211783e-38 1768976227
14.880233 -22.708914 0.019862 1.880790849211783e-38 1768976227
14.781261 -22.706968 -0.157409 1.880790849211783e-38 1768976227
14.733526 -22.633636 -0.311477 1.880790849211783e-38 1768976227
15.319339 -23.533564 1.495741 1.880790849211783e-38 1768976227
15.268888 -23.456059 1.353507 1.880790849211783e-38 1768976227
15.831639 -24.320557 2.566069 1.880790849211783e-38 1768976227
15.725022 -24.156776 2.419163 1.880790849211783e-38 1768976227
15.200062 -23.350328 1.159459 1.880790849211783e-38 1768976227
15.152456 -23.277199 1.025244 1.880790849211783e-38 1768976227
15.611885 -23.982973 2.220417 1.880790849211783e-38 1768976227
15.528396 -23.854713 2.028172 1.880790849211783e-38 1768976227
15.088522 -23.178984 0.834349 1.880790849211783e-38 1768976227
15.045875 -23.113466 0.696689 1.880790849211783e-38 1768976227
15.461712 -23.752275 1.874627 1.880790849211783e-38 1768976227
15.387127 -23.637695 1.686854 1.880790849211783e-38 1768976227
14.681037 -22.553005 -0.480896 1.880790849211783e-38 1768976227
14.635625 -22.483240 -0.627473 1.880790849211783e-38 1768976227
14.977080 -23.007784 0.474642 1.880790849211783e-38 1768976227
14.933312 -22.940546 0.333369 1.880790849211783e-38 1768976227
14.585495 -22.406231 -0.789277 1.880790849211783e-38 1768976227
14.547018 -22.347122 -0.918011 1.880790849211783e-38 1768976227
14.881124 -22.860374 0.164928 1.880790849211783e-38 1768976227
14.836191 -22.791351 0.019895 1.880790849211783e-38 1768976227
14.737142 -22.789225 -0.157671 1.880790849211783e-38 1768976227
14.689472 -22.715509 -0.311993 1.880790849211783e-38 1768976227
15.288532 -23.641886 1.499688 1.880790849211783e-38 1768976227
15.238050 -23.563822 1.357067 1.880790849211783e-38 1768976227
15.802634 -24.436880 2.442430 1.880790849211783e-38 1768976227
15.169183 -23.457323 1.162494 1.880790849211783e-38 1768976227
15.121550 -23.383665 1.027920 1.880790849211783e-38 1768976227
15.634398 -24.176725 2.233980 1.880790849211783e-38 1768976227
15.518414 -23.997370 2.036313 1.880790849211783e-38 1768976227
15.053727 -23.278788 0.836304 1.880790849211783e-38 1768976227
15.004784 -23.203098 0.698023 1.880790849211783e-38 1768976227
15.451508 -23.893906 1.882119 1.880790849211783e-38 1768976227
15.369344 -23.766848 1.692756 1.880790849211783e-38 1768976227
14.637057 -22.634455 -0.481689 1.880790849211783e-38 1768976227
14.591704 -22.564323 -0.628505 1.880790849211783e-38 1768976227
14.932706 -23.091642 0.475441 1.880790849211783e-38 1768976227
14.888993 -23.024046 0.333929 1.880790849211783e-38 1768976227
14.541645 -22.486912 -0.790570 1.880790849211783e-38 1768976227
14.501842 -22.425362 -0.919425 1.880790849211783e-38 1768976227
14.836876 -22.943449 0.165204 1.880790849211783e-38 1768976227
14.792001 -22.874060 0.019928 1.880790849211783e-38 1768976227
14.692878 -22.871761 -0.157935 1.880790849211783e-38 1768976227
14.645271 -22.797655 -0.312513 1.880790849211783e-38 1768976227
15.274607 -23.777315 1.505350 1.880790849211783e-38 1768976227
15.212073 -23.679972 1.361108 1.880790849211783e-38 1768976227
15.138145 -23.564894 1.165557 1.880790849211783e-38 1768976227
15.090486 -23.490700 1.030620 1.880790849211783e-38 1768976227
15.711886 -24.458008 2.255582 1.880790849211783e-38 1768976227
15.543985 -24.196644 2.049235 1.880790849211783e-38 1768976227
15.022626 -23.385063 0.838490 1.880790849211783e-38 1768976227
14.973657 -23.308838 0.699842 1.880790849211783e-38 1768976227
15.450432 -24.051016 1.890815 1.880790849211783e-38 1768976227
15.358790 -23.908360 1.699528 1.880790849211783e-38 1768976227
14.592924 -22.716169 -0.482489 1.880790849211783e-38 1768976227
14.547633 -22.645666 -0.629546 1.880790849211783e-38 1768976227
14.894756 -23.186018 0.476457 1.880790849211783e-38 1768976227
14.844615 -23.107964 0.334495 1.880790849211783e-38 1768976227
14.497643 -22.567848 -0.791875 1.880790849211783e-38 1768976227
14.457899 -22.505980 -0.920938 1.880790849211783e-38 1768976227
14.792481 -23.026810 0.165482 1.880790849211783e-38 1768976227
14.747663 -22.957043 0.019961 1.880790849211783e-38 1768976227
14.648467 -22.954569 -0.158201 1.880790849211783e-38 1768976227
14.600928 -22.880070 -0.313038 1.880790849211783e-38 1768976227
15.263698 -23.918650 1.511377 1.880790849211783e-38 1768976227
15.200960 -23.820339 1.366535 1.880790849211783e-38 1768976227
15.115535 -23.686476 1.169311 1.880790849211783e-38 1768976227
15.059263 -23.598297 1.033343 1.880790849211783e-38 1768976227
15.621339 -24.479084 2.069155 1.880790849211783e-38 1768976227
14.991366 -23.491898 0.840696 1.880790849211783e-38 1768976227
14.942368 -23.415119 0.701677 1.880790849211783e-38 1768976227
15.476254 -24.251732 1.902917 1.880790849211783e-38 1768976227
15.360879 -24.070936 1.707783 1.880790849211783e-38 1768976227
14.548649 -22.798147 -0.483296 1.880790849211783e-38 1768976227
14.503423 -22.727276 -0.630596 1.880790849211783e-38 1768976227
14.863427 -23.291414 0.477699 1.880790849211783e-38 1768976227
14.813263 -23.212809 0.335364 1.880790849211783e-38 1768976227
14.453502 -22.649052 -0.793191 1.880790849211783e-38 1768976227
14.413807 -22.586845 -0.922464 1.880790849211783e-38 1768976227
14.753510 -23.119171 0.165825 1.880790849211783e-38 1768976227
14.703180 -23.040304 0.019995 1.880790849211783e-38 1768976227
14.607747 -23.043724 -0.158511 1.880790849211783e-38 1768976227
14.556425 -22.962763 -0.313567 1.880790849211783e-38 1768976227
15.267865 -24.085058 1.518975 1.880790849211783e-38 1768976227
15.189766 -23.961857 1.372019 1.880790849211783e-38 1768976227
15.104060 -23.826654 1.173977 1.880790849211783e-38 1768976227
15.044898 -23.733326 1.037264 1.880790849211783e-38 1768976227
14.960814 -23.600689 0.842971 1.880790849211783e-38 1768976227
14.910918 -23.521975 0.703528 1.880790849211783e-38 1768976227
15.571485 -24.564018 1.923727 1.880790849211783e-38 1768976227
15.386108 -24.271587 1.718719 1.880790849211783e-38 1768976227
14.504221 -22.880407 -0.484110 1.880790849211783e-38 1768976227
14.459057 -22.809164 -0.631655 1.880790849211783e-38 1768976227
14.831940 -23.397385 0.478953 1.880790849211783e-38 1768976227
14.781747 -23.318205 0.336241 1.880790849211783e-38 1768976227
14.409202 -22.730518 -0.794519 1.880790849211783e-38 1768976227
14.369565 -22.667992 -0.924004 1.880790849211783e-38 1768976227
14.721963 -23.223898 0.166257 1.880790849211783e-38 1768976227
14.670544 -23.142782 0.020045 1.880790849211783e-38 1768976227
14.575988 -23.147713 -0.158923 1.880790849211783e-38 1768976227
14.521457 -23.061115 -0.314311 1.880790849211783e-38 1768976227
15.292476 -24.285549 1.528704 1.880790849211783e-38 1768976227
15.204280 -24.145487 1.379902 1.880790849211783e-38 1768976227
15.092499 -23.967970 1.178692 1.880790849211783e-38 1768976227
15.033145 -23.873713 1.041413 1.880790849211783e-38 1768976227
14.948793 -23.739758 0.846324 1.880790849211783e-38 1768976227
14.888041 -23.643274 0.705810 1.880790849211783e-38 1768976227
15.481098 -24.585094 1.737605 1.880790849211783e-38 1768976227
14.461560 -22.965994 -0.484996 1.880790849211783e-38 1768976227
14.414539 -22.891323 -0.632723 1.880790849211783e-38 1768976227
14.800279 -23.503904 0.480217 1.880790849211783e-38 1768976227
14.750064 -23.424158 0.337126 1.880790849211783e-38 1768976227
14.364758 -22.812265 -0.795858 1.880790849211783e-38 1768976227
14.325174 -22.749405 -0.925557 1.880790849211783e-38 1768976227
14.690255 -23.329180 0.166693 1.880790849211783e-38 1768976227
14.638811 -23.247482 0.020098 1.880790849211783e-38 1768976227
14.544065 -23.252241 -0.159339 1.880790849211783e-38 1768976227
14.489513 -23.165028 -0.315130 1.880790849211783e-38 1768976227
15.384244 -24.595474 1.545285 1.880790849211783e-38 1768976227
15.228504 -24.346483 1.388757 1.880790849211783e-38 1768976227
15.107931 -24.153717 1.185580 1.880790849211783e-38 1768976227
15.025014 -24.021156 1.045864 1.880790849211783e-38 1768976227
14.936680 -23.879930 0.849711 1.880790849211783e-38 1768976227
14.875735 -23.782495 0.708624 1.880790849211783e-38 1768976227
14.429590 -23.069223 -0.486255 1.880790849211783e-38 1768976227
14.377801 -22.986425 -0.634151 1.880790849211783e-38 1768976227
14.777751 -23.625845 0.481796 1.880790849211783e-38 1768976227
14.718221 -23.530670 0.338019 1.880790849211783e-38 1768976227
14.320696 -22.895130 -0.797239 1.880790849211783e-38 1768976227
14.280635 -22.831083 -0.927124 1.880790849211783e-38 1768976227
14.658384 -23.435009 0.167132 1.880790849211783e-38 1768976227
14.606914 -23.352720 0.020151 1.880790849211783e-38 1768976227
14.511971 -23.357323 -0.159758 1.880790849211783e-38 1768976227
14.457397 -23.269485 -0.315956 1.880790849211783e-38 1768976227
15.350152 -24.706392 1.406640 1.880790849211783e-38 1768976227
15.131510 -24.354483 1.193189 1.880790849211783e-38 1768976227
15.047935 -24.219967 1.052539 1.880790849211783e-38 1768976227
