# .PCD v0.7 - Point Cloud Data file format
VERSION 0.7
FIELDS x y z rgb label
SIZE 4 4 4 4 4
TYPE F F F F U
COUNT 1 1 1 1 1
WIDTH 779
HEIGHT 1
VIEWPOINT 0 0 0 1 0 0 0
POINTS 779
DATA ascii
1.993608 53.571953 14.860768 1.880790849211783e-38 1768976227
1.997768 53.683769 14.408606 1.880790849211783e-38 1768976227
1.931333 51.898537 17.528347 1.880790849211783e-38 1768976227
2.033163 54.634872 17.927254 1.880790849211783e-38 1768976227
1.657467 44.539242 11.498693 1.880790849211783e-38 1768976227
1.606242 43.162720 10.631223 1.880790849211783e-38 1768976227
1.666678 44.786747 14.210247 1.880790849211783e-38 1768976227
1.684340 45.261368 13.842361 1.880790849211783e-38 1768976227
1.908888 51.295376 9.360581 1.880790849211783e-38 1768976227
1.845060 49.580200 8.601342 1.880790849211783e-38 1768976227
1.633395 43.892365 10.326098 1.880790849211783e-38 1768976227
1.623268 43.620232 9.994392 1.880790849211783e-38 1768976227
1.863367 50.072159 8.276985 1.880790849211783e-38 1768976227
1.878689 50.483883 7.900990 1.880790849211783e-38 1768976227
1.876400 50.422375 11.068151 1.880790849211783e-38 1768976227
1.775792 47.718842 10.123298 1.880790849211783e-38 1768976227
2.235304 55.557457 6.939826 1.880790849211783e-38 1768976227
2.252591 55.987133 6.707151 1.880790849211783e-38 1768976227
1.953508 48.553547 5.528561 1.880790849211783e-38 1768976227
2.288009 56.867413 6.079665 1.880790849211783e-38 1768976227
2.040439 50.714188 7.610984 1.880790849211783e-38 1768976227
2.017541 50.145061 7.197292 1.880790849211783e-38 1768976227
2.293952 57.015125 5.838846 1.880790849211783e-38 1768976227
2.186909 54.354633 5.210551 1.880790849211783e-38 1768976227
1.991099 49.487850 6.829609 1.880790849211783e-38 1768976227
2.296206 57.071140 7.549228 1.880790849211783e-38 1768976227
2.155201 53.566547 2.592588 1.880790849211783e-38 1768976227
2.244853 55.794800 4.937684 1.880790849211783e-38 1768976227
2.302368 57.224312 4.806638 1.880790849211783e-38 1768976227
2.116045 52.593334 2.190419 1.880790849211783e-38 1768976227
2.093931 52.043709 1.922644 1.880790849211783e-38 1768976227
2.299485 57.152649 4.438158 1.880790849211783e-38 1768976227
2.182339 54.241051 3.868061 1.880790849211783e-38 1768976227
2.160774 53.705067 3.555163 1.880790849211783e-38 1768976227
1.934638 48.084530 9.661023 1.880790849211783e-38 1768976227
1.854676 46.097130 8.780760 1.880790849211783e-38 1768976227
1.911531 47.510239 17.321381 1.880790849211783e-38 1768976227
1.868372 46.437523 13.690714 1.880790849211783e-38 1768976227
1.893422 47.060135 13.518052 1.880790849211783e-38 1768976227
2.074706 51.565861 18.198673 1.880790849211783e-38 1768976227
2.080868 51.719013 17.924723 1.880790849211783e-38 1768976227
2.157697 53.628586 14.878216 1.880790849211783e-38 1768976227
2.162205 53.740635 14.425552 1.880790849211783e-38 1768976227
2.089476 51.932968 17.542025 1.880790849211783e-38 1768976227
2.098967 52.168869 17.120087 1.880790849211783e-38 1768976227
1.793585 44.578724 11.510231 1.880790849211783e-38 1768976227
1.734957 43.121574 10.622329 1.880790849211783e-38 1768976227
1.778712 44.209068 14.028596 1.880790849211783e-38 1768976227
1.820041 45.236298 13.836309 1.880790849211783e-38 1768976227
1.981697 49.254177 8.989144 1.880790849211783e-38 1768976227
1.989396 49.445530 8.578981 1.880790849211783e-38 1768976227
1.762013 43.794018 10.304165 1.880790849211783e-38 1768976227
1.751112 43.523087 9.973299 1.880790849211783e-38 1768976227
2.006195 49.863060 8.243383 1.880790849211783e-38 1768976227
2.024217 50.310982 7.874849 1.880790849211783e-38 1768976227
2.051451 50.987881 11.193591 1.880790849211783e-38 1768976227
2.036846 50.624866 10.741050 1.880790849211783e-38 1768976227
2.405666 55.615547 6.947957 1.880790849211783e-38 1768976227
2.423694 56.032333 6.713411 1.880790849211783e-38 1768976227
2.096012 48.456779 5.518237 1.880790849211783e-38 1768976227
2.277236 52.646446 5.629113 1.880790849211783e-38 1768976227
2.191510 50.664566 7.604495 1.880790849211783e-38 1768976227
2.167787 50.116119 7.194044 1.880790849211783e-38 1768976227
2.470204 57.107571 5.849050 1.880790849211783e-38 1768976227
2.353025 54.398560 5.215418 1.880790849211783e-38 1768976227
2.294831 53.053204 7.322570 1.880790849211783e-38 1768976227
2.310809 53.422600 7.067497 1.880790849211783e-38 1768976227
2.317387 53.574669 2.593307 1.880790849211783e-38 1768976227
2.405229 55.605438 4.921546 1.880790849211783e-38 1768976227
2.479873 57.331120 4.816216 1.880790849211783e-38 1768976227
2.268342 52.440807 2.184341 1.880790849211783e-38 1768976227
2.244702 51.894287 1.917365 1.880790849211783e-38 1768976227
2.472497 57.160572 4.439332 1.880790849211783e-38 1768976227
2.344794 54.208271 3.866210 1.880790849211783e-38 1768976227
2.326140 53.777027 3.560375 1.880790849211783e-38 1768976227
2.078905 48.061298 9.657572 1.880790849211783e-38 1768976227
1.979055 45.752899 8.716287 1.880790849211783e-38 1768976227
1.997181 46.171959 13.614136 1.880790849211783e-38 1768976227
2.030472 46.941589 13.485698 1.880790849211783e-38 1768976227
2.231962 51.599747 18.212927 1.880790849211783e-38 1768976227
2.238596 51.753124 17.938803 1.880790849211783e-38 1768976227
2.316873 53.562790 14.861832 1.880790849211783e-38 1768976227
2.327031 53.797619 14.442667 1.880790849211783e-38 1768976227
2.247864 51.967392 17.555862 1.880790849211783e-38 1768976227
2.156215 49.848602 16.360712 1.880790849211783e-38 1768976227
1.929985 44.618481 11.521946 1.880790849211783e-38 1768976227
1.864601 43.106892 10.620049 1.880790849211783e-38 1768976227
1.862517 43.058723 13.665285 1.880790849211783e-38 1768976227
1.949478 45.069145 13.786919 1.880790849211783e-38 1768976227
2.129403 49.228752 8.985636 1.880790849211783e-38 1768976227
2.131824 49.284706 8.552155 1.880790849211783e-38 1768976227
1.838957 42.514050 10.004264 1.880790849211783e-38 1768976227
1.878423 43.426437 9.952405 1.880790849211783e-38 1768976227
2.150789 49.723160 8.221291 1.880790849211783e-38 1768976227
2.174101 50.262093 7.868188 1.880790849211783e-38 1768976227
2.230541 51.566898 11.322131 1.880790849211783e-38 1768976227
2.215117 51.210323 10.866634 1.880790849211783e-38 1768976227
2.576425 55.673683 6.956159 1.880790849211783e-38 1768976227
2.265283 48.950241 5.865675 1.880790849211783e-38 1768976227
2.237989 48.360455 5.508011 1.880790849211783e-38 1768976227
2.631907 56.872593 6.081806 1.880790849211783e-38 1768976227
2.354938 50.887592 7.639001 1.880790849211783e-38 1768976227
2.317905 50.087353 7.190885 1.880790849211783e-38 1768976227
2.438284 52.688610 5.397181 1.880790849211783e-38 1768976227
2.519455 54.442619 5.220347 1.880790849211783e-38 1768976227
2.461828 53.197365 7.343459 1.880790849211783e-38 1768976227
2.473354 53.446438 7.071606 1.880790849211783e-38 1768976227
2.479669 53.582893 2.594055 1.880790849211783e-38 1768976227
2.564558 55.417244 4.905551 1.880790849211783e-38 1768976227
2.658088 57.438335 4.825874 1.880790849211783e-38 1768976227
2.419799 52.289173 2.178319 1.880790849211783e-38 1768976227
2.645603 57.168545 4.440550 1.880790849211783e-38 1768976227
2.510963 54.259121 3.870359 1.880790849211783e-38 1768976227
2.491995 53.849239 3.565638 1.880790849211783e-38 1768976227
2.223062 48.037907 9.654175 1.880790849211783e-38 1768976227
2.083649 45.025333 8.578838 1.880790849211783e-38 1768976227
2.138325 46.206837 13.626259 1.880790849211783e-38 1768976227
2.166858 46.823395 13.453559 1.880790849211783e-38 1768976227
2.389462 51.633617 18.227343 1.880790849211783e-38 1768976227
2.396570 51.787209 17.953041 1.880790849211783e-38 1768976227
2.471446 53.405190 14.820106 1.880790849211783e-38 1768976227
2.203229 47.609329 12.783066 1.880790849211783e-38 1768976227
2.406500 52.001793 17.569857 1.880790849211783e-38 1768976227
2.329318 50.333969 16.522243 1.880790849211783e-38 1768976227
2.066675 44.658550 11.533851 1.880790849211783e-38 1768976227
1.994195 43.092327 10.617894 1.880790849211783e-38 1768976227
2.386722 51.574421 16.370070 1.880790849211783e-38 1768976227
2.062146 44.560680 13.633217 1.880790849211783e-38 1768976227
2.281459 49.299797 8.999819 1.880790849211783e-38 1768976227
2.276149 49.185047 8.536014 1.880790849211783e-38 1768976227
1.966775 42.499821 10.002266 1.880790849211783e-38 1768976227
2.006196 43.351673 9.936611 1.880790849211783e-38 1768976227
2.298833 49.675240 8.214476 1.880790849211783e-38 1768976227
2.323729 50.213203 7.861596 1.880790849211783e-38 1768976227
2.162181 46.722332 10.259834 1.880790849211783e-38 1768976227
2.397612 51.809738 10.995312 1.880790849211783e-38 1768976227
2.551738 51.759315 6.468009 1.880790849211783e-38 1768976227
2.408414 48.852131 5.854763 1.880790849211783e-38 1768976227
2.379449 48.264606 5.497887 1.880790849211783e-38 1768976227
2.582057 52.374298 5.601577 1.880790849211783e-38 1768976227
2.508384 50.879921 7.638950 1.880790849211783e-38 1768976227
2.467901 50.058777 7.187819 1.880790849211783e-38 1768976227
2.590359 52.542694 5.383010 1.880790849211783e-38 1768976227
2.686204 54.486828 5.225339 1.880790849211783e-38 1768976227
2.530731 51.333214 7.087150 1.880790849211783e-38 1768976227
2.540498 51.531311 6.819194 1.880790849211783e-38 1768976227
2.642052 53.591240 2.594834 1.880790849211783e-38 1768976227
2.722853 55.230198 4.889699 1.880790849211783e-38 1768976227
2.837021 57.545979 4.835616 1.880790849211783e-38 1768976227
2.570428 52.138424 2.172353 1.880790849211783e-38 1768976227
2.818809 57.176552 4.441813 1.880790849211783e-38 1768976227
2.678609 54.332767 3.876171 1.880790849211783e-38 1768976227
2.658344 53.921703 3.570950 1.880790849211783e-38 1768976227
2.290233 46.454956 9.337395 1.880790849211783e-38 1768976227
2.394393 48.567741 9.255119 1.880790849211783e-38 1768976227
2.272338 46.091988 13.594349 1.880790849211783e-38 1768976227
2.608433 52.909302 15.204387 1.880790849211783e-38 1768976227
2.550141 51.726929 18.262915 1.880790849211783e-38 1768976227
2.558288 51.892166 17.992020 1.880790849211783e-38 1768976227
2.625149 53.248371 14.778717 1.880790849211783e-38 1768976227
2.352484 47.717648 12.813996 1.880790849211783e-38 1768976227
2.566899 52.066837 17.594370 1.880790849211783e-38 1768976227
2.505840 50.828320 16.686922 1.880790849211783e-38 1768976227
2.187675 44.374683 11.462190 1.880790849211783e-38 1768976227
2.123744 43.077896 10.615868 1.880790849211783e-38 1768976227
2.550785 51.739975 16.424984 1.880790849211783e-38 1768976227
2.172318 44.063183 13.482952 1.880790849211783e-38 1768976227
2.433992 49.370960 9.014109 1.880790849211783e-38 1768976227
2.422506 49.137981 8.529075 1.880790849211783e-38 1768976227
2.094548 42.485691 10.000381 1.880790849211783e-38 1768976227
2.134169 43.289375 9.923762 1.880790849211783e-38 1768976227
2.446630 49.627308 8.207732 1.880790849211783e-38 1768976227
2.495741 50.623474 7.926972 1.880790849211783e-38 1768976227
2.308128 46.817940 10.282310 1.880790849211783e-38 1768976227
2.576858 52.268852 11.094346 1.880790849211783e-38 1768976227
2.618349 50.041275 6.254276 1.880790849211783e-38 1768976227
2.551019 48.754475 5.843955 1.880790849211783e-38 1768976227
2.520395 48.169205 5.487860 1.880790849211783e-38 1768976227
2.911442 55.642788 5.952064 1.880790849211783e-38 1768976227
2.666827 50.967762 7.653311 1.880790849211783e-38 1768976227
2.617780 50.030392 7.184843 1.880790849211783e-38 1768976227
2.747250 52.504803 5.379952 1.880790849211783e-38 1768976227
2.760139 52.751118 5.059659 1.880790849211783e-38 1768976227
2.682418 51.265743 7.078919 1.880790849211783e-38 1768976227
2.810823 53.719791 7.109887 1.880790849211783e-38 1768976227
2.804539 53.599693 2.595641 1.880790849211783e-38 1768976227
2.880126 55.044281 4.873986 1.880790849211783e-38 1768976227
3.016679 57.654053 4.845439 1.880790849211783e-38 1768976227
2.721995 52.022121 2.167839 1.880790849211783e-38 1768976227
2.992117 57.184628 4.443120 1.880790849211783e-38 1768976227
2.846764 54.406685 3.882040 1.880790849211783e-38 1768976227
2.825194 53.994453 3.576316 1.880790849211783e-38 1768976227
2.861663 54.691425 0.946861 1.880790849211783e-38 1768976227
2.370746 45.309143 9.108482 1.880790849211783e-38 1768976227
2.563086 48.985092 9.336081 1.880790849211783e-38 1768976227
2.405715 45.977448 13.562645 1.880790849211783e-38 1768976227
2.475173 47.304932 13.595960 1.880790849211783e-38 1768976227
2.710263 51.797909 18.290777 1.880790849211783e-38 1768976227
2.719507 51.974579 18.023355 1.880790849211783e-38 1768976227
2.777993 53.092350 14.737672 1.880790849211783e-38 1768976227
2.411890 46.095474 12.380278 1.880790849211783e-38 1768976227
2.723169 52.044563 17.589537 1.880790849211783e-38 1768976227
2.668519 51.000103 16.745882 1.880790849211783e-38 1768976227
2.307401 44.098503 11.392595 1.880790849211783e-38 1768976227
2.253251 43.063595 10.613970 1.880790849211783e-38 1768976227
2.707897 51.752686 16.431538 1.880790849211783e-38 1768976227
2.279429 43.563919 13.332224 1.880790849211783e-38 1768976227
2.587007 49.442265 9.028511 1.880790849211783e-38 1768976227
2.606854 49.821575 8.649054 1.880790849211783e-38 1768976227
2.222826 42.482117 10.001073 1.880790849211783e-38 1768976227
2.261817 43.227325 9.911057 1.880790849211783e-38 1768976227
2.594180 49.579350 8.201057 1.880790849211783e-38 1768976227
2.786949 53.263519 8.341647 1.880790849211783e-38 1768976227
2.243759 42.882195 9.419372 1.880790849211783e-38 1768976227
2.711582 51.823116 11.001422 1.880790849211783e-38 1768976227
2.721561 49.171394 6.146554 1.880790849211783e-38 1768976227
2.693106 48.657295 5.833253 1.880790849211783e-38 1768976227
2.660835 48.074242 5.477931 1.880790849211783e-38 1768976227
3.148220 56.879990 6.085394 1.880790849211783e-38 1768976227
2.824102 51.024033 7.663004 1.880790849211783e-38 1768976227
2.767543 50.002174 7.181957 1.880790849211783e-38 1768976227
3.072263 55.507648 5.688565 1.880790849211783e-38 1768976227
3.174324 57.351620 5.501812 1.880790849211783e-38 1768976227
2.827668 51.088463 7.055585 1.880790849211783e-38 1768976227
2.980122 53.842899 7.127339 1.880790849211783e-38 1768976227
2.967135 53.608257 2.596477 1.880790849211783e-38 1768976227
2.932996 52.991455 4.692976 1.880790849211783e-38 1768976227
2.942504 53.163254 4.468743 1.880790849211783e-38 1768976227
2.881684 52.064388 2.169952 1.880790849211783e-38 1768976227
3.164729 57.178272 4.443348 1.880790849211783e-38 1768976227
3.015433 54.480873 3.887964 1.880790849211783e-38 1768976227
2.992551 54.067463 3.581734 1.880790849211783e-38 1768976227
3.034687 54.828754 0.949392 1.880790849211783e-38 1768976227
2.487035 44.934128 9.034561 1.880790849211783e-38 1768976227
2.710114 48.964573 9.333685 1.880790849211783e-38 1768976227
2.551937 46.106728 13.602990 1.880790849211783e-38 1768976227
2.603651 47.041069 13.522318 1.880790849211783e-38 1768976227
2.843314 51.371151 18.143028 1.880790849211783e-38 1768976227
2.857488 51.627224 17.905809 1.880790849211783e-38 1768976227
2.931253 52.959972 14.703314 1.880790849211783e-38 1768976227
2.536466 45.827217 12.310228 1.880790849211783e-38 1768976227
2.877383 51.986683 17.572828 1.880790849211783e-38 1768976227
2.823443 51.012127 16.752552 1.880790849211783e-38 1768976227
2.438328 44.054119 11.382977 1.880790849211783e-38 1768976227
2.382719 43.049412 10.612197 1.880790849211783e-38 1768976227
2.865124 51.765190 16.438175 1.880790849211783e-38 1768976227
2.490924 45.004391 13.775301 1.880790849211783e-38 1768976227
2.734573 49.406487 9.023443 1.880790849211783e-38 1768976227
2.746748 49.626450 8.616578 1.880790849211783e-38 1768976227
2.351897 42.492546 10.005153 1.880790849211783e-38 1768976227
2.336890 42.221409 9.681995 1.880790849211783e-38 1768976227
2.876887 51.977722 8.599175 1.880790849211783e-38 1768976227
3.005132 54.294777 8.504534 1.880790849211783e-38 1768976227
2.370093 42.821304 9.407524 1.880790849211783e-38 1768976227
2.890783 52.228783 11.089341 1.880790849211783e-38 1768976227
2.864578 49.072716 6.135272 1.880790849211783e-38 1768976227
2.834966 48.565445 5.823240 1.880790849211783e-38 1768976227
2.803339 48.023640 5.473104 1.880790849211783e-38 1768976227
3.318767 56.853367 6.083589 1.880790849211783e-38 1768976227
2.968229 50.848351 7.637929 1.880790849211783e-38 1768976227
2.919245 50.009209 7.184199 1.880790849211783e-38 1768976227
3.328738 57.024189 5.844986 1.880790849211783e-38 1768976227
3.231104 55.351635 5.310862 1.880790849211783e-38 1768976227
3.098531 53.080536 7.331958 1.880790849211783e-38 1768976227
3.178582 54.451881 7.209188 1.880790849211783e-38 1768976227
3.134558 53.697708 2.601256 1.880790849211783e-38 1768976227
3.191652 54.675785 4.842973 1.880790849211783e-38 1768976227
3.101082 53.124245 4.466230 1.880790849211783e-38 1768976227
3.040958 52.094269 2.171570 1.880790849211783e-38 1768976227
3.115569 53.372410 4.148304 1.880790849211783e-38 1768976227
3.166117 54.238350 1.372465 1.880790849211783e-38 1768976227
3.160419 54.140739 3.587203 1.880790849211783e-38 1768976227
3.210141 54.992508 0.952391 1.880790849211783e-38 1768976227
2.601462 44.565319 8.961944 1.880790849211783e-38 1768976227
2.856814 48.939720 9.330547 1.880790849211783e-38 1768976227
3.046849 52.195171 15.401920 1.880790849211783e-38 1768976227
2.757475 47.237957 13.581243 1.880790849211783e-38 1768976227
3.003952 51.460312 18.177633 1.880790849211783e-38 1768976227
3.018955 51.717323 17.940134 1.880790849211783e-38 1768976227
2.969641 50.872540 14.126201 1.880790849211783e-38 1768976227
2.659666 45.562401 12.241192 1.880790849211783e-38 1768976227
2.850645 48.834034 16.509983 1.880790849211783e-38 1768976227
2.978480 51.023964 16.759312 1.880790849211783e-38 1768976227
2.569049 44.010044 11.373540 1.880790849211783e-38 1768976227
2.512152 43.035362 10.610553 1.880790849211783e-38 1768976227
3.022468 51.777512 16.444910 1.880790849211783e-38 1768976227
2.620682 44.894573 13.744043 1.880790849211783e-38 1768976227
2.872852 49.214458 8.989913 1.880790849211783e-38 1768976227
2.885594 49.432735 8.584416 1.880790849211783e-38 1768976227
2.481081 42.503082 10.009351 1.880790849211783e-38 1768976227
2.465243 42.231762 9.686030 1.880790849211783e-38 1768976227
3.042238 52.116188 8.623561 1.880790849211783e-38 1768976227
2.966275 50.814888 7.960822 1.880790849211783e-38 1768976227
2.496115 42.760635 9.395806 1.880790849211783e-38 1768976227
2.666558 45.680458 9.700648 1.880790849211783e-38 1768976227
3.008214 48.993000 6.126411 1.880790849211783e-38 1768976227
2.978980 48.516891 5.818469 1.880790849211783e-38 1768976227
2.945774 47.976082 5.468671 1.880790849211783e-38 1768976227
3.318042 54.038982 5.783480 1.880790849211783e-38 1768976227
3.111417 50.673805 7.613086 1.880790849211783e-38 1768976227
3.075598 50.090446 7.197170 1.880790849211783e-38 1768976227
3.321638 54.097549 5.546007 1.880790849211783e-38 1768976227
3.326882 54.182957 5.199669 1.880790849211783e-38 1768976227
3.243399 52.823322 7.297748 1.880790849211783e-38 1768976227
3.345423 54.484928 7.214866 1.880790849211783e-38 1768976227
3.316867 54.019848 2.617333 1.880790849211783e-38 1768976227
3.345930 54.493183 4.827671 1.880790849211783e-38 1768976227
3.540112 57.655712 4.848073 1.880790849211783e-38 1768976227
3.382688 55.091827 2.296940 1.880790849211783e-38 1768976227
3.274925 53.336765 4.146282 1.880790849211783e-38 1768976227
3.291937 53.613819 3.827435 1.880790849211783e-38 1768976227
3.359216 54.709564 1.384639 1.880790849211783e-38 1768976227
3.328806 54.214294 3.592726 1.880790849211783e-38 1768976227
3.395763 55.304779 0.957972 1.880790849211783e-38 1768976227
2.794373 45.510296 9.153629 1.880790849211783e-38 1768976227
2.993819 48.758564 9.297688 1.880790849211783e-38 1768976227
3.196923 52.066383 15.366692 1.880790849211783e-38 1768976227
2.917273 47.511894 13.662470 1.880790849211783e-38 1768976227
3.165197 51.549679 18.212490 1.880790849211783e-38 1768976227
3.181034 51.807621 17.974705 1.880790849211783e-38 1768976227
2.847448 46.374702 12.879575 1.880790849211783e-38 1768976227
2.787541 45.399025 12.199501 1.880790849211783e-38 1768976227
3.016533 49.128490 16.612534 1.880790849211783e-38 1768976227
3.133632 51.035610 16.766165 1.880790849211783e-38 1768976227
2.699568 43.966263 11.364278 1.880790849211783e-38 1768976227
2.641554 43.021435 10.609035 1.880790849211783e-38 1768976227
3.179930 51.789642 16.451733 1.880790849211783e-38 1768976227
2.749841 44.785042 13.712987 1.880790849211783e-38 1768976227
3.010106 49.023808 8.956704 1.880790849211783e-38 1768976227
3.023407 49.240437 8.552566 1.880790849211783e-38 1768976227
2.610381 42.513721 10.013664 1.880790849211783e-38 1768976227
2.593710 42.242222 9.690179 1.880790849211783e-38 1768976227
3.394537 55.284817 9.149520 1.880790849211783e-38 1768976227
3.109371 50.640488 7.934932 1.880790849211783e-38 1768976227
2.621830 42.700184 9.384219 1.880790849211783e-38 1768976227
2.781436 45.299606 9.621508 1.880790849211783e-38 1768976227
3.153386 48.943768 6.121416 1.880790849211783e-38 1768976227
3.122767 48.468525 5.813772 1.880790849211783e-38 1768976227
3.087986 47.928677 5.464304 1.880790849211783e-38 1768976227
3.533181 54.838570 5.870170 1.880790849211783e-38 1768976227
3.253677 50.500381 7.588471 1.880790849211783e-38 1768976227
3.232531 50.172176 7.210281 1.880790849211783e-38 1768976227
3.537521 54.905941 5.629950 1.880790849211783e-38 1768976227
3.486879 54.119907 5.194603 1.880790849211783e-38 1768976227
3.386916 52.568386 7.263905 1.880790849211783e-38 1768976227
3.513112 54.527081 7.221818 1.880790849211783e-38 1768976227
3.501452 54.346104 2.633641 1.880790849211783e-38 1768976227
3.493173 54.217609 4.804168 1.880790849211783e-38 1768976227
3.497940 54.291588 4.566061 1.880790849211783e-38 1768976227
3.690774 57.284569 4.454021 1.880790849211783e-38 1768976227
3.451928 53.577438 3.825564 1.880790849211783e-38 1768976227
3.407909 52.894215 1.598984 1.880790849211783e-38 1768976227
3.537686 54.908485 1.389937 1.880790849211783e-38 1768976227
3.466465 53.803066 3.566150 1.880790849211783e-38 1768976227
2.920521 45.329456 9.118987 1.880790849211783e-38 1768976227
3.128381 48.555672 9.260756 1.880790849211783e-38 1768976227
3.338175 51.811882 15.294481 1.880790849211783e-38 1768976227
3.078976 47.788841 13.744716 1.880790849211783e-38 1768976227
3.247485 50.404278 17.811199 1.880790849211783e-38 1768976227
3.281048 50.925217 17.671906 1.880790849211783e-38 1768976227
3.013714 46.775909 12.993466 1.880790849211783e-38 1768976227
2.926270 45.418697 12.207103 1.880790849211783e-38 1768976227
2.938466 45.607979 15.425018 1.880790849211783e-38 1768976227
3.288898 51.047050 16.773106 1.880790849211783e-38 1768976227
2.829892 43.922810 11.355200 1.880790849211783e-38 1768976227
2.771880 43.022400 10.611287 1.880790849211783e-38 1768976227
3.255867 50.534378 16.056026 1.880790849211783e-38 1768976227
2.898569 44.988747 13.777975 1.880790849211783e-38 1768976227
3.146347 48.834507 8.923812 1.880790849211783e-38 1768976227
3.160198 49.049503 8.521020 1.880790849211783e-38 1768976227
2.739798 42.524460 10.018094 1.880790849211783e-38 1768976227
2.722294 42.252781 9.694440 1.880790849211783e-38 1768976227
3.575306 55.492397 9.185616 1.880790849211783e-38 1768976227
3.251539 50.467197 7.909280 1.880790849211783e-38 1768976227
2.747240 42.639965 9.372763 1.880790849211783e-38 1768976227
2.898680 44.990463 9.557660 1.880790849211783e-38 1768976227
3.300068 48.920475 6.119720 1.880790849211783e-38 1768976227
3.266330 48.420341 5.809147 1.880790849211783e-38 1768976227
3.229977 47.881443 5.460005 1.880790849211783e-38 1768976227
3.825202 56.705097 6.071178 1.880790849211783e-38 1768976227
3.395021 50.328064 7.564082 1.880790849211783e-38 1768976227
3.390055 50.254448 7.223541 1.880790849211783e-38 1768976227
3.839938 56.923546 5.837992 1.880790849211783e-38 1768976227
3.861576 57.244312 5.495587 1.880790849211783e-38 1768976227
3.529102 52.315693 7.230426 1.880790849211783e-38 1768976227
3.688359 54.676529 2.650180 1.880790849211783e-38 1768976227
3.658286 54.230724 4.561850 1.880790849211783e-38 1768976227
3.665330 54.335144 4.225536 1.880790849211783e-38 1768976227
3.672398 54.439922 3.887920 1.880790849211783e-38 1768976227
3.550311 52.630096 1.591316 1.880790849211783e-38 1768976227
3.717529 55.108948 1.395289 1.880790849211783e-38 1768976227
3.626936 53.765991 3.564402 1.880790849211783e-38 1768976227
3.646168 54.051079 3.240008 1.880790849211783e-38 1768976227
3.049333 45.203560 9.095469 1.880790849211783e-38 1768976227
3.261876 48.354313 9.224187 1.880790849211783e-38 1768976227
3.457751 51.257969 18.715069 1.880790849211783e-38 1768976227
3.466595 51.389084 15.172691 1.880790849211783e-38 1768976227
3.242621 48.068867 13.828005 1.880790849211783e-38 1768976227
3.404575 50.469700 17.837864 1.880790849211783e-38 1768976227
3.491142 51.752968 17.962721 1.880790849211783e-38 1768976227
3.182882 47.183292 13.109237 1.880790849211783e-38 1768976227
3.065218 45.439034 12.214998 1.880790849211783e-38 1768976227
3.062277 45.395443 15.356191 1.880790849211783e-38 1768976227
3.444282 51.058304 16.780142 1.880790849211783e-38 1768976227
2.960024 43.879631 11.346293 1.880790849211783e-38 1768976227
2.902953 43.033611 10.616162 1.880790849211783e-38 1768976227
3.432969 50.890610 16.172426 1.880790849211783e-38 1768976227
3.466992 51.394962 15.743034 1.880790849211783e-38 1768976227
3.281591 48.646561 8.891235 1.880790849211783e-38 1768976227
3.295985 48.859947 8.489778 1.880790849211783e-38 1768976227
2.869339 42.535313 10.022643 1.880790849211783e-38 1768976227
2.850999 42.263439 9.698814 1.880790849211783e-38 1768976227
3.390229 50.257034 8.320665 1.880790849211783e-38 1768976227
3.392793 50.295029 7.883866 1.880790849211783e-38 1768976227
2.876980 42.648575 9.376520 1.880790849211783e-38 1768976227
3.016887 44.722584 9.502642 1.880790849211783e-38 1768976227
3.454687 49.010933 6.132312 1.880790849211783e-38 1768976227
3.409672 48.372318 5.804593 1.880790849211783e-38 1768976227
3.371754 47.834381 5.455773 1.880790849211783e-38 1768976227
4.003315 56.794216 6.081985 1.880790849211783e-38 1768976227
3.535459 50.156834 7.539915 1.880790849211783e-38 1768976227
3.537449 50.185059 7.215067 1.880790849211783e-38 1768976227
4.018766 57.013401 5.848424 1.880790849211783e-38 1768976227
3.409468 48.369411 4.644542 1.880790849211783e-38 1768976227
3.669977 52.065201 7.197303 1.880790849211783e-38 1768976227
3.829964 54.334908 2.901397 1.880790849211783e-38 1768976227
3.356331 47.615578 1.761995 1.880790849211783e-38 1768976227
3.833047 54.378651 3.884353 1.880790849211783e-38 1768976227
3.872909 54.944164 1.661629 1.880790849211783e-38 1768976227
3.895751 55.268215 1.399613 1.880790849211783e-38 1768976227
3.839031 54.463535 3.611396 1.880790849211783e-38 1768976227
3.807594 54.017551 3.238672 1.880790849211783e-38 1768976227
3.177500 45.078537 9.072200 1.880790849211783e-38 1768976227
3.394317 48.154472 9.187976 1.880790849211783e-38 1768976227
3.625127 51.428928 18.781395 1.880790849211783e-38 1768976227
3.280408 46.538475 13.743402 1.880790849211783e-38 1768976227
3.408242 48.352028 13.912354 1.880790849211783e-38 1768976227
3.627456 51.461967 18.192352 1.880790849211783e-38 1768976227
3.653453 51.830776 17.993471 1.880790849211783e-38 1768976227
3.346046 47.469666 13.191545 1.880790849211783e-38 1768976227
3.204387 45.459980 12.223171 1.880790849211783e-38 1768976227
3.199633 45.392529 15.358399 1.880790849211783e-38 1768976227
3.599781 51.069359 16.787266 1.880790849211783e-38 1768976227
3.140674 44.556091 11.523608 1.880790849211783e-38 1768976227
3.034155 43.044933 10.621165 1.880790849211783e-38 1768976227
3.599920 51.071327 16.233232 1.880790849211783e-38 1768976227
3.601409 51.092445 15.653625 1.880790849211783e-38 1768976227
3.415848 48.459927 8.858967 1.880790849211783e-38 1768976227
3.430777 48.671726 8.458833 1.880790849211783e-38 1768976227
2.999005 42.546265 10.027310 1.880790849211783e-38 1768976227
2.979828 42.274197 9.703301 1.880790849211783e-38 1768976227
3.530481 50.086205 8.294108 1.880790849211783e-38 1768976227
3.533142 50.123959 7.858684 1.880790849211783e-38 1768976227
3.007833 42.671497 9.383512 1.880790849211783e-38 1768976227
3.133755 44.457939 9.448377 1.880790849211783e-38 1768976227
3.609957 49.101933 6.145031 1.880790849211783e-38 1768976227
3.561974 48.449280 5.815091 1.880790849211783e-38 1768976227
3.513319 47.787487 5.451608 1.880790849211783e-38 1768976227
3.600106 48.967941 5.245023 1.880790849211783e-38 1768976227
3.675005 49.986698 7.515971 1.880790849211783e-38 1768976227
3.706902 50.420559 7.250499 1.880790849211783e-38 1768976227
3.573177 48.601654 4.986632 1.880790849211783e-38 1768976227
3.535061 48.083214 4.618063 1.880790849211783e-38 1768976227
3.809561 51.816902 7.164535 1.880790849211783e-38 1768976227
3.467355 47.162292 2.518938 1.880790849211783e-38 1768976227
3.503040 47.647671 2.310472 1.880790849211783e-38 1768976227
3.503700 47.656639 4.225444 1.880790849211783e-38 1768976227
3.507103 47.702927 1.990494 1.880790849211783e-38 1768976227
3.509940 47.741516 1.767039 1.880790849211783e-38 1768976227
4.485706 61.013695 4.746932 1.880790849211783e-38 1768976227
4.054236 55.144924 1.668063 1.880790849211783e-38 1768976227
4.073627 55.408688 1.403475 1.880790849211783e-38 1768976227
3.999660 54.402592 3.608139 1.880790849211783e-38 1768976227
4.007578 54.510300 3.268924 1.880790849211783e-38 1768976227
3.402500 46.280144 9.316050 1.880790849211783e-38 1768976227
3.525718 47.956131 9.152119 1.880790849211783e-38 1768976227
3.793448 51.597748 18.847137 1.880790849211783e-38 1768976227
3.417536 46.484650 13.730487 1.880790849211783e-38 1768976227
3.575876 48.638363 13.997783 1.880790849211783e-38 1768976227
3.828696 52.077171 18.413832 1.880790849211783e-38 1768976227
3.816290 51.908424 18.024340 1.880790849211783e-38 1768976227
3.497719 47.575287 13.223769 1.880790849211783e-38 1768976227
3.343789 45.481560 12.231630 1.880790849211783e-38 1768976227
3.355337 45.638641 15.445024 1.880790849211783e-38 1768976227
3.433151 46.697060 15.353358 1.880790849211783e-38 1768976227
3.298840 44.870174 11.607360 1.880790849211783e-38 1768976227
3.174096 43.173428 10.655185 1.880790849211783e-38 1768976227
3.752370 51.039005 16.226482 1.880790849211783e-38 1768976227
3.884953 52.842365 16.193279 1.880790849211783e-38 1768976227
3.548947 48.272083 8.826545 1.880790849211783e-38 1768976227
3.564672 48.485966 8.428378 1.880790849211783e-38 1768976227
3.128800 42.557327 10.032095 1.880790849211783e-38 1768976227
3.108782 42.285049 9.707901 1.880790849211783e-38 1768976227
3.669841 49.916458 8.267795 1.880790849211783e-38 1768976227
3.672598 49.953964 7.833733 1.880790849211783e-38 1768976227
3.077932 41.865433 9.208256 1.880790849211783e-38 1768976227
3.249309 44.196472 9.394848 1.880790849211783e-38 1768976227
3.775747 49.322281 6.174005 1.880790849211783e-38 1768976227
3.715726 48.538227 5.827085 1.880790849211783e-38 1768976227
3.659190 47.799706 5.454237 1.880790849211783e-38 1768976227
3.726523 48.679268 5.215283 1.880790849211783e-38 1768976227
3.813667 49.817619 7.492244 1.880790849211783e-38 1768976227
3.866242 50.504410 7.264201 1.880790849211783e-38 1768976227
3.695482 48.273777 4.954112 1.880790849211783e-38 1768976227
3.659237 47.800316 4.591932 1.880790849211783e-38 1768976227
4.160720 54.351151 7.516637 1.880790849211783e-38 1768976227
4.233018 55.295586 7.329832 1.880790849211783e-38 1768976227
3.553608 46.420494 2.479879 1.880790849211783e-38 1768976227
3.559526 46.497807 2.255225 1.880790849211783e-38 1768976227
3.626956 47.378632 4.201745 1.880790849211783e-38 1768976227
3.514328 45.907387 3.864213 1.880790849211783e-38 1768976227
3.661462 47.829372 1.996222 1.880790849211783e-38 1768976227
4.086729 53.384613 1.976352 1.880790849211783e-38 1768976227
3.520017 45.981697 3.578236 1.880790849211783e-38 1768976227
3.532016 46.138447 3.297204 1.880790849211783e-38 1768976227
4.236972 55.347233 1.674561 1.880790849211783e-38 1768976227
4.252491 55.549938 1.407371 1.880790849211783e-38 1768976227
3.538162 46.218735 3.066055 1.880790849211783e-38 1768976227
3.545746 46.317791 2.778257 1.880790849211783e-38 1768976227
3.699821 48.330471 9.730976 1.880790849211783e-38 1768976227
3.656093 47.759251 9.116608 1.880790849211783e-38 1768976227
3.951959 51.624123 18.861040 1.880790849211783e-38 1768976227
3.554448 46.431461 13.717881 1.880790849211783e-38 1768976227
3.743724 48.903973 14.077408 1.880790849211783e-38 1768976227
3.989443 52.113770 18.430944 1.880790849211783e-38 1768976227
3.979655 51.985909 18.055330 1.880790849211783e-38 1768976227
3.650115 47.681152 13.256193 1.880790849211783e-38 1768976227
3.483430 45.503769 12.240373 1.880790849211783e-38 1768976227
3.512792 45.887318 15.532696 1.880790849211783e-38 1768976227
3.567759 46.605347 15.326674 1.880790849211783e-38 1768976227
3.459362 45.189365 11.692576 1.880790849211783e-38 1768976227
3.326750 43.457062 10.727612 1.880790849211783e-38 1768976227
3.904659 51.006245 16.219736 1.880790849211783e-38 1768976227
4.029232 52.633530 16.132933 1.880790849211783e-38 1768976227
3.680087 48.072681 8.792072 1.880790849211783e-38 1768976227
3.700824 48.343571 8.405528 1.880790849211783e-38 1768976227
3.267878 42.688026 10.065183 1.880790849211783e-38 1768976227
3.239001 42.310814 9.716014 1.880790849211783e-38 1768976227
3.808320 49.747776 8.241719 1.880790849211783e-38 1768976227
3.811172 49.785042 7.809009 1.880790849211783e-38 1768976227
3.205721 41.876080 9.212682 1.880790849211783e-38 1768976227
3.363575 43.938114 9.342043 1.880790849211783e-38 1768976227
3.948920 49.617725 6.212450 1.880790849211783e-38 1768976227
3.870126 48.627689 5.839200 1.880790849211783e-38 1768976227
3.811121 47.886292 5.465403 1.880790849211783e-38 1768976227
3.853031 48.412895 5.187966 1.880790849211783e-38 1768976227
3.951457 49.649605 7.468734 1.880790849211783e-38 1768976227
4.026206 50.588818 7.278055 1.880790849211783e-38 1768976227
3.812008 47.897446 4.916648 1.880790849211783e-38 1768976227
3.782019 47.520630 4.566139 1.880790849211783e-38 1768976227
4.327009 54.368370 7.520789 1.880790849211783e-38 1768976227
4.367775 54.880596 7.276536 1.880790849211783e-38 1768976227
3.723547 46.785942 2.499991 1.880790849211783e-38 1768976227
3.729728 46.863605 2.273502 1.880790849211783e-38 1768976227
3.671411 46.130856 4.092050 1.880790849211783e-38 1768976227
3.675648 46.184090 3.888420 1.880790849211783e-38 1768976227
3.736405 46.947491 1.959877 1.880790849211783e-38 1768976227
3.741072 47.006145 1.740625 1.880790849211783e-38 1768976227
3.688640 46.347336 3.607538 1.880790849211783e-38 1768976227
3.699968 46.489677 3.323086 1.880790849211783e-38 1768976227
3.747790 47.090549 1.425086 1.880790849211783e-38 1768976227
4.432350 55.691967 1.411301 1.880790849211783e-38 1768976227
3.707232 46.580952 3.090811 1.880790849211783e-38 1768976227
3.715243 46.681599 2.800738 1.880790849211783e-38 1768976227
4.991701 62.720146 12.631202 1.880790849211783e-38 1768976227
3.781104 47.509140 9.071001 1.880790849211783e-38 1768976227
4.005569 50.329514 18.392380 1.880790849211783e-38 1768976227
3.691151 46.378887 13.705576 1.880790849211783e-38 1768976227
3.883162 48.791489 14.048336 1.880790849211783e-38 1768976227
4.150480 52.150303 18.448208 1.880790849211783e-38 1768976227
4.143550 52.063236 18.086445 1.880790849211783e-38 1768976227
3.797217 47.711601 13.267782 1.880790849211783e-38 1768976227
3.664704 46.046589 12.389305 1.880790849211783e-38 1768976227
3.672028 46.138607 15.621434 1.880790849211783e-38 1768976227
3.729820 46.864758 15.415612 1.880790849211783e-38 1768976227
3.601090 45.247276 11.710318 1.880790849211783e-38 1768976227
3.494083 43.902752 10.840185 1.880790849211783e-38 1768976227
4.046623 50.845356 16.172382 1.880790849211783e-38 1768976227
3.806211 47.824600 14.662379 1.880790849211783e-38 1768976227
3.810203 47.874763 8.757937 1.880790849211783e-38 1768976227
3.836229 48.201786 8.382849 1.880790849211783e-38 1768976227
3.413814 42.894184 10.116173 1.880790849211783e-38 1768976227
3.383497 42.513248 9.764798 1.880790849211783e-38 1768976227
3.945930 49.580154 8.215884 1.880790849211783e-38 1768976227
3.948875 49.617165 7.784510 1.880790849211783e-38 1768976227
3.337066 41.929855 9.226686 1.880790849211783e-38 1768976227
3.483617 43.771244 9.308754 1.880790849211783e-38 1768976227
4.025182 48.717663 5.851435 1.880790849211783e-38 1768976227
3.963686 47.973362 5.476680 1.880790849211783e-38 1768976227
3.963616 47.972515 5.142032 1.880790849211783e-38 1768976227
4.088386 49.482632 7.445437 1.880790849211783e-38 1768976227
3.968347 48.029778 6.911585 1.880790849211783e-38 1768976227
3.934213 47.616642 4.889019 1.880790849211783e-38 1768976227
3.903435 47.244129 4.540681 1.880790849211783e-38 1768976227
4.497829 54.438210 7.532293 1.880790849211783e-38 1768976227
4.521227 54.721409 7.257204 1.880790849211783e-38 1768976227
3.895916 47.153130 2.520228 1.880790849211783e-38 1768976227
3.894433 47.135174 2.287236 1.880790849211783e-38 1768976227
3.823622 46.278141 4.106119 1.880790849211783e-38 1768976227
3.843679 46.520885 3.917734 1.880790849211783e-38 1768976227
3.908056 47.300056 1.975078 1.880790849211783e-38 1768976227
3.912976 47.359604 1.754142 1.880790849211783e-38 1768976227
3.836022 46.428211 3.614717 1.880790849211783e-38 1768976227
3.813486 46.155460 3.300004 1.880790849211783e-38 1768976227
3.920057 47.445305 1.436174 1.880790849211783e-38 1768976227
3.925018 47.505356 1.204137 1.880790849211783e-38 1768976227
3.879057 46.949078 3.116000 1.880790849211783e-38 1768976227
3.887506 47.051334 2.823612 1.880790849211783e-38 1768976227
3.924523 47.499363 0.824021 1.880790849211783e-38 1768976227
5.181377 62.711338 12.632518 1.880790849211783e-38 1768976227
3.900127 47.204090 9.014962 1.880790849211783e-38 1768976227
4.207793 50.927837 18.615583 1.880790849211783e-38 1768976227
3.827654 46.326931 13.693570 1.880790849211783e-38 1768976227
4.022018 48.679375 14.019484 1.880790849211783e-38 1768976227
4.310625 52.172436 18.460552 1.880790849211783e-38 1768976227
4.307980 52.140419 18.117689 1.880790849211783e-38 1768976227
3.953799 47.853703 13.310554 1.880790849211783e-38 1768976227
3.808806 46.098812 12.406392 1.880790849211783e-38 1768976227
3.833076 46.392567 15.711261 1.880790849211783e-38 1768976227
3.893756 47.126980 15.505660 1.880790849211783e-38 1768976227
3.737633 45.237389 11.710623 1.880790849211783e-38 1768976227
3.631874 43.957367 10.856327 1.880790849211783e-38 1768976227
3.876963 46.923729 14.928680 1.880790849211783e-38 1768976227
3.953114 47.845402 14.672345 1.880790849211783e-38 1768976227
3.939309 47.678314 8.724133 1.880790849211783e-38 1768976227
3.970893 48.060596 8.360339 1.880790849211783e-38 1768976227
3.565029 43.148327 10.178599 1.880790849211783e-38 1768976227
3.529463 42.717861 9.814197 1.880790849211783e-38 1768976227
4.082680 49.413567 8.190283 1.880790849211783e-38 1768976227
4.085717 49.450333 7.760233 1.880790849211783e-38 1768976227
3.480787 42.128727 9.272716 1.880790849211783e-38 1768976227
3.797620 45.963425 9.777353 1.880790849211783e-38 1768976227
4.219221 49.255474 6.170168 1.880790849211783e-38 1768976227
4.182170 48.822948 5.865570 1.880790849211783e-38 1768976227
4.116895 48.060921 5.488068 1.880790849211783e-38 1768976227
4.077036 47.595604 5.102927 1.880790849211783e-38 1768976227
4.223940 49.310574 7.421432 1.880790849211783e-38 1768976227
4.069607 47.508881 6.838361 1.880790849211783e-38 1768976227
4.055058 47.339031 4.861750 1.880790849211783e-38 1768976227
3.955110 46.172237 4.438787 1.880790849211783e-38 1768976227
4.743616 55.377289 7.664173 1.880790849211783e-38 1768976227
4.673881 54.563210 7.238060 1.880790849211783e-38 1768976227
4.031621 47.065422 2.516179 1.880790849211783e-38 1768976227
4.026215 47.002308 2.281368 1.880790849211783e-38 1768976227
3.998679 46.680862 4.142903 1.880790849211783e-38 1768976227
3.981885 46.484798 3.915688 1.880790849211783e-38 1768976227
4.076791 47.592743 1.987804 1.880790849211783e-38 1768976227
4.076488 47.589195 1.763093 1.880790849211783e-38 1768976227
3.958458 46.211308 3.598744 1.880790849211783e-38 1768976227
4.043914 47.208927 3.376181 1.880790849211783e-38 1768976227
4.076050 47.584099 1.440740 1.880790849211783e-38 1768976227
4.075734 47.580399 1.206346 1.880790849211783e-38 1768976227
4.031510 47.064133 3.124429 1.880790849211783e-38 1768976227
4.013618 46.855259 2.812559 1.880790849211783e-38 1768976227
4.713748 55.028618 0.954881 1.880790849211783e-38 1768976227
4.719694 55.098042 0.673483 1.880790849211783e-38 1768976227
5.071878 59.209461 11.930129 1.880790849211783e-38 1768976227
4.016376 46.887459 8.956765 1.880790849211783e-38 1768976227
4.397798 51.340191 18.771074 1.880790849211783e-38 1768976227
3.963963 46.275585 13.681865 1.880790849211783e-38 1768976227
4.160300 48.567635 13.990854 1.880790849211783e-38 1768976227
4.469751 52.180187 18.467981 1.880790849211783e-38 1768976227
3.880022 45.295647 15.743271 1.880790849211783e-38 1768976227
4.189927 48.913502 13.608791 1.880790849211783e-38 1768976227
3.957899 46.204788 12.438068 1.880790849211783e-38 1768976227
3.995970 46.649227 15.802192 1.880790849211783e-38 1768976227
4.021028 46.941761 15.448639 1.880790849211783e-38 1768976227
3.876813 45.258179 11.718979 1.880790849211783e-38 1768976227
3.771132 44.024460 10.875655 1.880790849211783e-38 1768976227
4.021162 46.943321 14.938704 1.880790849211783e-38 1768976227
4.137073 48.296471 14.814429 1.880790849211783e-38 1768976227
4.067417 47.483307 8.690656 1.880790849211783e-38 1768976227
4.217509 49.235500 8.566892 1.880790849211783e-38 1768976227
3.722213 43.453377 10.253161 1.880790849211783e-38 1768976227
3.678709 42.945511 9.869001 1.880790849211783e-38 1768976227
4.218581 49.248009 8.164912 1.880790849211783e-38 1768976227
4.221710 49.284542 7.736178 1.880790849211783e-38 1768976227
3.625961 42.329723 9.319321 1.880790849211783e-38 1768976227
3.916765 45.724590 9.729017 1.880790849211783e-38 1768976227
4.359919 49.154213 6.159102 1.880790849211783e-38 1768976227
4.295388 48.426685 5.819492 1.880790849211783e-38 1768976227
4.253190 47.950932 5.476949 1.880790849211783e-38 1768976227
4.197068 47.318207 5.074521 1.880790849211783e-38 1768976227
4.785990 53.957790 8.122992 1.880790849211783e-38 1768976227
4.168771 46.999187 6.766776 1.880790849211783e-38 1768976227
4.078615 45.982761 4.723701 1.880790849211783e-38 1768976227
4.149603 46.783089 4.498694 1.880790849211783e-38 1768976227
4.891647 55.148975 7.634581 1.880790849211783e-38 1768976227
4.825747 54.406006 7.219104 1.880790849211783e-38 1768976227
4.162890 46.932888 2.509753 1.880790849211783e-38 1768976227
4.157322 46.870113 2.275549 1.880790849211783e-38 1768976227
4.121090 46.461628 4.124530 1.880790849211783e-38 1768976227
4.107793 46.311714 3.902134 1.880790849211783e-38 1768976227
4.149690 46.784065 1.954542 1.880790849211783e-38 1768976227
4.227788 47.664555 1.766349 1.880790849211783e-38 1768976227
4.092835 46.143082 3.594375 1.880790849211783e-38 1768976227
4.164432 46.950264 3.358565 1.880790849211783e-38 1768976227
4.227334 47.659439 1.443401 1.880790849211783e-38 1768976227
4.227005 47.655724 1.208573 1.880790849211783e-38 1768976227
4.149545 46.782433 3.106544 1.880790849211783e-38 1768976227
4.131234 46.575989 2.796530 1.880790849211783e-38 1768976227
4.875182 54.963348 0.953999 1.880790849211783e-38 1768976227
4.880501 55.023312 0.672746 1.880790849211783e-38 1768976227
4.886899 55.095440 0.334431 1.880790849211783e-38 1768976227
4.904174 55.290199 0.040602 1.880790849211783e-38 1768976227
5.284081 59.573311 12.006598 1.880790849211783e-38 1768976227
4.122881 46.481812 8.881611 1.880790849211783e-38 1768976227
4.561534 51.427238 18.807846 1.880790849211783e-38 1768976227
4.100088 46.224846 13.670458 1.880790849211783e-38 1768976227
4.298010 48.456242 13.962436 1.880790849211783e-38 1768976227
4.563000 51.443764 18.212130 1.880790849211783e-38 1768976227
3.999640 45.092384 15.676744 1.880790849211783e-38 1768976227
4.644848 52.366531 14.573330 1.880790849211783e-38 1768976227
4.500923 50.743904 13.663565 1.880790849211783e-38 1768976227
3.962835 44.677444 15.138241 1.880790849211783e-38 1768976227
4.221011 47.588139 15.665483 1.880790849211783e-38 1768976227
4.018531 45.305363 11.734281 1.880790849211783e-38 1768976227
3.915463 44.143364 10.907897 1.880790849211783e-38 1768976227
4.165535 46.962700 14.948803 1.880790849211783e-38 1768976227
4.322436 48.731625 14.951838 1.880790849211783e-38 1768976227
4.185734 47.190430 8.639323 1.880790849211783e-38 1768976227
4.353986 49.087326 8.543356 1.880790849211783e-38 1768976227
3.859530 43.512772 10.269876 1.880790849211783e-38 1768976227
3.832729 43.210613 9.932534 1.880790849211783e-38 1768976227
4.353882 49.086147 8.140217 1.880790849211783e-38 1768976227
4.356868 49.119812 7.712349 1.880790849211783e-38 1768976227
3.917655 44.168076 9.726609 1.880790849211783e-38 1768976227
4.029470 45.428699 9.668600 1.880790849211783e-38 1768976227
4.461081 48.627819 6.094803 1.880790849211783e-38 1768976227
4.405384 48.020706 5.772275 1.880790849211783e-38 1768976227
5.066731 55.229691 -0.322221 1.880790849211783e-38 1768976227
5.087446 55.455490 -0.642279 1.880790849211783e-38 1768976227
4.362255 47.550575 5.432698 1.880790849211783e-38 1768976227
4.244447 46.266407 4.963073 1.880790849211783e-38 1768976227
4.400856 47.971344 7.223736 1.880790849211783e-38 1768976227
4.292946 46.795071 6.739222 1.880790849211783e-38 1768976227
4.297962 46.849751 4.814075 1.880790849211783e-38 1768976227
4.272091 46.567745 4.479206 1.880790849211783e-38 1768976227
5.044620 54.988659 7.614459 1.880790849211783e-38 1768976227
4.976834 54.249763 7.200331 1.880790849211783e-38 1768976227
4.230226 46.111393 2.466494 1.880790849211783e-38 1768976227
4.287765 46.738602 2.269782 1.880790849211783e-38 1768976227
4.253933 46.369812 4.117500 1.880790849211783e-38 1768976227
4.242912 46.249680 3.897968 1.880790849211783e-38 1768976227
4.279913 46.653011 1.949597 1.880790849211783e-38 1768976227
4.379650 47.740189 1.769634 1.880790849211783e-38 1768976227
4.227479 46.081451 3.590551 1.880790849211783e-38 1768976227
4.281456 46.669834 3.339413 1.880790849211783e-38 1768976227
4.379179 47.735054 1.446084 1.880790849211783e-38 1768976227
5.161993 56.268082 1.427375 1.880790849211783e-38 1768976227
4.266239 46.503960 3.088893 1.880790849211783e-38 1768976227
4.247519 46.299900 2.780710 1.880790849211783e-38 1768976227
5.050582 55.053654 0.673300 1.880790849211783e-38 1768976227
5.053974 55.090626 0.334492 1.880790849211783e-38 1768976227
5.056917 55.122711 0.040490 1.880790849211783e-38 1768976227
5.497534 59.925632 12.080893 1.880790849211783e-38 1768976227
4.227591 46.082680 8.807741 1.880790849211783e-38 1768976227
4.725636 51.511589 18.843821 1.880790849211783e-38 1768976227
4.236032 46.174694 13.659341 1.880790849211783e-38 1768976227
4.435155 48.345222 13.934237 1.880790849211783e-38 1768976227
4.726201 51.517750 18.243284 1.880790849211783e-38 1768976227
4.118356 44.891964 15.611313 1.880790849211783e-38 1768976227
5.119707 55.807152 15.535062 1.880790849211783e-38 1768976227
4.627503 50.441895 13.585941 1.880790849211783e-38 1768976227
4.086479 44.544495 15.097300 1.880790849211783e-38 1768976227
4.232758 46.138996 15.192573 1.880790849211783e-38 1768976227
4.162410 45.372169 11.754782 1.880790849211783e-38 1768976227
4.060675 44.263214 10.940490 1.880790849211783e-38 1768976227
4.375954 47.699898 15.187593 1.880790849211783e-38 1768976227
4.470395 48.729355 14.955212 1.880790849211783e-38 1768976227
4.576723 49.888371 9.135731 1.880790849211783e-38 1768976227
4.490683 48.950504 8.521862 1.880790849211783e-38 1768976227
3.996775 43.566681 10.285398 1.880790849211783e-38 1768976227
3.968981 43.263706 9.947445 1.880790849211783e-38 1768976227
4.488678 48.928642 8.116305 1.880790849211783e-38 1768976227
4.491197 48.956100 7.688736 1.880790849211783e-38 1768976227
5.435062 59.244663 13.050296 1.880790849211783e-38 1768976227
3.995410 43.551792 9.271661 1.880790849211783e-38 1768976227
4.570223 48.218555 6.045208 1.880790849211783e-38 1768976227
