# .PCD v0.7 - Point Cloud Data file format
VERSION 0.7
FIELDS x y z rgb label
SIZE 4 4 4 4 4
TYPE F F F F U
COUNT 1 1 1 1 1
WIDTH 768
HEIGHT 1
VIEWPOINT 0 0 0 1 0 0 0
POINTS 768
DATA ascii
12.662126 -19.451551 4.659476 1.880790849211783e-38 1768976227
7.475372 -11.483664 2.607977 1.880790849211783e-38 1768976227
4.980959 -7.651747 3.641401 1.880790849211783e-38 1768976227
5.245874 -8.058710 3.728929 1.880790849211783e-38 1768976227
6.065512 -9.317838 5.159276 1.880790849211783e-38 1768976227
6.036833 -9.273781 4.987853 1.880790849211783e-38 1768976227
4.962059 -7.622714 3.430503 1.880790849211783e-38 1768976227
4.678974 -7.187838 3.124342 1.880790849211783e-38 1768976227
6.059406 -9.308457 4.886171 1.880790849211783e-38 1768976227
6.618639 -10.167550 5.166006 1.880790849211783e-38 1768976227
6.616230 -10.163850 3.480841 1.880790849211783e-38 1768976227
4.893017 -7.516651 3.162764 1.880790849211783e-38 1768976227
5.958115 -9.152853 3.782019 1.880790849211783e-38 1768976227
7.767520 -11.932462 3.946840 1.880790849211783e-38 1768976227
7.747995 -11.902467 3.809181 1.880790849211783e-38 1768976227
6.057193 -9.305057 3.747318 1.880790849211783e-38 1768976227
6.147379 -9.443601 3.694853 1.880790849211783e-38 1768976227
7.799696 -11.981890 3.688474 1.880790849211783e-38 1768976227
8.020761 -12.321491 3.618707 1.880790849211783e-38 1768976227
6.256523 -9.611267 3.636206 1.880790849211783e-38 1768976227
10.312942 -15.842737 5.777347 1.880790849211783e-38 1768976227
7.622369 -11.709480 2.547874 1.880790849211783e-38 1768976227
7.449386 -11.443743 2.367238 1.880790849211783e-38 1768976227
11.849790 -18.203644 5.106477 1.880790849211783e-38 1768976227
11.978090 -18.400738 5.027122 1.880790849211783e-38 1768976227
7.017827 -10.780782 2.124917 1.880790849211783e-38 1768976227
6.811487 -10.463803 1.952694 1.880790849211783e-38 1768976227
11.870906 -18.236080 4.773084 1.880790849211783e-38 1768976227
12.407454 -19.060326 4.821456 1.880790849211783e-38 1768976227
8.125407 -12.564970 2.243820 1.880790849211783e-38 1768976227
12.900992 -19.949841 3.407185 1.880790849211783e-38 1768976227
8.060589 -12.464735 1.518922 1.880790849211783e-38 1768976227
8.083074 -12.499505 1.425789 1.880790849211783e-38 1768976227
12.999601 -20.102325 3.301101 1.880790849211783e-38 1768976227
12.745062 -19.708712 3.102127 1.880790849211783e-38 1768976227
8.142722 -12.591746 1.325962 1.880790849211783e-38 1768976227
39.653610 -61.319565 -2.514060 1.880790849211783e-38 1768976227
6.899984 -10.670001 5.293813 1.880790849211783e-38 1768976227
6.872286 -10.627167 5.169081 1.880790849211783e-38 1768976227
11.973960 -18.516294 4.426771 1.880790849211783e-38 1768976227
7.930916 -12.264212 2.779797 1.880790849211783e-38 1768976227
5.393756 -8.340798 3.961555 1.880790849211783e-38 1768976227
5.193285 -8.030793 3.708746 1.880790849211783e-38 1768976227
6.199106 -9.586176 5.297478 1.880790849211783e-38 1768976227
6.178358 -9.554090 5.128571 1.880790849211783e-38 1768976227
4.693350 -7.257704 3.259850 1.880790849211783e-38 1768976227
4.919290 -7.607092 3.300116 1.880790849211783e-38 1768976227
6.015640 -9.302467 4.873481 1.880790849211783e-38 1768976227
6.747066 -10.433530 5.290783 1.880790849211783e-38 1768976227
6.427732 -9.939717 3.397427 1.880790849211783e-38 1768976227
4.575660 -7.075710 2.971411 1.880790849211783e-38 1768976227
6.166933 -9.536423 3.932809 1.880790849211783e-38 1768976227
7.511414 -11.615501 3.834490 1.880790849211783e-38 1768976227
7.580478 -11.722301 3.744189 1.880790849211783e-38 1768976227
6.275447 -9.704227 3.900432 1.880790849211783e-38 1768976227
6.322258 -9.776616 3.817669 1.880790849211783e-38 1768976227
7.858402 -12.152077 3.733551 1.880790849211783e-38 1768976227
7.887418 -12.196948 3.575127 1.880790849211783e-38 1768976227
6.061626 -9.373579 3.539350 1.880790849211783e-38 1768976227
6.499694 -10.050999 3.658117 1.880790849211783e-38 1768976227
7.346164 -11.359963 2.466990 1.880790849211783e-38 1768976227
7.326009 -11.328794 2.338878 1.880790849211783e-38 1768976227
11.612714 -17.957672 5.027629 1.880790849211783e-38 1768976227
12.003351 -18.561747 5.061197 1.880790849211783e-38 1768976227
6.985343 -10.801996 2.124936 1.880790849211783e-38 1768976227
6.968772 -10.776371 2.007092 1.880790849211783e-38 1768976227
11.681300 -18.063732 4.718731 1.880790849211783e-38 1768976227
11.989520 -18.540356 4.680758 1.880790849211783e-38 1768976227
8.285317 -12.897391 2.298710 1.880790849211783e-38 1768976227
12.835795 -19.980923 3.405866 1.880790849211783e-38 1768976227
8.166544 -12.712502 1.546106 1.880790849211783e-38 1768976227
7.969493 -12.405763 1.412348 1.880790849211783e-38 1768976227
12.731180 -19.818073 3.248103 1.880790849211783e-38 1768976227
39.350983 -61.255955 -2.149388 1.880790849211783e-38 1768976227
39.239925 -61.083073 -2.499501 1.880790849211783e-38 1768976227
6.622364 -10.308745 5.104647 1.880790849211783e-38 1768976227
7.359396 -11.456050 5.561430 1.880790849211783e-38 1768976227
12.087317 -18.815800 4.489639 1.880790849211783e-38 1768976227
7.255863 -11.294885 2.555118 1.880790849211783e-38 1768976227
5.132017 -7.988786 3.786994 1.880790849211783e-38 1768976227
5.076667 -7.902627 3.642470 1.880790849211783e-38 1768976227
6.160202 -9.589317 5.288922 1.880790849211783e-38 1768976227
6.053143 -9.422663 5.048198 1.880790849211783e-38 1768976227
4.998230 -7.780527 3.487893 1.880790849211783e-38 1768976227
4.432549 -6.899956 2.987532 1.880790849211783e-38 1768976227
6.195416 -9.644135 5.042665 1.880790849211783e-38 1768976227
6.773078 -10.543356 5.336092 1.880790849211783e-38 1768976227
7.196444 -11.202390 3.922281 1.880790849211783e-38 1768976227
6.145123 -9.565845 3.263287 1.880790849211783e-38 1768976227
4.550533 -7.083616 2.968954 1.880790849211783e-38 1768976227
5.963663 -9.283374 3.821017 1.880790849211783e-38 1768976227
7.560647 -11.769328 3.877726 1.880790849211783e-38 1768976227
7.698021 -11.983173 3.820080 1.880790849211783e-38 1768976227
5.995967 -9.333660 3.744204 1.880790849211783e-38 1768976227
6.006268 -9.349695 3.643870 1.880790849211783e-38 1768976227
7.761883 -12.082585 3.704991 1.880790849211783e-38 1768976227
8.018316 -12.481763 3.651506 1.880790849211783e-38 1768976227
6.079702 -9.464007 3.566554 1.880790849211783e-38 1768976227
6.203116 -9.656121 3.507574 1.880790849211783e-38 1768976227
7.143295 -11.119656 2.410115 1.880790849211783e-38 1768976227
7.242022 -11.273338 2.322909 1.880790849211783e-38 1768976227
11.311523 -17.608154 4.920201 1.880790849211783e-38 1768976227
11.328693 -17.634884 4.799132 1.880790849211783e-38 1768976227
6.774494 -10.545558 2.070462 1.880790849211783e-38 1768976227
6.726038 -10.470130 1.946268 1.880790849211783e-38 1768976227
11.944908 -18.594116 4.847848 1.880790849211783e-38 1768976227
11.863555 -18.467478 4.653304 1.880790849211783e-38 1768976227
8.213957 -12.871505 2.289671 1.880790849211783e-38 1768976227
12.206820 -19.128435 3.254265 1.880790849211783e-38 1768976227
8.090112 -12.677436 1.440493 1.880790849211783e-38 1768976227
39.508671 -61.911213 -1.717801 1.880790849211783e-38 1768976227
38.984638 -61.090046 -2.139432 1.880790849211783e-38 1768976227
38.924736 -60.996166 -2.491130 1.880790849211783e-38 1768976227
7.036913 -11.027043 5.449798 1.880790849211783e-38 1768976227
7.223672 -11.319701 5.484637 1.880790849211783e-38 1768976227
11.665658 -18.280418 4.353478 1.880790849211783e-38 1768976227
7.352509 -11.521592 2.601376 1.880790849211783e-38 1768976227
5.252939 -8.231504 3.894525 1.880790849211783e-38 1768976227
5.165954 -8.095196 3.724031 1.880790849211783e-38 1768976227
6.243747 -9.784130 5.385960 1.880790849211783e-38 1768976227
6.206249 -9.725370 5.200323 1.880790849211783e-38 1768976227
4.859206 -7.614514 3.406887 1.880790849211783e-38 1768976227
4.635798 -7.264428 3.139273 1.880790849211783e-38 1768976227
6.580375 -10.311635 5.381283 1.880790849211783e-38 1768976227
6.612199 -10.361505 5.233940 1.880790849211783e-38 1768976227
6.975994 -10.931581 3.820080 1.880790849211783e-38 1768976227
6.246455 -9.788372 3.332758 1.880790849211783e-38 1768976227
4.651567 -7.289137 3.049200 1.880790849211783e-38 1768976227
4.737389 -7.423624 3.049653 1.880790849211783e-38 1768976227
7.317562 -11.466827 3.770771 1.880790849211783e-38 1768976227
7.625541 -11.949440 3.801978 1.880790849211783e-38 1768976227
5.962716 -9.343746 3.741019 1.880790849211783e-38 1768976227
6.085191 -9.535667 3.709181 1.880790849211783e-38 1768976227
7.645975 -11.981461 3.666895 1.880790849211783e-38 1768976227
7.881238 -12.350126 3.606026 1.880790849211783e-38 1768976227
6.192470 -9.703777 3.649858 1.880790849211783e-38 1768976227
6.153158 -9.642174 3.495751 1.880790849211783e-38 1768976227
7.218709 -11.311923 2.447057 1.880790849211783e-38 1768976227
6.735729 -10.555079 2.170714 1.880790849211783e-38 1768976227
11.551941 -18.102222 5.048499 1.880790849211783e-38 1768976227
11.181220 -17.521292 4.759021 1.880790849211783e-38 1768976227
6.873174 -10.770459 2.110538 1.880790849211783e-38 1768976227
6.867136 -10.760999 1.996478 1.880790849211783e-38 1768976227
11.759742 -18.427853 4.795232 1.880790849211783e-38 1768976227
11.793701 -18.481066 4.647745 1.880790849211783e-38 1768976227
8.352324 -13.175791 2.339308 1.880790849211783e-38 1768976227
8.067344 -12.726234 2.160928 1.880790849211783e-38 1768976227
8.080331 -12.746722 1.445590 1.880790849211783e-38 1768976227
38.992943 -61.511368 -1.301475 1.880790849211783e-38 1768976227
38.708099 -61.062031 -1.690993 1.880790849211783e-38 1768976227
38.241367 -60.325764 -2.108617 1.880790849211783e-38 1768976227
38.460999 -60.672237 -2.473152 1.880790849211783e-38 1768976227
6.985211 -11.019171 5.435470 1.880790849211783e-38 1768976227
7.331419 -11.565313 5.592903 1.880790849211783e-38 1768976227
11.874790 -18.732481 4.452587 1.880790849211783e-38 1768976227
7.416011 -11.698758 2.636315 1.880790849211783e-38 1768976227
7.190085 -11.342361 5.356062 1.880790849211783e-38 1768976227
5.076696 -8.008489 3.677083 1.880790849211783e-38 1768976227
6.165693 -9.726381 5.343910 1.880790849211783e-38 1768976227
5.950222 -9.386477 5.009491 1.880790849211783e-38 1768976227
4.984718 -7.863394 3.511498 1.880790849211783e-38 1768976227
4.787764 -7.552698 3.257592 1.880790849211783e-38 1768976227
6.373932 -10.054878 5.237235 1.880790849211783e-38 1768976227
6.661433 -10.508410 5.297974 1.880790849211783e-38 1768976227
6.877624 -10.849452 3.784113 1.880790849211783e-38 1768976227
6.016252 -9.490639 3.225193 1.880790849211783e-38 1768976227
4.750099 -7.493282 3.128591 1.880790849211783e-38 1768976227
4.830642 -7.620338 3.124465 1.880790849211783e-38 1768976227
7.251466 -11.439188 3.754473 1.880790849211783e-38 1768976227
7.379321 -11.640881 3.696705 1.880790849211783e-38 1768976227
5.908342 -9.320411 3.724525 1.880790849211783e-38 1768976227
6.081715 -9.593906 3.724683 1.880790849211783e-38 1768976227
7.609275 -12.003632 3.666640 1.880790849211783e-38 1768976227
7.726906 -12.189195 3.552217 1.880790849211783e-38 1768976227
5.891779 -9.294281 3.489136 1.880790849211783e-38 1768976227
6.232922 -9.832435 3.557899 1.880790849211783e-38 1768976227
7.414290 -11.696044 2.525304 1.880790849211783e-38 1768976227
7.086762 -11.179368 2.294697 1.880790849211783e-38 1768976227
11.206692 -17.678556 4.792535 1.880790849211783e-38 1768976227
6.732190 -10.620031 2.077073 1.880790849211783e-38 1768976227
6.776806 -10.690413 1.979581 1.880790849211783e-38 1768976227
11.655815 -18.387051 4.775445 1.880790849211783e-38 1768976227
11.588616 -18.281040 4.588631 1.880790849211783e-38 1768976227
38.971130 -61.888954 -0.843513 1.880790849211783e-38 1768976227
8.440953 -13.404839 2.375444 1.880790849211783e-38 1768976227
8.283917 -13.155455 2.229557 1.880790849211783e-38 1768976227
8.073715 -12.821638 1.451318 1.880790849211783e-38 1768976227
8.137486 -12.922912 1.350399 1.880790849211783e-38 1768976227
38.512203 -61.160137 -1.291581 1.880790849211783e-38 1768976227
38.395336 -60.974548 -1.685356 1.880790849211783e-38 1768976227
37.982079 -60.318268 -2.104341 1.880790849211783e-38 1768976227
38.035912 -60.403759 -2.457520 1.880790849211783e-38 1768976227
6.711536 -10.658400 5.247503 1.880790849211783e-38 1768976227
7.304980 -11.600833 5.599400 1.880790849211783e-38 1768976227
11.459026 -18.197756 4.317252 1.880790849211783e-38 1768976227
7.327624 -11.636792 2.617359 1.880790849211783e-38 1768976227
7.202871 -11.438676 5.391261 1.880790849211783e-38 1768976227
5.313711 -8.438554 3.867170 1.880790849211783e-38 1768976227
5.764702 -9.154760 5.020272 1.880790849211783e-38 1768976227
6.021214 -9.562119 5.093515 1.880790849211783e-38 1768976227
5.235026 -8.313596 3.705475 1.880790849211783e-38 1768976227
4.553694 -7.231593 3.113157 1.880790849211783e-38 1768976227
6.381135 -10.133700 5.268242 1.880790849211783e-38 1768976227
6.939383 -11.020237 5.545443 1.880790849211783e-38 1768976227
6.940800 -11.022488 3.837147 1.880790849211783e-38 1768976227
6.038473 -9.589527 3.252594 1.880790849211783e-38 1768976227
4.668283 -7.413568 3.089416 1.880790849211783e-38 1768976227
4.314006 -6.850952 2.803657 1.880790849211783e-38 1768976227
7.521798 -11.945154 3.913073 1.880790849211783e-38 1768976227
7.541181 -11.975936 3.795866 1.880790849211783e-38 1768976227
6.144692 -9.758211 3.892051 1.880790849211783e-38 1768976227
6.046104 -9.601648 3.720592 1.880790849211783e-38 1768976227
7.883060 -12.518865 3.816744 1.880790849211783e-38 1768976227
7.586908 -12.048554 3.504546 1.880790849211783e-38 1768976227
5.924743 -9.408916 3.525447 1.880790849211783e-38 1768976227
6.223700 -9.883682 3.569634 1.880790849211783e-38 1768976227
7.020541 -11.149123 2.402635 1.880790849211783e-38 1768976227
7.020121 -11.148455 2.283995 1.880790849211783e-38 1768976227
11.378265 -18.069502 4.889192 1.880790849211783e-38 1768976227
6.769803 -10.750932 2.098672 1.880790849211783e-38 1768976227
6.680678 -10.609396 1.960839 1.880790849211783e-38 1768976227
11.275884 -17.906912 4.641891 1.880790849211783e-38 1768976227
11.933320 -18.950968 4.747730 1.880790849211783e-38 1768976227
38.550064 -61.631695 -0.422338 1.880790849211783e-38 1768976227
38.471107 -61.505466 -0.836702 1.880790849211783e-38 1768976227
7.966160 -12.735853 2.252627 1.880790849211783e-38 1768976227
8.363931 -13.371787 2.261936 1.880790849211783e-38 1768976227
8.377258 -13.393094 1.513136 1.880790849211783e-38 1768976227
8.108459 -12.963352 1.352063 1.880790849211783e-38 1768976227
38.257282 -61.163609 -1.289212 1.880790849211783e-38 1768976227
38.150452 -60.992813 -1.682673 1.880790849211783e-38 1768976227
37.799404 -60.431580 -2.104308 1.880790849211783e-38 1768976227
37.563828 -60.054955 -2.438709 1.880790849211783e-38 1768976227
6.869142 -10.982000 5.396599 1.880790849211783e-38 1768976227
6.960521 -11.128094 5.361066 1.880790849211783e-38 1768976227
11.460860 -18.322985 4.338742 1.880790849211783e-38 1768976227
7.314881 -11.694623 2.625392 1.880790849211783e-38 1768976227
7.180319 -11.479495 5.400269 1.880790849211783e-38 1768976227
5.212254 -8.333061 3.811605 1.880790849211783e-38 1768976227
5.815642 -9.297725 5.089029 1.880790849211783e-38 1768976227
6.297915 -10.068757 5.353248 1.880790849211783e-38 1768976227
4.713284 -7.535336 3.352244 1.880790849211783e-38 1768976227
4.619269 -7.385030 3.173199 1.880790849211783e-38 1768976227
6.082070 -9.723675 5.045522 1.880790849211783e-38 1768976227
6.660857 -10.649007 5.348505 1.880790849211783e-38 1768976227
6.928277 -11.076545 3.848674 1.880790849211783e-38 1768976227
5.917710 -9.460907 3.202900 1.880790849211783e-38 1768976227
4.518198 -7.223444 3.004495 1.880790849211783e-38 1768976227
4.385135 -7.010708 2.863610 1.880790849211783e-38 1768976227
7.394088 -11.821255 3.865163 1.880790849211783e-38 1768976227
7.312745 -11.691208 3.698612 1.880790849211783e-38 1768976227
5.806354 -9.282875 3.695462 1.880790849211783e-38 1768976227
6.185026 -9.888274 3.824413 1.880790849211783e-38 1768976227
7.567978 -12.099262 3.681841 1.880790849211783e-38 1768976227
7.401399 -11.832943 3.435324 1.880790849211783e-38 1768976227
6.098552 -9.750025 3.646349 1.880790849211783e-38 1768976227
6.259783 -10.007792 3.607624 1.880790849211783e-38 1768976227
7.296668 -11.665504 2.509162 1.880790849211783e-38 1768976227
6.926011 -11.072921 2.264231 1.880790849211783e-38 1768976227
7.523025 -12.027393 3.335180 1.880790849211783e-38 1768976227
6.846825 -10.946322 2.132773 1.880790849211783e-38 1768976227
6.413831 -10.254075 1.891585 1.880790849211783e-38 1768976227
11.419554 -18.256945 4.723679 1.880790849211783e-38 1768976227
11.575088 -18.505606 4.627388 1.880790849211783e-38 1768976227
38.156876 -61.414299 -0.420058 1.880790849211783e-38 1768976227
38.109653 -61.338291 -0.832860 1.880790849211783e-38 1768976227
8.019771 -12.907990 2.278785 1.880790849211783e-38 1768976227
8.300058 -13.359119 2.255548 1.880790849211783e-38 1768976227
7.717522 -12.421515 1.293116 1.880790849211783e-38 1768976227
37.842388 -60.908127 -1.281415 1.880790849211783e-38 1768976227
38.124401 -61.362030 -1.689679 1.880790849211783e-38 1768976227
37.516186 -60.383087 -2.098670 1.880790849211783e-38 1768976227
37.467876 -60.305336 -2.444277 1.880790849211783e-38 1768976227
38.389412 -61.788574 0.053216 1.880790849211783e-38 1768976227
7.094045 -11.418015 5.600319 1.880790849211783e-38 1768976227
6.883366 -11.078922 5.327352 1.880790849211783e-38 1768976227
11.469896 -18.461040 4.363221 1.880790849211783e-38 1768976227
7.549607 -12.151253 2.722780 1.880790849211783e-38 1768976227
7.354183 -11.836712 5.557854 1.880790849211783e-38 1768976227
5.265528 -8.474979 3.869238 1.880790849211783e-38 1768976227
5.991458 -9.643377 5.268305 1.880790849211783e-38 1768976227
5.923350 -9.533758 5.059284 1.880790849211783e-38 1768976227
4.805948 -7.735275 3.434727 1.880790849211783e-38 1768976227
4.808017 -7.738605 3.318877 1.880790849211783e-38 1768976227
6.199440 -9.978129 5.167830 1.880790849211783e-38 1768976227
6.772102 -10.899841 5.464204 1.880790849211783e-38 1768976227
6.883613 -11.079321 3.842407 1.880790849211783e-38 1768976227
5.904738 -9.503800 3.211378 1.880790849211783e-38 1768976227
4.716878 -7.591915 3.151824 1.880790849211783e-38 1768976227
4.577068 -7.366887 3.003443 1.880790849211783e-38 1768976227
7.264216 -11.691909 3.815690 1.880790849211783e-38 1768976227
7.303548 -11.755215 3.711876 1.880790849211783e-38 1768976227
5.502889 -8.857016 3.519307 1.880790849211783e-38 1768976227
5.948519 -9.574266 3.696011 1.880790849211783e-38 1768976227
7.166398 -11.534469 3.503379 1.880790849211783e-38 1768976227
7.789685 -12.537662 3.633079 1.880790849211783e-38 1768976227
5.811100 -9.353089 3.491332 1.880790849211783e-38 1768976227
5.874637 -9.455353 3.402077 1.880790849211783e-38 1768976227
7.230738 -11.638024 2.498549 1.880790849211783e-38 1768976227
7.039563 -11.330325 2.312514 1.880790849211783e-38 1768976227
7.434317 -11.965690 3.311837 1.880790849211783e-38 1768976227
6.680942 -10.753117 2.091193 1.880790849211783e-38 1768976227
6.569633 -10.573964 1.946931 1.880790849211783e-38 1768976227
11.151383 -17.948387 4.635122 1.880790849211783e-38 1768976227
11.225094 -18.067026 4.509234 1.880790849211783e-38 1768976227
37.897003 -61.408421 -0.419234 1.880790849211783e-38 1768976227
37.764671 -61.193993 -0.829350 1.880790849211783e-38 1768976227
8.016962 -12.990708 2.289109 1.880790849211783e-38 1768976227
8.352278 -13.534058 2.280821 1.880790849211783e-38 1768976227
10.870250 -17.614185 2.854185 1.880790849211783e-38 1768976227
10.738368 -17.400484 2.702524 1.880790849211783e-38 1768976227
8.222445 -13.323675 1.384446 1.880790849211783e-38 1768976227
37.479630 -60.732109 -1.275328 1.880790849211783e-38 1768976227
37.778446 -61.216316 -1.682521 1.880790849211783e-38 1768976227
37.418324 -60.632767 -2.103416 1.880790849211783e-38 1768976227
37.291534 -60.427322 -2.444652 1.880790849211783e-38 1768976227
38.511414 -62.404018 0.443384 1.880790849211783e-38 1768976227
37.903824 -61.419476 0.052799 1.880790849211783e-38 1768976227
6.724605 -10.896569 5.334588 1.880790849211783e-38 1768976227
7.081772 -11.475324 5.507668 1.880790849211783e-38 1768976227
11.327577 -18.355238 4.330121 1.880790849211783e-38 1768976227
7.436045 -12.049390 2.694917 1.880790849211783e-38 1768976227
6.996004 -11.336346 5.312979 1.880790849211783e-38 1768976227
7.293042 -11.817668 5.385270 1.880790849211783e-38 1768976227
6.153546 -9.971225 5.437249 1.880790849211783e-38 1768976227
5.682604 -9.208108 4.877355 1.880790849211783e-38 1768976227
5.165969 -8.370952 3.710054 1.880790849211783e-38 1768976227
4.849846 -7.858706 3.364097 1.880790849211783e-38 1768976227
6.486125 -10.510137 5.433209 1.880790849211783e-38 1768976227
6.622075 -10.730431 5.369240 1.880790849211783e-38 1768976227
6.710237 -10.873288 3.763917 1.880790849211783e-38 1768976227
5.768345 -9.347043 3.152517 1.880790849211783e-38 1768976227
4.757441 -7.708972 3.194449 1.880790849211783e-38 1768976227
4.272563 -6.923274 2.817317 1.880790849211783e-38 1768976227
7.116957 -11.532339 3.756592 1.880790849211783e-38 1768976227
7.148488 -11.583432 3.650808 1.880790849211783e-38 1768976227
5.926198 -9.602830 3.808535 1.880790849211783e-38 1768976227
5.555440 -9.002053 3.468632 1.880790849211783e-38 1768976227
7.411500 -12.009617 3.640891 1.880790849211783e-38 1768976227
7.726546 -12.520118 3.621227 1.880790849211783e-38 1768976227
5.852500 -9.483410 3.533373 1.880790849211783e-38 1768976227
6.183622 -10.019961 3.598499 1.880790849211783e-38 1768976227
7.050215 -11.424191 2.448065 1.880790849211783e-38 1768976227
6.873221 -11.137388 2.268894 1.880790849211783e-38 1768976227
7.697374 -12.472848 3.445766 1.880790849211783e-38 1768976227
6.689367 -10.839470 2.104054 1.880790849211783e-38 1768976227
6.169093 -9.996417 1.837156 1.880790849211783e-38 1768976227
10.728781 -17.502846 2.562310 1.880790849211783e-38 1768976227
10.694021 -17.446142 2.449435 1.880790849211783e-38 1768976227
37.394474 -61.005047 -0.415708 1.880790849211783e-38 1768976227
37.499664 -61.176647 -0.827579 1.880790849211783e-38 1768976227
8.235754 -13.435742 2.363141 1.880790849211783e-38 1768976227
8.173698 -13.334506 2.243027 1.880790849211783e-38 1768976227
10.505837 -17.139137 2.772062 1.880790849211783e-38 1768976227
10.673047 -17.411922 2.699289 1.880790849211783e-38 1768976227
8.031221 -13.102072 1.358896 1.880790849211783e-38 1768976227
37.309235 -60.865986 -1.275770 1.880790849211783e-38 1768976227
36.875969 -60.159157 -1.650401 1.880790849211783e-38 1768976227
38.415577 -62.670860 0.895239 1.880790849211783e-38 1768976227
37.238155 -60.750019 -2.103578 1.880790849211783e-38 1768976227
37.144039 -60.596478 -2.446952 1.880790849211783e-38 1768976227
37.938892 -61.893200 0.438940 1.880790849211783e-38 1768976227
37.607082 -61.351891 0.052643 1.880790849211783e-38 1768976227
6.858943 -11.189625 5.467906 1.880790849211783e-38 1768976227
7.110482 -11.599983 5.557181 1.880790849211783e-38 1768976227
7.195441 -11.738585 2.620538 1.880790849211783e-38 1768976227
7.318449 -11.939259 5.585175 1.880790849211783e-38 1768976227
7.133649 -11.637777 5.293467 1.880790849211783e-38 1768976227
5.838614 -9.525068 5.184336 1.880790849211783e-38 1768976227
5.633428 -9.190329 4.858916 1.880790849211783e-38 1768976227
5.187629 -8.463057 3.743924 1.880790849211783e-38 1768976227
4.727250 -7.711997 3.295176 1.880790849211783e-38 1768976227
6.445962 -10.515889 5.426109 1.880790849211783e-38 1768976227
6.892284 -11.244017 5.615799 1.880790849211783e-38 1768976227
6.708796 -10.944674 3.781608 1.880790849211783e-38 1768976227
5.684155 -9.273084 3.121776 1.880790849211783e-38 1768976227
4.732359 -7.720333 3.193228 1.880790849211783e-38 1768976227
4.560470 -7.439913 3.021945 1.880790849211783e-38 1768976227
7.419772 -12.104556 3.935681 1.880790849211783e-38 1768976227
7.335572 -11.967195 3.764771 1.880790849211783e-38 1768976227
4.703216 -7.672789 3.037430 1.880790849211783e-38 1768976227
5.735633 -9.357065 3.598742 1.880790849211783e-38 1768976227
7.426579 -12.115661 3.666232 1.880790849211783e-38 1768976227
7.514915 -12.259771 3.539354 1.880790849211783e-38 1768976227
5.967823 -9.735858 3.620709 1.880790849211783e-38 1768976227
5.934799 -9.681982 3.470676 1.880790849211783e-38 1768976227
7.250232 -11.827971 2.529893 1.880790849211783e-38 1768976227
6.940292 -11.322337 2.302297 1.880790849211783e-38 1768976227
7.813045 -12.746138 3.514740 1.880790849211783e-38 1768976227
6.543604 -10.675183 2.068324 1.880790849211783e-38 1768976227
6.477727 -10.567712 1.938550 1.880790849211783e-38 1768976227
10.814695 -17.763014 2.595610 1.880790849211783e-38 1768976227
10.517655 -17.275129 2.420961 1.880790849211783e-38 1768976227
37.177532 -61.063671 -0.415342 1.880790849211783e-38 1768976227
37.240910 -61.167770 -0.825936 1.880790849211783e-38 1768976227
8.220992 -13.502885 2.370579 1.880790849211783e-38 1768976227
8.033580 -13.195064 2.215486 1.880790849211783e-38 1768976227
10.617571 -17.439238 2.815408 1.880790849211783e-38 1768976227
10.805895 -17.748560 2.746412 1.880790849211783e-38 1768976227
8.006039 -13.149827 1.361339 1.880790849211783e-38 1768976227
36.904819 -60.615742 -1.268187 1.880790849211783e-38 1768976227
37.007763 -60.784824 -1.664496 1.880790849211783e-38 1768976227
37.839890 -62.151581 1.258041 1.880790849211783e-38 1768976227
37.876530 -62.211769 0.887045 1.880790849211783e-38 1768976227
36.585117 -60.090633 -2.076915 1.880790849211783e-38 1768976227
36.697239 -60.274799 -2.429482 1.880790849211783e-38 1768976227
37.619972 -61.790371 0.437404 1.880790849211783e-38 1768976227
37.286919 -61.243336 0.052454 1.880790849211783e-38 1768976227
6.692337 -10.992087 5.361490 1.880790849211783e-38 1768976227
6.977891 -11.461107 5.480543 1.880790849211783e-38 1768976227
7.330535 -12.040320 2.682951 1.880790849211783e-38 1768976227
7.252711 -11.912496 5.562397 1.880790849211783e-38 1768976227
7.089032 -11.643653 5.286391 1.880790849211783e-38 1768976227
6.003326 -9.860395 5.356971 1.880790849211783e-38 1768976227
6.148630 -10.099054 5.329530 1.880790849211783e-38 1768976227
4.882885 -8.020082 3.541428 1.880790849211783e-38 1768976227
4.947822 -8.126740 3.465996 1.880790849211783e-38 1768976227
6.124552 -10.059505 5.181065 1.880790849211783e-38 1768976227
6.564654 -10.782368 5.375318 1.880790849211783e-38 1768976227
6.217374 -10.211966 3.521947 1.880790849211783e-38 1768976227
5.727940 -9.408075 3.161391 1.880790849211783e-38 1768976227
4.565581 -7.498915 3.095938 1.880790849211783e-38 1768976227
4.741863 -7.788455 3.157693 1.880790849211783e-38 1768976227
7.488374 -12.299568 3.991726 1.880790849211783e-38 1768976227
7.408840 -12.168934 3.821190 1.880790849211783e-38 1768976227
4.464170 -7.332347 2.897317 1.880790849211783e-38 1768976227
5.610037 -9.214422 3.537358 1.880790849211783e-38 1768976227
7.547512 -12.396703 3.744372 1.880790849211783e-38 1768976227
7.358578 -12.086380 3.482874 1.880790849211783e-38 1768976227
5.834956 -9.583849 3.557617 1.880790849211783e-38 1768976227
5.946674 -9.767344 3.494831 1.880790849211783e-38 1768976227
6.976714 -11.459173 2.446499 1.880790849211783e-38 1768976227
6.787198 -11.147894 2.262653 1.880790849211783e-38 1768976227
7.581070 -12.451820 3.427262 1.880790849211783e-38 1768976227
6.627028 -10.884818 2.105059 1.880790849211783e-38 1768976227
6.336165 -10.407078 1.905570 1.880790849211783e-38 1768976227
11.074509 -18.313877 2.671212 1.880790849211783e-38 1768976227
10.781899 -17.829990 2.494151 1.880790849211783e-38 1768976227
36.934978 -61.079247 -0.414688 1.880790849211783e-38 1768976227
37.011944 -61.206524 -0.824948 1.880790849211783e-38 1768976227
10.457985 -17.294334 2.299412 1.880790849211783e-38 1768976227
7.984451 -13.203859 2.313843 1.880790849211783e-38 1768976227
8.061024 -13.330485 2.234131 1.880790849211783e-38 1768976227
10.547770 -17.442808 2.810836 1.880790849211783e-38 1768976227
10.949980 -18.107944 2.796900 1.880790849211783e-38 1768976227
8.153561 -13.483515 1.393332 1.880790849211783e-38 1768976227
37.930225 -62.725090 1.851704 1.880790849211783e-38 1768976227
36.543278 -60.431499 -1.262020 1.880790849211783e-38 1768976227
36.722839 -60.728432 -1.659912 1.880790849211783e-38 1768976227
37.805332 -62.518547 1.263156 1.880790849211783e-38 1768976227
37.480293 -61.981033 0.882139 1.880790849211783e-38 1768976227
36.315525 -60.054863 -2.071884 1.880790849211783e-38 1768976227
36.454857 -60.285271 -2.425461 1.880790849211783e-38 1768976227
37.251675 -61.602966 0.435280 1.880790849211783e-38 1768976227
37.222111 -61.554073 0.052623 1.880790849211783e-38 1768976227
6.896393 -11.404542 5.552498 1.880790849211783e-38 1768976227
7.034236 -11.632492 5.552327 1.880790849211783e-38 1768976227
7.412930 -12.258736 2.726626 1.880790849211783e-38 1768976227
6.712677 -11.100731 5.173877 1.880790849211783e-38 1768976227
7.347193 -12.150028 5.506206 1.880790849211783e-38 1768976227
6.035588 -9.981032 5.412596 1.880790849211783e-38 1768976227
5.615598 -9.286495 4.891761 1.880790849211783e-38 1768976227
5.066838 -8.379012 3.693156 1.880790849211783e-38 1768976227
4.949859 -8.185564 3.484702 1.880790849211783e-38 1768976227
6.306668 -10.429316 5.361711 1.880790849211783e-38 1768976227
6.872135 -11.364426 5.655131 1.880790849211783e-38 1768976227
5.962930 -9.860876 3.394644 1.880790849211783e-38 1768976227
5.631383 -9.312598 3.123586 1.880790849211783e-38 1768976227
4.714516 -7.796380 3.212862 1.880790849211783e-38 1768976227
4.503449 -7.447338 3.013873 1.880790849211783e-38 1768976227
7.459831 -12.336298 3.996326 1.880790849211783e-38 1768976227
7.261162 -12.007759 3.763685 1.880790849211783e-38 1768976227
4.086993 -6.758647 2.665741 1.880790849211783e-38 1768976227
5.620726 -9.294975 3.561758 1.880790849211783e-38 1768976227
7.445026 -12.311815 3.711933 1.880790849211783e-38 1768976227
7.707139 -12.745269 3.666028 1.880790849211783e-38 1768976227
5.992469 -9.909724 3.671860 1.880790849211783e-38 1768976227
5.854966 -9.682338 3.458080 1.880790849211783e-38 1768976227
7.042423 -11.646030 2.481846 1.880790849211783e-38 1768976227
6.634446 -10.971361 2.222751 1.880790849211783e-38 1768976227
7.467690 -12.349296 3.392828 1.880790849211783e-38 1768976227
6.206765 -10.264106 1.981387 1.880790849211783e-38 1768976227
6.243579 -10.324986 1.887082 1.880790849211783e-38 1768976227
10.833176 -18.037420 2.626111 1.880790849211783e-38 1768976227
10.944807 -18.223289 2.544539 1.880790849211783e-38 1768976227
37.044525 -61.679760 -0.418005 1.880790849211783e-38 1768976227
36.726402 -61.150082 -0.822690 1.880790849211783e-38 1768976227
10.524899 -17.524136 2.325735 1.880790849211783e-38 1768976227
7.910363 -13.170888 2.303874 1.880790849211783e-38 1768976227
7.863396 -13.092688 2.190293 1.880790849211783e-38 1768976227
8.086613 -13.464347 2.165783 1.880790849211783e-38 1768976227
10.725908 -17.858820 2.753412 1.880790849211783e-38 1768976227
37.938274 -63.167862 2.222886 1.880790849211783e-38 1768976227
37.177788 -61.901649 1.824077 1.880790849211783e-38 1768976227
36.518311 -60.803604 -1.267485 1.880790849211783e-38 1768976227
36.586834 -60.917690 -1.662061 1.880790849211783e-38 1768976227
37.291508 -62.090988 1.252239 1.880790849211783e-38 1768976227
37.439018 -62.336605 0.885589 1.880790849211783e-38 1768976227
36.267254 -60.385590 -2.079511 1.880790849211783e-38 1768976227
36.378914 -60.571503 -2.432552 1.880790849211783e-38 1768976227
37.143391 -61.844376 0.436192 1.880790849211783e-38 1768976227
36.578930 -60.904541 0.051973 1.880790849211783e-38 1768976227
6.798738 -11.320013 5.501336 1.880790849211783e-38 1768976227
6.939681 -11.554686 5.505174 1.880790849211783e-38 1768976227
11.507642 -19.160418 4.486989 1.880790849211783e-38 1768976227
7.097589 -11.817606 2.623735 1.880790849211783e-38 1768976227
6.772251 -11.275912 5.245982 1.880790849211783e-38 1768976227
7.049482 -11.737507 5.309598 1.880790849211783e-38 1768976227
5.805977 -9.667050 5.232809 1.880790849211783e-38 1768976227
5.811936 -9.676972 5.088193 1.880790849211783e-38 1768976227
6.894779 -11.479923 5.050734 1.880790849211783e-38 1768976227
4.592349 -7.646338 3.249235 1.880790849211783e-38 1768976227
6.252974 -10.411308 5.342733 1.880790849211783e-38 1768976227
6.969733 -11.604724 5.764221 1.880790849211783e-38 1768976227
5.898856 -9.821695 3.375016 1.880790849211783e-38 1768976227
5.578959 -9.289061 3.110033 1.880790849211783e-38 1768976227
4.841388 -8.060992 3.315876 1.880790849211783e-38 1768976227
4.625879 -7.702167 3.111339 1.880790849211783e-38 1768976227
7.292647 -12.142382 3.926365 1.880790849211783e-38 1768976227
7.102096 -11.825109 3.699705 1.880790849211783e-38 1768976227
4.337497 -7.222006 2.843326 1.880790849211783e-38 1768976227
5.607084 -9.335890 3.570940 1.880790849211783e-38 1768976227
7.134174 -11.878521 3.574794 1.880790849211783e-38 1768976227
7.198429 -11.985506 3.441231 1.880790849211783e-38 1768976227
5.740723 -9.558400 3.535252 1.880790849211783e-38 1768976227
6.155124 -10.248385 3.653600 1.880790849211783e-38 1768976227
7.107000 -11.833276 2.517170 1.880790849211783e-38 1768976227
6.856704 -11.416528 2.308740 1.880790849211783e-38 1768976227
7.389962 -12.304412 3.374358 1.880790849211783e-38 1768976227
6.407597 -10.668757 2.055762 1.880790849211783e-38 1768976227
6.245816 -10.399389 1.897229 1.880790849211783e-38 1768976227
10.766049 -18.048752 2.623022 1.880790849211783e-38 1768976227
10.713934 -17.961382 2.503445 1.880790849211783e-38 1768976227
36.595970 -61.351337 -0.415029 1.880790849211783e-38 1768976227
36.467785 -61.136444 -0.821024 1.880790849211783e-38 1768976227
10.507060 -17.614567 2.333521 1.880790849211783e-38 1768976227
6.426921 -10.774417 1.881281 1.880790849211783e-38 1768976227
8.306064 -13.924706 2.325281 1.880790849211783e-38 1768976227
8.000139 -13.411839 2.153446 1.880790849211783e-38 1768976227
10.656807 -17.865610 2.749491 1.880790849211783e-38 1768976227
37.515953 -62.893639 2.703252 1.880790849211783e-38 1768976227
37.311367 -62.550663 2.197196 1.880790849211783e-38 1768976227
37.045132 -62.104328 1.826749 1.880790849211783e-38 1768976227
36.235039 -60.746254 -1.264006 1.880790849211783e-38 1768976227
36.261734 -60.791012 -1.655613 1.880790849211783e-38 1768976227
36.888763 -61.842190 1.244972 1.880790849211783e-38 1768976227
36.943623 -61.934158 0.878285 1.880790849211783e-38 1768976227
36.109852 -60.536385 -2.080944 1.880790849211783e-38 1768976227
36.107750 -60.532864 -2.426616 1.880790849211783e-38 1768976227
36.931290 -61.913486 0.435892 1.880790849211783e-38 1768976227
36.707355 -61.538074 0.052419 1.880790849211783e-38 1768976227
6.966022 -11.678193 5.665170 1.880790849211783e-38 1768976227
6.748648 -11.313776 5.380672 1.880790849211783e-38 1768976227
11.636649 -19.508270 4.560211 1.880790849211783e-38 1768976227
10.525209 -17.644993 3.910462 1.880790849211783e-38 1768976227
6.742115 -11.302822 5.249019 1.880790849211783e-38 1768976227
6.967115 -11.680025 5.274067 1.880790849211783e-38 1768976227
5.610496 -9.405720 5.082167 1.880790849211783e-38 1768976227
6.015185 -10.084161 5.292732 1.880790849211783e-38 1768976227
6.854381 -11.491031 5.046504 1.880790849211783e-38 1768976227
4.912702 -8.235903 3.493453 1.880790849211783e-38 1768976227
6.379284 -10.694555 5.478189 1.880790849211783e-38 1768976227
6.680960 -11.200300 5.553305 1.880790849211783e-38 1768976227
5.697690 -9.551896 3.276386 1.880790849211783e-38 1768976227
5.895441 -9.883415 3.303059 1.880790849211783e-38 1768976227
5.029334 -8.431430 3.462000 1.880790849211783e-38 1768976227
4.578543 -7.675702 3.095057 1.880790849211783e-38 1768976227
7.164583 -12.011069 3.876899 1.880790849211783e-38 1768976227
7.212765 -12.091846 3.776336 1.880790849211783e-38 1768976227
4.431126 -7.428564 2.919374 1.880790849211783e-38 1768976227
5.742093 -9.626336 3.675394 1.880790849211783e-38 1768976227
7.286331 -12.215174 3.669479 1.880790849211783e-38 1768976227
7.350692 -12.323073 3.531771 1.880790849211783e-38 1768976227
5.759872 -9.656141 3.564961 1.880790849211783e-38 1768976227
6.143980 -10.300079 3.665406 1.880790849211783e-38 1768976227
6.911562 -11.586893 2.460315 1.880790849211783e-38 1768976227
6.746149 -11.309585 2.282989 1.880790849211783e-38 1768976227
7.467878 -12.519529 3.427160 1.880790849211783e-38 1768976227
6.584831 -11.039145 2.123296 1.880790849211783e-38 1768976227
6.096119 -10.219843 1.861110 1.880790849211783e-38 1768976227
10.682646 -18.032322 2.615940 1.880790849211783e-38 1768976227
10.552760 -17.813078 2.478327 1.880790849211783e-38 1768976227
36.170834 -61.056419 -0.412294 1.880790849211783e-38 1768976227
35.927998 -60.646515 -0.812985 1.880790849211783e-38 1768976227
10.273350 -17.341429 2.293221 1.880790849211783e-38 1768976227
10.517376 -17.753347 2.204278 1.880790849211783e-38 1768976227
6.138344 -10.361534 1.805948 1.880790849211783e-38 1768976227
7.953299 -13.425179 2.237849 1.880790849211783e-38 1768976227
8.084708 -13.646999 2.187279 1.880790849211783e-38 1768976227
10.455905 -17.649582 2.711379 1.880790849211783e-38 1768976227
7.848241 -13.247842 1.292338 1.880790849211783e-38 1768976227
37.306236 -62.972984 3.045939 1.880790849211783e-38 1768976227
37.085907 -62.601059 2.685857 1.880790849211783e-38 1768976227
37.062695 -62.561893 2.193654 1.880790849211783e-38 1768976227
36.910950 -62.305740 1.829390 1.880790849211783e-38 1768976227
36.027355 -60.814224 -1.263154 1.880790849211783e-38 1768976227
36.336433 -61.335957 -1.667463 1.880790849211783e-38 1768976227
36.859039 -62.218109 1.250296 1.880790849211783e-38 1768976227
36.567978 -61.726803 0.873776 1.880790849211783e-38 1768976227
35.922066 -60.636497 -2.080652 1.880790849211783e-38 1768976227
35.985043 -60.742802 -2.430670 1.880790849211783e-38 1768976227
36.699844 -61.949387 0.435364 1.880790849211783e-38 1768976227
36.353771 -61.365219 0.052179 1.880790849211783e-38 1768976227
6.976008 -11.775512 5.702147 1.880790849211783e-38 1768976227
6.697383 -11.305192 5.366959 1.880790849211783e-38 1768976227
10.309794 -17.402948 4.060789 1.880790849211783e-38 1768976227
10.345384 -17.463024 3.863202 1.880790849211783e-38 1768976227
6.861376 -11.582014 5.369040 1.880790849211783e-38 1768976227
7.186398 -12.130651 5.467734 1.880790849211783e-38 1768976227
5.852678 -9.879330 5.328509 1.880790849211783e-38 1768976227
6.171159 -10.416925 5.457592 1.880790849211783e-38 1768976227
7.033961 -11.873336 5.205060 1.880790849211783e-38 1768976227
4.715907 -7.960459 3.370568 1.880790849211783e-38 1768976227
6.320457 -10.668940 5.455278 1.880790849211783e-38 1768976227
6.651598 -11.227908 5.557022 1.880790849211783e-38 1768976227
5.881402 -9.927815 3.399229 1.880790849211783e-38 1768976227
5.756497 -9.716976 3.241618 1.880790849211783e-38 1768976227
4.896430 -8.265181 3.387658 1.880790849211783e-38 1768976227
4.715595 -7.959931 3.203917 1.880790849211783e-38 1768976227
7.172937 -12.107928 3.901163 1.880790849211783e-38 1768976227
7.261418 -12.257285 3.821146 1.880790849211783e-38 1768976227
4.252780 -7.178699 2.816126 1.880790849211783e-38 1768976227
4.319131 -7.290700 2.778647 1.880790849211783e-38 1768976227
7.253312 -12.243600 3.671430 1.880790849211783e-38 1768976227
7.421541 -12.527572 3.583948 1.880790849211783e-38 1768976227
5.894857 -9.950528 3.667066 1.880790849211783e-38 1768976227
5.787520 -9.769343 3.470310 1.880790849211783e-38 1768976227
7.218241 -12.184401 2.582553 1.880790849211783e-38 1768976227
6.404056 -10.810055 2.178243 1.880790849211783e-38 1768976227
7.350405 -12.407495 3.390407 1.880790849211783e-38 1768976227
6.115526 -10.323016 1.981997 1.880790849211783e-38 1768976227
6.413806 -10.826514 1.968058 1.880790849211783e-38 1768976227
11.612487 -19.601896 4.830040 1.880790849211783e-38 1768976227
10.585641 -17.992102 2.605462 1.880790849211783e-38 1768976227
10.406987 -17.688450 2.456610 1.880790849211783e-38 1768976227
36.136219 -61.419674 -0.414010 1.880790849211783e-38 1768976227
36.319008 -61.730350 -0.826042 1.880790849211783e-38 1768976227
10.288530 -17.487112 2.308372 1.880790849211783e-38 1768976227
10.752894 -18.276377 2.265181 1.880790849211783e-38 1768976227
6.325491 -10.751251 1.870540 1.880790849211783e-38 1768976227
7.807620 -13.270383 2.208111 1.880790849211783e-38 1768976227
8.113821 -13.790823 2.206399 1.880790849211783e-38 1768976227
10.470328 -17.796108 2.729025 1.880790849211783e-38 1768976227
37.165760 -63.169540 3.544415 1.880790849211783e-38 1768976227
36.779140 -62.512417 3.018283 1.880790849211783e-38 1768976227
36.805561 -62.557331 2.679205 1.880790849211783e-38 1768976227
36.981647 -62.856621 2.200068 1.880790849211783e-38 1768976227
36.724499 -62.419548 1.829472 1.880790849211783e-38 1768976227
35.698318 -60.675385 -1.258028 1.880790849211783e-38 1768976227
35.946186 -61.096680 -1.658003 1.880790849211783e-38 1768976227
36.967342 -62.832302 1.260392 1.880790849211783e-38 1768976227
36.523556 -62.078007 0.877184 1.880790849211783e-38 1768976227
35.768898 -60.795341 -2.082391 1.880790849211783e-38 1768976227
35.781326 -60.816471 -2.429289 1.880790849211783e-38 1768976227
36.523582 -62.078064 0.435492 1.880790849211783e-38 1768976227
36.500938 -62.039570 0.052658 1.880790849211783e-38 1768976227
6.655406 -11.311997 5.467951 1.880790849211783e-38 1768976227
6.654612 -11.310648 5.359997 1.880790849211783e-38 1768976227
10.287675 -17.485657 4.072829 1.880790849211783e-38 1768976227
10.049054 -17.080082 3.771765 1.880790849211783e-38 1768976227
6.592885 -11.205732 5.185367 1.880790849211783e-38 1768976227
6.825706 -11.601453 5.219902 1.880790849211783e-38 1768976227
5.552689 -9.437742 5.081279 1.880790849211783e-38 1768976227
6.113098 -10.390253 5.433934 1.880790849211783e-38 1768976227
6.765855 -11.499723 5.032306 1.880790849211783e-38 1768976227
4.797142 -8.153562 3.446189 1.880790849211783e-38 1768976227
6.357123 -10.805016 5.515028 1.880790849211783e-38 1768976227
6.689528 -11.369994 5.617333 1.880790849211783e-38 1768976227
6.030840 -10.250442 3.503451 1.880790849211783e-38 1768976227
5.586060 -9.494461 3.161751 1.880790849211783e-38 1768976227
4.706053 -7.998739 3.272619 1.880790849211783e-38 1768976227
4.629944 -7.869380 3.161834 1.880790849211783e-38 1768976227
6.800415 -11.558464 3.717500 1.880790849211783e-38 1768976227
7.023543 -11.937710 3.714900 1.880790849211783e-38 1768976227
4.626135 -7.862906 3.079045 1.880790849211783e-38 1768976227
4.116194 -6.996174 2.661654 1.880790849211783e-38 1768976227
7.062571 -12.004045 3.593192 1.880790849211783e-38 1768976227
7.290712 -12.391809 3.538802 1.880790849211783e-38 1768976227
5.852307 -9.946993 3.659241 1.880790849211783e-38 1768976227
5.978665 -10.161761 3.603285 1.880790849211783e-38 1768976227
7.021676 -11.934535 2.525092 1.880790849211783e-38 1768976227
6.685712 -11.363509 2.285691 1.880790849211783e-38 1768976227
7.452081 -12.666082 3.454910 1.880790849211783e-38 1768976227
11.489228 -19.527903 5.187656 1.880790849211783e-38 1768976227
6.313631 -10.731092 2.056681 1.880790849211783e-38 1768976227
6.124809 -10.410159 1.889006 1.880790849211783e-38 1768976227
9.985241 -16.971621 4.319388 1.880790849211783e-38 1768976227
10.363692 -17.614862 4.332700 1.880790849211783e-38 1768976227
10.343149 -17.701883 2.558906 1.880790849211783e-38 1768976227
10.566173 -18.083582 2.507050 1.880790849211783e-38 1768976227
35.849022 -61.354164 -0.412837 1.880790849211783e-38 1768976227
35.968376 -61.558430 -0.822286 1.880790849211783e-38 1768976227
10.158513 -17.385885 2.290955 1.880790849211783e-38 1768976227
10.520521 -18.005451 2.227660 1.880790849211783e-38 1768976227
6.116154 -10.467553 1.817963 1.880790849211783e-38 1768976227
7.727536 -13.225367 2.196733 1.880790849211783e-38 1768976227
10.370929 -17.749428 2.103536 1.880790849211783e-38 1768976227
7.949435 -13.605140 2.172845 1.880790849211783e-38 1768976227
10.440240 -17.868052 2.735217 1.880790849211783e-38 1768976227
36.902195 -63.156631 3.896288 1.880790849211783e-38 1768976227
36.902054 -63.156384 3.537416 1.880790849211783e-38 1768976227
36.778305 -62.944595 3.033780 1.880790849211783e-38 1768976227
36.745411 -62.888294 2.688622 1.880790849211783e-38 1768976227
36.551464 -62.556362 2.185690 1.880790849211783e-38 1768976227
36.371605 -62.248543 1.821236 1.880790849211783e-38 1768976227
35.990902 -61.596989 -1.274880 1.880790849211783e-38 1768976227
35.616360 -60.955975 -1.651262 1.880790849211783e-38 1768976227
36.512794 -62.490185 1.251315 1.880790849211783e-38 1768976227
36.102280 -61.787605 0.871538 1.880790849211783e-38 1768976227
35.513855 -60.780537 -2.078206 1.880790849211783e-38 1768976227
35.508068 -60.770634 -2.423169 1.880790849211783e-38 1768976227
36.070621 -61.733418 0.432309 1.880790849211783e-38 1768976227
36.194244 -61.945000 0.052485 1.880790849211783e-38 1768976227
6.514647 -11.149557 5.379910 1.880790849211783e-38 1768976227
6.509843 -11.141336 5.270433 1.880790849211783e-38 1768976227
10.167933 -17.402008 4.046184 1.880790849211783e-38 1768976227
10.212651 -17.478542 3.852937 1.880790849211783e-38 1768976227
7.023555 -12.020534 5.552583 1.880790849211783e-38 1768976227
6.646547 -11.375299 5.109105 1.880790849211783e-38 1768976227
5.698329 -9.752462 5.241447 1.880790849211783e-38 1768976227
6.209425 -10.627182 5.548024 1.880790849211783e-38 1768976227
6.736979 -11.530070 5.036671 1.880790849211783e-38 1768976227
6.821086 -11.674016 4.925428 1.880790849211783e-38 1768976227
6.409900 -10.970286 5.589492 1.880790849211783e-38 1768976227
6.577065 -11.256383 5.551379 1.880790849211783e-38 1768976227
5.878111 -10.060151 3.432338 1.880790849211783e-38 1768976227
5.838276 -9.991975 3.321549 1.880790849211783e-38 1768976227
4.908591 -8.400857 3.431069 1.880790849211783e-38 1768976227
4.729825 -8.094905 3.246701 1.880790849211783e-38 1768976227
6.813715 -11.661400 3.743981 1.880790849211783e-38 1768976227
7.062267 -12.086786 3.754646 1.880790849211783e-38 1768976227
4.454789 -7.624193 2.980292 1.880790849211783e-38 1768976227
4.352946 -7.449893 2.829261 1.880790849211783e-38 1768976227
6.871960 -11.761084 3.514246 1.880790849211783e-38 1768976227
7.330871 -12.546492 3.576645 1.880790849211783e-38 1768976227
5.718710 -9.787343 3.594149 1.880790849211783e-38 1768976227
5.874548 -10.054053 3.558794 1.880790849211783e-38 1768976227
6.959379 -11.910698 2.515597 1.880790849211783e-38 1768976227
6.717846 -11.497325 2.308522 1.880790849211783e-38 1768976227
7.096989 -12.146212 3.307252 1.880790849211783e-38 1768976227
10.258151 -17.556414 4.655684 1.880790849211783e-38 1768976227
6.418770 -10.985468 2.101714 1.880790849211783e-38 1768976227
5.905863 -10.107648 1.830873 1.880790849211783e-38 1768976227
10.403563 -17.805281 4.523554 1.880790849211783e-38 1768976227
10.324794 -17.670471 4.338698 1.880790849211783e-38 1768976227
10.189328 -17.559990 2.533941 1.880790849211783e-38 1768976227
10.275466 -17.708435 2.450733 1.880790849211783e-38 1768976227
35.509613 -61.196224 -0.411052 1.880790849211783e-38 1768976227
35.781555 -61.664875 -0.822263 1.880790849211783e-38 1768976227
10.058790 -17.335024 2.280245 1.880790849211783e-38 1768976227
10.300199 -17.751060 2.192333 1.880790849211783e-38 1768976227
6.338888 -10.924253 1.893952 1.880790849211783e-38 1768976227
8.032575 -13.843103 2.295305 1.880790849211783e-38 1768976227
10.292866 -17.738422 2.098543 1.880790849211783e-38 1768976227
8.018600 -13.819017 2.203131 1.880790849211783e-38 1768976227
10.426610 -17.968914 2.745831 1.880790849211783e-38 1768976227
36.896587 -63.586494 3.915925 1.880790849211783e-38 1768976227
36.773285 -63.373989 3.543377 1.880790849211783e-38 1768976227
36.303688 -62.564713 3.010180 1.880790849211783e-38 1768976227
36.536896 -62.966610 2.687247 1.880790849211783e-38 1768976227
36.265812 -62.499432 2.179869 1.880790849211783e-38 1768976227
36.549557 -62.988434 1.839650 1.880790849211783e-38 1768976227
36.919884 -63.626637 4.399590 1.880790849211783e-38 1768976227
35.679108 -61.488323 -1.270398 1.880790849211783e-38 1768976227
35.234543 -60.722176 -1.642042 1.880790849211783e-38 1768976227
36.233784 -62.444229 1.248201 1.880790849211783e-38 1768976227
35.975842 -61.999710 0.872996 1.880790849211783e-38 1768976227
35.210228 -60.680275 -2.071137 1.880790849211783e-38 1768976227
