# .PCD v0.7 - Point Cloud Data file format
VERSION 0.7
FIELDS x y z rgb label
SIZE 4 4 4 4 4
TYPE F F F F U
COUNT 1 1 1 1 1
WIDTH 755
HEIGHT 1
VIEWPOINT 0 0 0 1 0 0 0
POINTS 755
DATA ascii
14.251664 -16.488361 0.906947 1.880790849211783e-38 1768976227
14.251662 -16.488358 0.804481 1.880790849211783e-38 1768976227
14.251663 -16.488361 1.691030 1.880790849211783e-38 1768976227
14.251664 -16.488365 1.552925 1.880790849211783e-38 1768976227
14.251662 -16.488359 0.657466 1.880790849211783e-38 1768976227
14.251664 -16.488363 0.550546 1.880790849211783e-38 1768976227
14.251663 -16.488361 1.441549 1.880790849211783e-38 1768976227
14.251664 -16.488363 1.303443 1.880790849211783e-38 1768976227
14.251663 -16.488361 -0.389463 1.880790849211783e-38 1768976227
14.251663 -16.488359 -0.509749 1.880790849211783e-38 1768976227
14.251663 -16.488359 0.376800 1.880790849211783e-38 1768976227
14.251663 -16.488361 0.265425 1.880790849211783e-38 1768976227
14.251664 -16.488361 -0.643399 1.880790849211783e-38 1768976227
14.251662 -16.488359 -0.750320 1.880790849211783e-38 1768976227
14.251664 -16.488361 0.131774 1.880790849211783e-38 1768976227
14.251662 -16.488361 0.015943 1.880790849211783e-38 1768976227
14.251663 -16.488361 4.375247 1.880790849211783e-38 1768976227
14.251664 -16.488361 4.148041 1.880790849211783e-38 1768976227
14.251664 -16.488361 3.974295 1.880790849211783e-38 1768976227
14.251663 -16.488359 3.778274 1.880790849211783e-38 1768976227
14.251664 -16.488361 4.990039 1.880790849211783e-38 1768976227
14.251662 -16.488359 3.600073 1.880790849211783e-38 1768976227
14.251666 -16.488365 3.408509 1.880790849211783e-38 1768976227
14.251664 -16.488361 4.780653 1.880790849211783e-38 1768976227
14.251664 -16.488363 4.620273 1.880790849211783e-38 1768976227
14.298960 -16.644276 2.738734 1.880790849211783e-38 1768976227
14.298961 -16.644276 2.626598 1.880790849211783e-38 1768976227
14.298959 -16.644278 -0.127482 1.880790849211783e-38 1768976227
14.298959 -16.644274 -0.253076 1.880790849211783e-38 1768976227
14.298960 -16.644274 2.496518 1.880790849211783e-38 1768976227
14.298958 -16.644274 2.344012 1.880790849211783e-38 1768976227
14.298959 -16.644276 3.290447 1.880790849211783e-38 1768976227
14.298958 -16.644274 3.146911 1.880790849211783e-38 1768976227
14.298958 -16.644276 2.245332 1.880790849211783e-38 1768976227
14.298959 -16.644274 2.101797 1.880790849211783e-38 1768976227
14.298959 -16.644274 3.025804 1.880790849211783e-38 1768976227
14.298961 -16.644278 2.900211 1.880790849211783e-38 1768976227
14.298960 -16.644276 1.168819 1.880790849211783e-38 1768976227
14.298959 -16.644276 1.061167 1.880790849211783e-38 1768976227
14.298957 -16.644272 1.940320 1.880790849211783e-38 1768976227
14.298959 -16.644274 1.841639 1.880790849211783e-38 1768976227
14.298959 -16.644274 0.913147 1.880790849211783e-38 1768976227
14.298959 -16.644274 0.809981 1.880790849211783e-38 1768976227
14.298960 -16.644278 1.702590 1.880790849211783e-38 1768976227
14.298960 -16.644276 1.563540 1.880790849211783e-38 1768976227
14.298960 -16.644278 0.661960 1.880790849211783e-38 1768976227
14.298959 -16.644274 0.554309 1.880790849211783e-38 1768976227
14.298961 -16.644278 1.451404 1.880790849211783e-38 1768976227
14.298959 -16.644276 1.312354 1.880790849211783e-38 1768976227
14.298960 -16.644278 -0.392125 1.880790849211783e-38 1768976227
14.298961 -16.644278 -0.513233 1.880790849211783e-38 1768976227
14.298960 -16.644276 0.379376 1.880790849211783e-38 1768976227
14.298958 -16.644276 0.267239 1.880790849211783e-38 1768976227
14.298959 -16.644274 -0.647797 1.880790849211783e-38 1768976227
14.298959 -16.644276 -0.755449 1.880790849211783e-38 1768976227
14.298958 -16.644276 0.132675 1.880790849211783e-38 1768976227
14.298958 -16.644272 0.016052 1.880790849211783e-38 1768976227
14.298960 -16.644276 4.405157 1.880790849211783e-38 1768976227
14.298960 -16.644278 4.176397 1.880790849211783e-38 1768976227
14.298959 -16.644274 4.001463 1.880790849211783e-38 1768976227
14.298961 -16.644278 3.804103 1.880790849211783e-38 1768976227
14.298959 -16.644274 3.624683 1.880790849211783e-38 1768976227
14.298960 -16.644276 3.431809 1.880790849211783e-38 1768976227
14.298958 -16.644274 4.813334 1.880790849211783e-38 1768976227
14.298961 -16.644278 4.651858 1.880790849211783e-38 1768976227
14.346910 -16.802347 2.757612 1.880790849211783e-38 1768976227
14.346910 -16.802349 2.644702 1.880790849211783e-38 1768976227
14.346908 -16.802345 -0.128361 1.880790849211783e-38 1768976227
14.346910 -16.802349 -0.254820 1.880790849211783e-38 1768976227
14.346910 -16.802347 2.513727 1.880790849211783e-38 1768976227
14.346910 -16.802347 2.360169 1.880790849211783e-38 1768976227
14.346908 -16.802347 3.313128 1.880790849211783e-38 1768976227
14.346910 -16.802349 3.168603 1.880790849211783e-38 1768976227
14.346908 -16.802345 2.260808 1.880790849211783e-38 1768976227
14.346909 -16.802347 2.116284 1.880790849211783e-38 1768976227
14.346909 -16.802349 3.046661 1.880790849211783e-38 1768976227
14.346909 -16.802347 2.920202 1.880790849211783e-38 1768976227
14.346911 -16.802353 1.176876 1.880790849211783e-38 1768976227
14.346908 -16.802347 1.068482 1.880790849211783e-38 1768976227
14.346909 -16.802347 1.953694 1.880790849211783e-38 1768976227
14.346909 -16.802349 1.854334 1.880790849211783e-38 1768976227
14.346908 -16.802347 0.919441 1.880790849211783e-38 1768976227
14.346908 -16.802347 0.815564 1.880790849211783e-38 1768976227
14.346910 -16.802349 1.714326 1.880790849211783e-38 1768976227
14.346908 -16.802345 1.574317 1.880790849211783e-38 1768976227
14.346910 -16.802349 0.666523 1.880790849211783e-38 1768976227
14.346908 -16.802345 0.558130 1.880790849211783e-38 1768976227
14.346909 -16.802347 1.461408 1.880790849211783e-38 1768976227
14.346908 -16.802347 1.321399 1.880790849211783e-38 1768976227
14.346909 -16.802347 -0.394828 1.880790849211783e-38 1768976227
14.346909 -16.802347 -0.516771 1.880790849211783e-38 1768976227
14.346909 -16.802347 0.381991 1.880790849211783e-38 1768976227
14.346907 -16.802343 0.269081 1.880790849211783e-38 1768976227
14.346908 -16.802347 -0.652262 1.880790849211783e-38 1768976227
14.346909 -16.802347 -0.760656 1.880790849211783e-38 1768976227
14.346910 -16.802347 0.133589 1.880790849211783e-38 1768976227
14.346909 -16.802347 0.016163 1.880790849211783e-38 1768976227
14.346910 -16.802349 4.435521 1.880790849211783e-38 1768976227
14.346910 -16.802349 4.205184 1.880790849211783e-38 1768976227
14.346909 -16.802347 4.029045 1.880790849211783e-38 1768976227
14.346909 -16.802347 3.830323 1.880790849211783e-38 1768976227
14.346908 -16.802347 3.649668 1.880790849211783e-38 1768976227
14.346910 -16.802349 3.455464 1.880790849211783e-38 1768976227
14.346909 -16.802347 4.846511 1.880790849211783e-38 1768976227
14.346909 -16.802347 4.683921 1.880790849211783e-38 1768976227
14.426256 -16.998829 2.782705 1.880790849211783e-38 1768976227
14.426255 -16.998827 2.668767 1.880790849211783e-38 1768976227
14.426255 -16.998827 -0.129529 1.880790849211783e-38 1768976227
14.426252 -16.998821 -0.257139 1.880790849211783e-38 1768976227
14.426255 -16.998827 2.536600 1.880790849211783e-38 1768976227
14.426250 -16.998821 2.381645 1.880790849211783e-38 1768976227
14.426256 -16.998827 3.343276 1.880790849211783e-38 1768976227
14.426251 -16.998821 3.197434 1.880790849211783e-38 1768976227
14.426251 -16.998821 2.281380 1.880790849211783e-38 1768976227
14.426254 -16.998827 2.135541 1.880790849211783e-38 1768976227
14.426252 -16.998823 3.074383 1.880790849211783e-38 1768976227
14.426252 -16.998823 2.946773 1.880790849211783e-38 1768976227
14.426253 -16.998825 1.187584 1.880790849211783e-38 1768976227
14.426256 -16.998827 1.078204 1.880790849211783e-38 1768976227
14.426251 -16.998823 1.971471 1.880790849211783e-38 1768976227
14.426253 -16.998825 1.871207 1.880790849211783e-38 1768976227
14.426254 -16.998825 0.927808 1.880790849211783e-38 1768976227
14.426257 -16.998831 0.822985 1.880790849211783e-38 1768976227
14.426256 -16.998829 1.729925 1.880790849211783e-38 1768976227
14.426254 -16.998827 1.588643 1.880790849211783e-38 1768976227
14.426254 -16.998827 0.672588 1.880790849211783e-38 1768976227
14.426256 -16.998829 0.563209 1.880790849211783e-38 1768976227
14.426255 -16.998827 1.474706 1.880790849211783e-38 1768976227
14.426254 -16.998825 1.333423 1.880790849211783e-38 1768976227
14.426257 -16.998831 -0.398421 1.880790849211783e-38 1768976227
14.426255 -16.998827 -0.521473 1.880790849211783e-38 1768976227
14.426253 -16.998825 0.385467 1.880790849211783e-38 1768976227
14.426251 -16.998821 0.271530 1.880790849211783e-38 1768976227
14.426255 -16.998827 -0.658198 1.880790849211783e-38 1768976227
14.426252 -16.998823 -0.767577 1.880790849211783e-38 1768976227
14.426251 -16.998823 0.134805 1.880790849211783e-38 1768976227
14.426255 -16.998825 0.016310 1.880790849211783e-38 1768976227
14.426255 -16.998827 4.475881 1.880790849211783e-38 1768976227
14.426252 -16.998823 4.243448 1.880790849211783e-38 1768976227
14.426253 -16.998825 4.065707 1.880790849211783e-38 1768976227
14.426255 -16.998827 3.865178 1.880790849211783e-38 1768976227
14.426255 -16.998827 3.682878 1.880790849211783e-38 1768976227
14.426252 -16.998825 3.486906 1.880790849211783e-38 1768976227
14.426253 -16.998823 4.890612 1.880790849211783e-38 1768976227
14.426255 -16.998827 4.726543 1.880790849211783e-38 1768976227
14.578420 -17.283508 2.822097 1.880790849211783e-38 1768976227
14.578422 -17.283510 2.706547 1.880790849211783e-38 1768976227
14.578424 -17.283514 -0.131363 1.880790849211783e-38 1768976227
14.578420 -17.283510 -0.260779 1.880790849211783e-38 1768976227
14.578428 -17.283522 2.572510 1.880790849211783e-38 1768976227
14.578418 -17.283506 2.415360 1.880790849211783e-38 1768976227
14.578421 -17.283510 3.390604 1.880790849211783e-38 1768976227
14.578424 -17.283514 3.242700 1.880790849211783e-38 1768976227
14.578423 -17.283512 2.313677 1.880790849211783e-38 1768976227
14.578423 -17.283514 2.165773 1.880790849211783e-38 1768976227
14.578421 -17.283510 3.117906 1.880790849211783e-38 1768976227
14.578424 -17.283512 2.988490 1.880790849211783e-38 1768976227
14.578422 -17.283510 1.204396 1.880790849211783e-38 1768976227
14.578422 -17.283512 1.093468 1.880790849211783e-38 1768976227
14.578420 -17.283508 1.999380 1.880790849211783e-38 1768976227
14.578421 -17.283512 1.897696 1.880790849211783e-38 1768976227
14.578424 -17.283514 0.940942 1.880790849211783e-38 1768976227
14.578420 -17.283508 0.834636 1.880790849211783e-38 1768976227
14.578421 -17.283508 1.754414 1.880790849211783e-38 1768976227
14.578422 -17.283512 1.611132 1.880790849211783e-38 1768976227
14.578419 -17.283506 0.682109 1.880790849211783e-38 1768976227
14.578421 -17.283510 0.571182 1.880790849211783e-38 1768976227
14.578421 -17.283510 1.495582 1.880790849211783e-38 1768976227
14.578422 -17.283510 1.352300 1.880790849211783e-38 1768976227
14.578423 -17.283512 -0.404061 1.880790849211783e-38 1768976227
14.578421 -17.283510 -0.528855 1.880790849211783e-38 1768976227
14.578425 -17.283516 0.390924 1.880790849211783e-38 1768976227
14.578419 -17.283506 0.275373 1.880790849211783e-38 1768976227
14.578421 -17.283510 -0.667515 1.880790849211783e-38 1768976227
14.578418 -17.283506 -0.778443 1.880790849211783e-38 1768976227
14.578422 -17.283510 0.136713 1.880790849211783e-38 1768976227
14.578420 -17.283508 0.016541 1.880790849211783e-38 1768976227
14.578424 -17.283514 4.539244 1.880790849211783e-38 1768976227
14.578422 -17.283510 4.303520 1.880790849211783e-38 1768976227
14.578422 -17.283510 4.123262 1.880790849211783e-38 1768976227
14.578422 -17.283510 3.919894 1.880790849211783e-38 1768976227
14.578423 -17.283514 3.735015 1.880790849211783e-38 1768976227
14.578423 -17.283512 3.536268 1.880790849211783e-38 1768976227
14.578423 -17.283512 4.959846 1.880790849211783e-38 1768976227
14.578420 -17.283510 4.793453 1.880790849211783e-38 1768976227
14.734971 -17.576397 2.862651 1.880790849211783e-38 1768976227
14.734970 -17.576397 2.745440 1.880790849211783e-38 1768976227
14.734975 -17.576403 -0.133251 1.880790849211783e-38 1768976227
14.734978 -17.576405 -0.264527 1.880790849211783e-38 1768976227
14.734975 -17.576403 2.609477 1.880790849211783e-38 1768976227
14.734975 -17.576403 2.450070 1.880790849211783e-38 1768976227
14.734973 -17.576399 3.439327 1.880790849211783e-38 1768976227
14.734970 -17.576393 3.289297 1.880790849211783e-38 1768976227
14.734974 -17.576399 2.346925 1.880790849211783e-38 1768976227
14.734970 -17.576397 2.196895 1.880790849211783e-38 1768976227
14.734968 -17.576393 3.162709 1.880790849211783e-38 1768976227
14.734976 -17.576405 3.031435 1.880790849211783e-38 1768976227
14.734971 -17.576397 1.221703 1.880790849211783e-38 1768976227
14.734973 -17.576397 1.109181 1.880790849211783e-38 1768976227
14.734976 -17.576401 2.028112 1.880790849211783e-38 1768976227
14.734974 -17.576401 1.924967 1.880790849211783e-38 1768976227
14.734971 -17.576395 0.954463 1.880790849211783e-38 1768976227
14.734971 -17.576395 0.846630 1.880790849211783e-38 1768976227
14.734976 -17.576405 1.779626 1.880790849211783e-38 1768976227
14.734974 -17.576399 1.634284 1.880790849211783e-38 1768976227
14.734972 -17.576397 0.691912 1.880790849211783e-38 1768976227
14.734972 -17.576399 0.579390 1.880790849211783e-38 1768976227
14.734974 -17.576401 1.517074 1.880790849211783e-38 1768976227
14.734972 -17.576397 1.371733 1.880790849211783e-38 1768976227
14.734973 -17.576399 -0.409867 1.880790849211783e-38 1768976227
14.734971 -17.576397 -0.536455 1.880790849211783e-38 1768976227
14.734975 -17.576401 0.396541 1.880790849211783e-38 1768976227
14.734973 -17.576401 0.279331 1.880790849211783e-38 1768976227
14.734978 -17.576405 -0.677108 1.880790849211783e-38 1768976227
14.734974 -17.576401 -0.789630 1.880790849211783e-38 1768976227
14.734977 -17.576403 0.138678 1.880790849211783e-38 1768976227
14.734973 -17.576399 0.016779 1.880790849211783e-38 1768976227
14.734973 -17.576399 4.604473 1.880790849211783e-38 1768976227
14.734971 -17.576397 4.365362 1.880790849211783e-38 1768976227
14.734971 -17.576397 4.182514 1.880790849211783e-38 1768976227
14.734971 -17.576397 3.976223 1.880790849211783e-38 1768976227
14.734972 -17.576399 3.788687 1.880790849211783e-38 1768976227
14.734972 -17.576397 3.587085 1.880790849211783e-38 1768976227
14.734973 -17.576401 4.862336 1.880790849211783e-38 1768976227
37.779007 -45.341206 -0.342876 1.880790849211783e-38 1768976227
37.779015 -45.341217 -0.680672 1.880790849211783e-38 1768976227
37.779011 -45.341206 3.143650 1.880790849211783e-38 1768976227
37.779018 -45.341213 2.854112 1.880790849211783e-38 1768976227
37.779015 -45.341206 4.953267 1.880790849211783e-38 1768976227
37.779015 -45.341213 2.455997 1.880790849211783e-38 1768976227
37.779015 -45.341209 2.178522 1.880790849211783e-38 1768976227
37.779011 -45.341213 4.579280 1.880790849211783e-38 1768976227
37.779011 -45.341206 4.205292 1.880790849211783e-38 1768976227
37.779011 -45.341209 1.780406 1.880790849211783e-38 1768976227
37.779015 -45.341209 1.490868 1.880790849211783e-38 1768976227
37.779015 -45.341217 3.903690 1.880790849211783e-38 1768976227
37.779011 -45.341206 3.529701 1.880790849211783e-38 1768976227
37.779011 -45.341206 -1.054659 1.880790849211783e-38 1768976227
37.779011 -45.341209 -1.380390 1.880790849211783e-38 1768976227
37.779018 -45.341213 1.020368 1.880790849211783e-38 1768976227
37.779022 -45.341217 0.718765 1.880790849211783e-38 1768976227
37.779015 -45.341209 -1.742313 1.880790849211783e-38 1768976227
37.779018 -45.341213 -2.031852 1.880790849211783e-38 1768976227
37.779018 -45.341217 0.356842 1.880790849211783e-38 1768976227
37.779015 -45.341213 0.043175 1.880790849211783e-38 1768976227
37.688362 -45.510818 -0.343298 1.880790849211783e-38 1768976227
37.688358 -45.510815 -0.681509 1.880790849211783e-38 1768976227
37.688358 -45.510815 3.147514 1.880790849211783e-38 1768976227
37.688354 -45.510811 2.857619 1.880790849211783e-38 1768976227
37.688362 -45.510815 4.959355 1.880790849211783e-38 1768976227
37.688354 -45.510811 2.459015 1.880790849211783e-38 1768976227
37.688354 -45.510811 2.181199 1.880790849211783e-38 1768976227
37.688358 -45.510811 4.584908 1.880790849211783e-38 1768976227
37.688362 -45.510818 4.210461 1.880790849211783e-38 1768976227
37.688362 -45.510818 1.782595 1.880790849211783e-38 1768976227
37.688358 -45.510815 1.492700 1.880790849211783e-38 1768976227
37.688358 -45.510815 3.908487 1.880790849211783e-38 1768976227
37.688358 -45.510811 3.534040 1.880790849211783e-38 1768976227
37.688358 -45.510811 -1.055955 1.880790849211783e-38 1768976227
37.688358 -45.510815 -1.382087 1.880790849211783e-38 1768976227
37.688358 -45.510815 1.021622 1.880790849211783e-38 1768976227
37.688354 -45.510803 0.719649 1.880790849211783e-38 1768976227
37.688362 -45.510815 -1.744455 1.880790849211783e-38 1768976227
37.688362 -45.510815 -2.034350 1.880790849211783e-38 1768976227
37.688362 -45.510818 0.357281 1.880790849211783e-38 1768976227
37.688358 -45.510811 0.043228 1.880790849211783e-38 1768976227
37.597485 -45.680817 -0.343723 1.880790849211783e-38 1768976227
37.597485 -45.680824 -0.682353 1.880790849211783e-38 1768976227
37.597488 -45.680824 3.151416 1.880790849211783e-38 1768976227
37.597485 -45.680820 2.861162 1.880790849211783e-38 1768976227
37.597488 -45.680828 4.965503 1.880790849211783e-38 1768976227
37.597485 -45.680817 2.462063 1.880790849211783e-38 1768976227
37.597485 -45.680817 2.183903 1.880790849211783e-38 1768976227
37.597485 -45.680817 4.590591 1.880790849211783e-38 1768976227
37.597485 -45.680828 4.215680 1.880790849211783e-38 1768976227
37.597488 -45.680824 1.784804 1.880790849211783e-38 1768976227
37.597492 -45.680820 1.494551 1.880790849211783e-38 1768976227
37.597492 -45.680824 3.913333 1.880790849211783e-38 1768976227
37.597488 -45.680817 3.538421 1.880790849211783e-38 1768976227
37.597488 -45.680817 -1.057264 1.880790849211783e-38 1768976227
37.597488 -45.680824 -1.383800 1.880790849211783e-38 1768976227
37.597488 -45.680817 1.022888 1.880790849211783e-38 1768976227
37.597492 -45.680824 0.720541 1.880790849211783e-38 1768976227
37.597485 -45.680820 -1.746617 1.880790849211783e-38 1768976227
37.597488 -45.680820 -2.036871 1.880790849211783e-38 1768976227
37.597488 -45.680824 0.357724 1.880790849211783e-38 1768976227
37.597488 -45.680824 0.043281 1.880790849211783e-38 1768976227
37.506382 -45.851273 -0.344153 1.880790849211783e-38 1768976227
37.506386 -45.851269 -0.683207 1.880790849211783e-38 1768976227
37.506378 -45.851261 3.155356 1.880790849211783e-38 1768976227
37.506386 -45.851273 2.864740 1.880790849211783e-38 1768976227
37.506386 -45.851273 4.971712 1.880790849211783e-38 1768976227
37.506382 -45.851269 2.465142 1.880790849211783e-38 1768976227
37.506371 -45.851254 2.186634 1.880790849211783e-38 1768976227
37.506386 -45.851265 4.596332 1.880790849211783e-38 1768976227
37.506378 -45.851265 4.220951 1.880790849211783e-38 1768976227
37.506382 -45.851269 1.787036 1.880790849211783e-38 1768976227
37.506382 -45.851261 1.496419 1.880790849211783e-38 1768976227
37.506378 -45.851261 3.918225 1.880790849211783e-38 1768976227
37.506378 -45.851269 3.542845 1.880790849211783e-38 1768976227
37.506386 -45.851276 -1.058586 1.880790849211783e-38 1768976227
37.506382 -45.851265 -1.385530 1.880790849211783e-38 1768976227
37.506378 -45.851265 1.024167 1.880790849211783e-38 1768976227
37.506386 -45.851273 0.721442 1.880790849211783e-38 1768976227
37.506374 -45.851257 -1.748801 1.880790849211783e-38 1768976227
37.506382 -45.851269 -2.039418 1.880790849211783e-38 1768976227
37.506382 -45.851273 0.358171 1.880790849211783e-38 1768976227
37.506386 -45.851269 0.043335 1.880790849211783e-38 1768976227
37.415047 -46.022141 -0.344587 1.880790849211783e-38 1768976227
37.415051 -46.022141 -0.684068 1.880790849211783e-38 1768976227
37.415051 -46.022144 3.159336 1.880790849211783e-38 1768976227
37.415047 -46.022141 2.868352 1.880790849211783e-38 1768976227
37.415047 -46.022141 4.977981 1.880790849211783e-38 1768976227
37.415047 -46.022144 2.468251 1.880790849211783e-38 1768976227
37.415051 -46.022144 2.189392 1.880790849211783e-38 1768976227
37.415051 -46.022148 4.602129 1.880790849211783e-38 1768976227
37.415043 -46.022137 4.226274 1.880790849211783e-38 1768976227
37.415051 -46.022144 1.789290 1.880790849211783e-38 1768976227
37.415043 -46.022141 1.498306 1.880790849211783e-38 1768976227
37.415047 -46.022137 3.923166 1.880790849211783e-38 1768976227
37.415047 -46.022141 3.547313 1.880790849211783e-38 1768976227
37.415047 -46.022144 -1.059921 1.880790849211783e-38 1768976227
37.415043 -46.022137 -1.387277 1.880790849211783e-38 1768976227
37.415047 -46.022141 1.025459 1.880790849211783e-38 1768976227
37.415051 -46.022144 0.722352 1.880790849211783e-38 1768976227
37.415051 -46.022144 -1.751006 1.880790849211783e-38 1768976227
37.415047 -46.022144 -2.041990 1.880790849211783e-38 1768976227
37.415047 -46.022141 0.358622 1.880790849211783e-38 1768976227
37.415051 -46.022144 0.043390 1.880790849211783e-38 1768976227
37.341450 -46.215664 -0.345191 1.880790849211783e-38 1768976227
37.341446 -46.215664 -0.685268 1.880790849211783e-38 1768976227
37.341446 -46.215660 3.164875 1.880790849211783e-38 1768976227
37.341450 -46.215660 2.873382 1.880790849211783e-38 1768976227
37.341442 -46.215660 4.986709 1.880790849211783e-38 1768976227
37.341446 -46.215664 2.472579 1.880790849211783e-38 1768976227
37.341450 -46.215660 2.193231 1.880790849211783e-38 1768976227
37.341446 -46.215660 4.610198 1.880790849211783e-38 1768976227
37.341446 -46.215660 4.233685 1.880790849211783e-38 1768976227
37.341442 -46.215656 1.792427 1.880790849211783e-38 1768976227
37.341446 -46.215656 1.500934 1.880790849211783e-38 1768976227
37.341442 -46.215660 3.930046 1.880790849211783e-38 1768976227
37.341446 -46.215660 3.553533 1.880790849211783e-38 1768976227
37.341446 -46.215660 -1.061779 1.880790849211783e-38 1768976227
37.341450 -46.215664 -1.389710 1.880790849211783e-38 1768976227
37.341446 -46.215660 1.027257 1.880790849211783e-38 1768976227
37.341446 -46.215668 0.723618 1.880790849211783e-38 1768976227
37.341446 -46.215660 -1.754077 1.880790849211783e-38 1768976227
37.341446 -46.215660 -2.045571 1.880790849211783e-38 1768976227
37.341450 -46.215656 0.359251 1.880790849211783e-38 1768976227
37.341446 -46.215660 0.043466 1.880790849211783e-38 1768976227
37.278431 -46.423386 -0.345901 1.880790849211783e-38 1768976227
37.278431 -46.423386 -0.686677 1.880790849211783e-38 1768976227
37.278439 -46.423397 3.171387 1.880790849211783e-38 1768976227
37.278435 -46.423393 2.879294 1.880790849211783e-38 1768976227
37.278435 -46.423393 4.996969 1.880790849211783e-38 1768976227
37.278427 -46.423386 2.477666 1.880790849211783e-38 1768976227
37.278435 -46.423393 2.197743 1.880790849211783e-38 1768976227
37.278435 -46.423389 4.619683 1.880790849211783e-38 1768976227
37.278435 -46.423389 4.242395 1.880790849211783e-38 1768976227
37.278431 -46.423393 1.796115 1.880790849211783e-38 1768976227
37.278435 -46.423389 1.504022 1.880790849211783e-38 1768976227
37.278435 -46.423393 3.938132 1.880790849211783e-38 1768976227
37.278431 -46.423393 3.560844 1.880790849211783e-38 1768976227
37.278431 -46.423393 -1.063964 1.880790849211783e-38 1768976227
37.278435 -46.423389 -1.392569 1.880790849211783e-38 1768976227
37.278435 -46.423397 1.029371 1.880790849211783e-38 1768976227
37.278431 -46.423389 0.725107 1.880790849211783e-38 1768976227
37.278431 -46.423389 -1.757685 1.880790849211783e-38 1768976227
37.278431 -46.423389 -2.049779 1.880790849211783e-38 1768976227
37.278435 -46.423393 0.359990 1.880790849211783e-38 1768976227
37.278431 -46.423389 0.043556 1.880790849211783e-38 1768976227
37.215157 -46.631977 -0.346618 1.880790849211783e-38 1768976227
37.215157 -46.631973 -0.688099 1.880790849211783e-38 1768976227
37.215157 -46.631977 3.177954 1.880790849211783e-38 1768976227
37.215157 -46.631977 2.885256 1.880790849211783e-38 1768976227
37.215157 -46.631977 2.482797 1.880790849211783e-38 1768976227
37.215149 -46.631973 2.202294 1.880790849211783e-38 1768976227
37.215157 -46.631985 4.629250 1.880790849211783e-38 1768976227
37.215157 -46.631977 4.251180 1.880790849211783e-38 1768976227
37.215153 -46.631973 1.799834 1.880790849211783e-38 1768976227
37.215157 -46.631973 1.507136 1.880790849211783e-38 1768976227
37.215157 -46.631981 3.946287 1.880790849211783e-38 1768976227
37.215157 -46.631977 3.568218 1.880790849211783e-38 1768976227
37.215153 -46.631973 -1.066167 1.880790849211783e-38 1768976227
37.215157 -46.631977 -1.395453 1.880790849211783e-38 1768976227
37.215157 -46.631977 1.031502 1.880790849211783e-38 1768976227
37.215157 -46.631981 0.726609 1.880790849211783e-38 1768976227
37.215157 -46.631981 -1.761325 1.880790849211783e-38 1768976227
37.215157 -46.631973 -2.054024 1.880790849211783e-38 1768976227
37.215157 -46.631981 0.360736 1.880790849211783e-38 1768976227
37.215157 -46.631977 0.043646 1.880790849211783e-38 1768976227
37.151623 -46.841438 -0.347340 1.880790849211783e-38 1768976227
37.151615 -46.841431 -0.689534 1.880790849211783e-38 1768976227
37.151619 -46.841431 3.184578 1.880790849211783e-38 1768976227
37.151619 -46.841431 2.891269 1.880790849211783e-38 1768976227
37.151619 -46.841431 2.487972 1.880790849211783e-38 1768976227
37.151623 -46.841434 2.206885 1.880790849211783e-38 1768976227
37.151619 -46.841434 4.638898 1.880790849211783e-38 1768976227
37.151619 -46.841434 4.260041 1.880790849211783e-38 1768976227
37.151619 -46.841434 1.803586 1.880790849211783e-38 1768976227
37.151623 -46.841434 1.510278 1.880790849211783e-38 1768976227
37.151619 -46.841431 3.954512 1.880790849211783e-38 1768976227
37.151615 -46.841431 3.575655 1.880790849211783e-38 1768976227
37.151619 -46.841434 -1.068389 1.880790849211783e-38 1768976227
37.151619 -46.841434 -1.398362 1.880790849211783e-38 1768976227
37.151627 -46.841442 1.033652 1.880790849211783e-38 1768976227
37.151619 -46.841434 0.728123 1.880790849211783e-38 1768976227
37.151619 -46.841434 -1.764997 1.880790849211783e-38 1768976227
37.151619 -46.841434 -2.058305 1.880790849211783e-38 1768976227
37.151619 -46.841434 0.361488 1.880790849211783e-38 1768976227
37.151623 -46.841438 0.043737 1.880790849211783e-38 1768976227
37.092773 -47.058029 -0.348115 1.880790849211783e-38 1768976227
37.092773 -47.058037 -0.691072 1.880790849211783e-38 1768976227
37.092773 -47.058033 3.191684 1.880790849211783e-38 1768976227
37.092770 -47.058029 2.897721 1.880790849211783e-38 1768976227
37.092777 -47.058033 2.493523 1.880790849211783e-38 1768976227
37.092770 -47.058025 2.211809 1.880790849211783e-38 1768976227
37.092773 -47.058029 4.649249 1.880790849211783e-38 1768976227
37.092773 -47.058033 4.269547 1.880790849211783e-38 1768976227
37.092773 -47.058033 1.807610 1.880790849211783e-38 1768976227
37.092777 -47.058033 1.513648 1.880790849211783e-38 1768976227
37.092773 -47.058033 3.963336 1.880790849211783e-38 1768976227
37.092773 -47.058037 3.583634 1.880790849211783e-38 1768976227
37.092773 -47.058037 -1.070773 1.880790849211783e-38 1768976227
37.092770 -47.058033 -1.401482 1.880790849211783e-38 1768976227
37.092773 -47.058033 1.035959 1.880790849211783e-38 1768976227
37.092773 -47.058037 0.729748 1.880790849211783e-38 1768976227
37.092773 -47.058037 -1.768935 1.880790849211783e-38 1768976227
37.092773 -47.058033 -2.062898 1.880790849211783e-38 1768976227
37.092773 -47.058041 0.362294 1.880790849211783e-38 1768976227
37.092766 -47.058025 0.043834 1.880790849211783e-38 1768976227
37.067135 -47.318356 -0.349212 1.880790849211783e-38 1768976227
37.067139 -47.318359 -0.693250 1.880790849211783e-38 1768976227
37.067139 -47.318352 3.201743 1.880790849211783e-38 1768976227
37.067139 -47.318359 2.906854 1.880790849211783e-38 1768976227
37.067131 -47.318356 2.501382 1.880790849211783e-38 1768976227
37.067142 -47.318363 2.218781 1.880790849211783e-38 1768976227
37.067139 -47.318356 4.663902 1.880790849211783e-38 1768976227
37.067135 -47.318348 4.283003 1.880790849211783e-38 1768976227
37.067139 -47.318363 1.813307 1.880790849211783e-38 1768976227
37.067139 -47.318359 1.518418 1.880790849211783e-38 1768976227
37.067139 -47.318363 3.975828 1.880790849211783e-38 1768976227
37.067139 -47.318352 3.594929 1.880790849211783e-38 1768976227
37.067139 -47.318363 -1.074148 1.880790849211783e-38 1768976227
37.067135 -47.318352 -1.405899 1.880790849211783e-38 1768976227
37.067139 -47.318359 1.039224 1.880790849211783e-38 1768976227
37.067135 -47.318356 0.732048 1.880790849211783e-38 1768976227
37.067139 -47.318363 -1.774510 1.880790849211783e-38 1768976227
37.067135 -47.318356 -2.069399 1.880790849211783e-38 1768976227
37.067135 -47.318356 0.363436 1.880790849211783e-38 1768976227
37.067135 -47.318359 0.043972 1.880790849211783e-38 1768976227
37.041332 -47.580318 -0.350320 1.880790849211783e-38 1768976227
37.041336 -47.580322 -0.695448 1.880790849211783e-38 1768976227
37.041328 -47.580315 3.211895 1.880790849211783e-38 1768976227
37.041336 -47.580322 2.916071 1.880790849211783e-38 1768976227
37.041332 -47.580326 2.509313 1.880790849211783e-38 1768976227
37.041332 -47.580322 2.225815 1.880790849211783e-38 1768976227
37.041332 -47.580322 4.678690 1.880790849211783e-38 1768976227
37.041336 -47.580330 4.296584 1.880790849211783e-38 1768976227
37.041328 -47.580318 1.819057 1.880790849211783e-38 1768976227
37.041332 -47.580322 1.523233 1.880790849211783e-38 1768976227
37.041336 -47.580326 3.988434 1.880790849211783e-38 1768976227
37.041340 -47.580326 3.606328 1.880790849211783e-38 1768976227
37.041336 -47.580326 -1.077554 1.880790849211783e-38 1768976227
37.041336 -47.580322 -1.410357 1.880790849211783e-38 1768976227
37.041336 -47.580322 1.042519 1.880790849211783e-38 1768976227
37.041332 -47.580322 0.734369 1.880790849211783e-38 1768976227
37.041336 -47.580330 -1.780137 1.880790849211783e-38 1768976227
37.041336 -47.580326 -2.075961 1.880790849211783e-38 1768976227
37.041332 -47.580322 0.364589 1.880790849211783e-38 1768976227
37.041336 -47.580322 0.044112 1.880790849211783e-38 1768976227
37.015373 -47.843967 -0.351437 1.880790849211783e-38 1768976227
37.015373 -47.843964 -0.697667 1.880790849211783e-38 1768976227
37.015369 -47.843964 3.222142 1.880790849211783e-38 1768976227
37.015369 -47.843964 2.925373 1.880790849211783e-38 1768976227
37.015369 -47.843964 2.517318 1.880790849211783e-38 1768976227
37.015369 -47.843967 2.232916 1.880790849211783e-38 1768976227
37.015362 -47.843956 4.693615 1.880790849211783e-38 1768976227
37.015369 -47.843964 4.310290 1.880790849211783e-38 1768976227
37.015369 -47.843964 1.824860 1.880790849211783e-38 1768976227
37.015369 -47.843964 1.528092 1.880790849211783e-38 1768976227
37.015366 -47.843964 4.001157 1.880790849211783e-38 1768976227
37.015362 -47.843952 3.617831 1.880790849211783e-38 1768976227
37.015369 -47.843960 -1.080991 1.880790849211783e-38 1768976227
37.015366 -47.843956 -1.414856 1.880790849211783e-38 1768976227
37.015369 -47.843960 1.045845 1.880790849211783e-38 1768976227
37.015373 -47.843967 0.736712 1.880790849211783e-38 1768976227
37.015366 -47.843956 -1.785815 1.880790849211783e-38 1768976227
37.015373 -47.843967 -2.082584 1.880790849211783e-38 1768976227
37.015369 -47.843960 0.365752 1.880790849211783e-38 1768976227
37.015366 -47.843960 0.044253 1.880790849211783e-38 1768976227
37.013927 -48.141376 -0.352800 1.880790849211783e-38 1768976227
37.013924 -48.141373 -0.700373 1.880790849211783e-38 1768976227
37.013927 -48.141376 3.234639 1.880790849211783e-38 1768976227
37.013935 -48.141388 2.936721 1.880790849211783e-38 1768976227
37.013927 -48.141380 2.527082 1.880790849211783e-38 1768976227
37.013924 -48.141380 2.241577 1.880790849211783e-38 1768976227
37.013924 -48.141373 4.711821 1.880790849211783e-38 1768976227
37.013927 -48.141380 4.327009 1.880790849211783e-38 1768976227
37.013927 -48.141384 1.831938 1.880790849211783e-38 1768976227
37.013927 -48.141376 1.534019 1.880790849211783e-38 1768976227
37.013927 -48.141384 4.016676 1.880790849211783e-38 1768976227
37.013927 -48.141380 3.631864 1.880790849211783e-38 1768976227
37.013927 -48.141380 -1.085184 1.880790849211783e-38 1768976227
37.013924 -48.141373 -1.420344 1.880790849211783e-38 1768976227
37.013927 -48.141380 1.049901 1.880790849211783e-38 1768976227
37.013927 -48.141380 0.739569 1.880790849211783e-38 1768976227
37.013927 -48.141384 -1.792742 1.880790849211783e-38 1768976227
37.013927 -48.141380 -2.090661 1.880790849211783e-38 1768976227
37.013927 -48.141380 0.367170 1.880790849211783e-38 1768976227
37.013924 -48.141373 0.044424 1.880790849211783e-38 1768976227
37.048031 -48.487675 -0.354518 1.880790849211783e-38 1768976227
37.048031 -48.487679 -0.703782 1.880790849211783e-38 1768976227
37.048031 -48.487679 3.250385 1.880790849211783e-38 1768976227
37.048027 -48.487675 2.951015 1.880790849211783e-38 1768976227
37.048031 -48.487675 2.539383 1.880790849211783e-38 1768976227
37.048035 -48.487675 2.252488 1.880790849211783e-38 1768976227
37.048031 -48.487682 4.734757 1.880790849211783e-38 1768976227
37.048031 -48.487675 4.348071 1.880790849211783e-38 1768976227
37.048031 -48.487671 1.840855 1.880790849211783e-38 1768976227
37.048027 -48.487679 1.541486 1.880790849211783e-38 1768976227
37.048031 -48.487679 4.036229 1.880790849211783e-38 1768976227
37.048031 -48.487675 3.649543 1.880790849211783e-38 1768976227
37.048031 -48.487671 -1.090467 1.880790849211783e-38 1768976227
37.048031 -48.487675 -1.427258 1.880790849211783e-38 1768976227
37.048031 -48.487679 1.055012 1.880790849211783e-38 1768976227
37.048031 -48.487675 0.743169 1.880790849211783e-38 1768976227
37.048031 -48.487679 -1.801469 1.880790849211783e-38 1768976227
37.048031 -48.487675 -2.100838 1.880790849211783e-38 1768976227
37.048027 -48.487671 0.368958 1.880790849211783e-38 1768976227
37.048031 -48.487675 0.044640 1.880790849211783e-38 1768976227
37.082470 -48.837360 -0.356255 1.880790849211783e-38 1768976227
37.082478 -48.837376 -0.707231 1.880790849211783e-38 1768976227
37.082474 -48.837368 3.266314 1.880790849211783e-38 1768976227
37.082470 -48.837364 2.965477 1.880790849211783e-38 1768976227
37.082474 -48.837372 2.551829 1.880790849211783e-38 1768976227
37.082478 -48.837368 2.263527 1.880790849211783e-38 1768976227
37.082474 -48.837372 4.757961 1.880790849211783e-38 1768976227
37.082474 -48.837364 4.369380 1.880790849211783e-38 1768976227
37.082474 -48.837376 1.849877 1.880790849211783e-38 1768976227
37.082478 -48.837372 1.549041 1.880790849211783e-38 1768976227
37.082474 -48.837372 4.056010 1.880790849211783e-38 1768976227
37.082474 -48.837372 3.667429 1.880790849211783e-38 1768976227
37.082478 -48.837376 -1.095811 1.880790849211783e-38 1768976227
37.082470 -48.837364 -1.434252 1.880790849211783e-38 1768976227
37.082470 -48.837364 1.060182 1.880790849211783e-38 1768976227
37.082478 -48.837376 0.746811 1.880790849211783e-38 1768976227
37.082478 -48.837379 -1.810298 1.880790849211783e-38 1768976227
37.082474 -48.837368 -2.111134 1.880790849211783e-38 1768976227
37.082478 -48.837372 0.370766 1.880790849211783e-38 1768976227
37.082474 -48.837372 0.044859 1.880790849211783e-38 1768976227
37.190918 -49.288109 -0.358723 1.880790849211783e-38 1768976227
37.190914 -49.288101 -0.712131 1.880790849211783e-38 1768976227
37.190914 -49.288101 3.288944 1.880790849211783e-38 1768976227
37.190914 -49.288109 2.986023 1.880790849211783e-38 1768976227
37.190914 -49.288101 2.569508 1.880790849211783e-38 1768976227
37.190918 -49.288109 2.279209 1.880790849211783e-38 1768976227
37.190918 -49.288109 4.790926 1.880790849211783e-38 1768976227
37.190914 -49.288101 4.399652 1.880790849211783e-38 1768976227
37.190918 -49.288109 1.862693 1.880790849211783e-38 1768976227
37.190914 -49.288101 1.559773 1.880790849211783e-38 1768976227
37.190914 -49.288105 4.084111 1.880790849211783e-38 1768976227
37.190910 -49.288097 3.692837 1.880790849211783e-38 1768976227
37.190914 -49.288109 -1.103403 1.880790849211783e-38 1768976227
37.190922 -49.288109 -1.444189 1.880790849211783e-38 1768976227
37.190918 -49.288105 1.067527 1.880790849211783e-38 1768976227
37.190918 -49.288113 0.751985 1.880790849211783e-38 1768976227
37.190914 -49.288109 -1.822839 1.880790849211783e-38 1768976227
37.190914 -49.288109 -2.125760 1.880790849211783e-38 1768976227
37.190918 -49.288105 0.373335 1.880790849211783e-38 1768976227
37.190918 -49.288109 0.045170 1.880790849211783e-38 1768976227
37.349056 -49.809425 -0.361696 1.880790849211783e-38 1768976227
37.349060 -49.809422 -0.718032 1.880790849211783e-38 1768976227
37.349049 -49.809410 3.316198 1.880790849211783e-38 1768976227
37.349052 -49.809418 3.010767 1.880790849211783e-38 1768976227
37.349056 -49.809422 2.590801 1.880790849211783e-38 1768976227
37.349045 -49.809402 2.298096 1.880790849211783e-38 1768976227
37.349045 -49.809399 4.830626 1.880790849211783e-38 1768976227
37.349052 -49.809410 4.436111 1.880790849211783e-38 1768976227
37.349049 -49.809406 1.878129 1.880790849211783e-38 1768976227
37.349056 -49.809422 1.572698 1.880790849211783e-38 1768976227
37.349045 -49.809410 4.117954 1.880790849211783e-38 1768976227
37.349045 -49.809406 3.723439 1.880790849211783e-38 1768976227
37.349049 -49.809406 -1.112546 1.880790849211783e-38 1768976227
37.349052 -49.809414 -1.456157 1.880790849211783e-38 1768976227
37.349056 -49.809422 1.076374 1.880790849211783e-38 1768976227
37.349049 -49.809410 0.758217 1.880790849211783e-38 1768976227
37.349056 -49.809418 -1.837945 1.880790849211783e-38 1768976227
37.349049 -49.809410 -2.143376 1.880790849211783e-38 1768976227
37.349049 -49.809414 0.376428 1.880790849211783e-38 1768976227
37.349052 -49.809410 0.045544 1.880790849211783e-38 1768976227
25.908434 -77.999992 -0.477503 1.880790849211783e-38 1768976227
25.908432 -77.999992 -0.947930 1.880790849211783e-38 1768976227
25.908432 -78.000000 4.377975 1.880790849211783e-38 1768976227
25.908430 -77.999992 3.974751 1.880790849211783e-38 1768976227
25.908432 -78.000000 3.420320 1.880790849211783e-38 1768976227
25.908430 -78.000000 3.033898 1.880790849211783e-38 1768976227
25.908432 -78.000000 2.479466 1.880790849211783e-38 1768976227
25.908436 -78.000008 2.076243 1.880790849211783e-38 1768976227
25.908436 -78.000000 4.915605 1.880790849211783e-38 1768976227
25.908438 -78.000008 -1.468760 1.880790849211783e-38 1768976227
25.908434 -78.000008 -1.922386 1.880790849211783e-38 1768976227
25.908434 -78.000000 1.421006 1.880790849211783e-38 1768976227
25.908432 -77.999992 1.000982 1.880790849211783e-38 1768976227
25.908432 -77.999992 -2.426415 1.880790849211783e-38 1768976227
25.908436 -78.000008 -2.829639 1.880790849211783e-38 1768976227
25.908438 -78.000008 0.496953 1.880790849211783e-38 1768976227
25.908434 -78.000000 0.060127 1.880790849211783e-38 1768976227
25.647514 -78.000008 -0.477027 1.880790849211783e-38 1768976227
25.647511 -78.000000 -0.946986 1.880790849211783e-38 1768976227
25.647514 -78.000000 4.373614 1.880790849211783e-38 1768976227
25.647509 -77.999992 3.970791 1.880790849211783e-38 1768976227
25.647514 -78.000015 3.416914 1.880790849211783e-38 1768976227
25.647514 -78.000008 3.030876 1.880790849211783e-38 1768976227
25.647512 -78.000000 2.476996 1.880790849211783e-38 1768976227
25.647512 -78.000000 2.074175 1.880790849211783e-38 1768976227
25.647509 -77.999992 4.910708 1.880790849211783e-38 1768976227
25.647507 -77.999985 -1.467296 1.880790849211783e-38 1768976227
25.647512 -78.000000 -1.920471 1.880790849211783e-38 1768976227
25.647512 -78.000000 1.419590 1.880790849211783e-38 1768976227
25.647511 -77.999992 0.999985 1.880790849211783e-38 1768976227
25.647511 -77.999992 -2.423997 1.880790849211783e-38 1768976227
25.647511 -78.000000 -2.826820 1.880790849211783e-38 1768976227
25.647511 -78.000000 0.496458 1.880790849211783e-38 1768976227
25.647509 -78.000000 0.060067 1.880790849211783e-38 1768976227
25.387087 -78.000000 -0.476556 1.880790849211783e-38 1768976227
25.387089 -78.000008 -0.946052 1.880790849211783e-38 1768976227
25.387085 -77.999992 4.369300 1.880790849211783e-38 1768976227
25.387091 -78.000008 3.966876 1.880790849211783e-38 1768976227
25.387083 -77.999985 3.413543 1.880790849211783e-38 1768976227
25.387087 -78.000000 3.027887 1.880790849211783e-38 1768976227
25.387085 -77.999992 2.474553 1.880790849211783e-38 1768976227
25.387089 -78.000008 2.072129 1.880790849211783e-38 1768976227
25.387087 -77.999992 4.905865 1.880790849211783e-38 1768976227
25.387091 -78.000000 -1.465849 1.880790849211783e-38 1768976227
25.387083 -77.999992 -1.918577 1.880790849211783e-38 1768976227
25.387091 -78.000008 1.418191 1.880790849211783e-38 1768976227
25.387083 -77.999992 0.998999 1.880790849211783e-38 1768976227
25.387091 -78.000000 -2.421607 1.880790849211783e-38 1768976227
25.387087 -78.000000 -2.824032 1.880790849211783e-38 1768976227
25.387091 -78.000000 0.495969 1.880790849211783e-38 1768976227
25.387089 -78.000000 0.060008 1.880790849211783e-38 1768976227
25.127172 -78.000000 -0.476091 1.880790849211783e-38 1768976227
25.127174 -78.000000 -0.945129 1.880790849211783e-38 1768976227
25.127172 -78.000000 4.365035 1.880790849211783e-38 1768976227
25.127172 -78.000000 3.963003 1.880790849211783e-38 1768976227
25.127172 -78.000000 3.410211 1.880790849211783e-38 1768976227
25.127169 -77.999977 3.024930 1.880790849211783e-38 1768976227
25.127176 -78.000008 2.472138 1.880790849211783e-38 1768976227
25.127172 -78.000000 2.070107 1.880790849211783e-38 1768976227
25.127171 -78.000000 4.901077 1.880790849211783e-38 1768976227
25.127172 -77.999992 -1.464418 1.880790849211783e-38 1768976227
25.127172 -78.000000 -1.916705 1.880790849211783e-38 1768976227
25.127174 -78.000000 1.416806 1.880790849211783e-38 1768976227
25.127172 -78.000000 0.998024 1.880790849211783e-38 1768976227
25.127171 -77.999992 -2.419243 1.880790849211783e-38 1768976227
25.127171 -77.999992 -2.821275 1.880790849211783e-38 1768976227
25.127171 -77.999992 0.495484 1.880790849211783e-38 1768976227
25.127176 -78.000008 0.059950 1.880790849211783e-38 1768976227
24.867785 -78.000000 -0.475631 1.880790849211783e-38 1768976227
24.867783 -78.000000 -0.944216 1.880790849211783e-38 1768976227
24.867783 -78.000000 4.360818 1.880790849211783e-38 1768976227
24.867785 -78.000000 3.959175 1.880790849211783e-38 1768976227
24.867783 -77.999992 3.406917 1.880790849211783e-38 1768976227
24.867783 -78.000000 3.022009 1.880790849211783e-38 1768976227
24.867785 -78.000000 2.469750 1.880790849211783e-38 1768976227
24.867783 -77.999992 2.068107 1.880790849211783e-38 1768976227
24.867783 -78.000000 4.896342 1.880790849211783e-38 1768976227
24.867785 -77.999992 -1.463004 1.880790849211783e-38 1768976227
24.867786 -78.000008 -1.914853 1.880790849211783e-38 1768976227
24.867783 -78.000000 1.415437 1.880790849211783e-38 1768976227
24.867785 -78.000008 0.997060 1.880790849211783e-38 1768976227
24.867781 -77.999992 -2.416906 1.880790849211783e-38 1768976227
24.867783 -77.999992 -2.818550 1.880790849211783e-38 1768976227
24.867785 -77.999992 0.495006 1.880790849211783e-38 1768976227
24.867783 -78.000000 0.059892 1.880790849211783e-38 1768976227
24.608873 -77.999992 -0.475177 1.880790849211783e-38 1768976227
24.608873 -78.000000 -0.943313 1.880790849211783e-38 1768976227
24.608871 -77.999992 4.356649 1.880790849211783e-38 1768976227
24.608871 -77.999992 3.955390 1.880790849211783e-38 1768976227
24.608875 -78.000000 3.403660 1.880790849211783e-38 1768976227
24.608875 -78.000008 3.019120 1.880790849211783e-38 1768976227
24.608871 -78.000000 2.467388 1.880790849211783e-38 1768976227
24.608870 -77.999985 2.066129 1.880790849211783e-38 1768976227
24.608873 -78.000000 4.891661 1.880790849211783e-38 1768976227
24.608873 -77.999992 -1.461605 1.880790849211783e-38 1768976227
24.608873 -78.000000 -1.913022 1.880790849211783e-38 1768976227
24.608873 -78.000000 1.414084 1.880790849211783e-38 1768976227
24.608873 -78.000000 0.996106 1.880790849211783e-38 1768976227
24.608875 -78.000000 -2.414596 1.880790849211783e-38 1768976227
24.608871 -78.000000 -2.815855 1.880790849211783e-38 1768976227
24.608871 -77.999992 0.494532 1.880790849211783e-38 1768976227
24.608873 -78.000000 0.059834 1.880790849211783e-38 1768976227
24.350451 -77.999992 -0.474727 1.880790849211783e-38 1768976227
24.350454 -77.999992 -0.942420 1.880790849211783e-38 1768976227
24.350456 -78.000000 4.352528 1.880790849211783e-38 1768976227
24.350454 -78.000000 3.951648 1.880790849211783e-38 1768976227
24.350451 -77.999992 3.400439 1.880790849211783e-38 1768976227
24.350451 -77.999992 3.016263 1.880790849211783e-38 1768976227
24.350456 -78.000008 2.465054 1.880790849211783e-38 1768976227
24.350454 -78.000000 2.064175 1.880790849211783e-38 1768976227
24.350454 -78.000000 4.887033 1.880790849211783e-38 1768976227
24.350456 -78.000000 -1.460222 1.880790849211783e-38 1768976227
24.350456 -78.000000 -1.911212 1.880790849211783e-38 1768976227
24.350454 -78.000000 1.412746 1.880790849211783e-38 1768976227
24.350451 -77.999992 0.995164 1.880790849211783e-38 1768976227
24.350452 -77.999992 -2.412311 1.880790849211783e-38 1768976227
24.350454 -78.000000 -2.813191 1.880790849211783e-38 1768976227
24.350451 -77.999992 0.494065 1.880790849211783e-38 1768976227
24.350451 -77.999992 0.059778 1.880790849211783e-38 1768976227
24.092520 -77.999992 -0.474283 1.880790849211783e-38 1768976227
24.092524 -78.000000 -0.941538 1.880790849211783e-38 1768976227
24.092522 -78.000000 4.348453 1.880790849211783e-38 1768976227
24.092522 -78.000000 3.947948 1.880790849211783e-38 1768976227
24.092522 -78.000000 3.397256 1.880790849211783e-38 1768976227
24.092520 -77.999992 3.013439 1.880790849211783e-38 1768976227
24.092520 -77.999992 2.462746 1.880790849211783e-38 1768976227
24.092522 -78.000000 2.062243 1.880790849211783e-38 1768976227
24.092520 -78.000000 4.882458 1.880790849211783e-38 1768976227
24.092522 -78.000000 -1.458855 1.880790849211783e-38 1768976227
24.092522 -78.000000 -1.909423 1.880790849211783e-38 1768976227
24.092522 -78.000000 1.411424 1.880790849211783e-38 1768976227
24.092522 -78.000000 0.994232 1.880790849211783e-38 1768976227
24.092520 -77.999992 -2.410053 1.880790849211783e-38 1768976227
24.092524 -78.000000 -2.810558 1.880790849211783e-38 1768976227
24.092520 -77.999992 0.493602 1.880790849211783e-38 1768976227
24.092520 -77.999992 0.059722 1.880790849211783e-38 1768976227
23.835087 -78.000000 -0.473843 1.880790849211783e-38 1768976227
23.835089 -77.999992 -0.940666 1.880790849211783e-38 1768976227
23.835091 -78.000000 4.344426 1.880790849211783e-38 1768976227
23.835085 -78.000000 3.944292 1.880790849211783e-38 1768976227
23.835089 -78.000000 3.394110 1.880790849211783e-38 1768976227
23.835087 -77.999992 3.010649 1.880790849211783e-38 1768976227
23.835091 -78.000000 2.460466 1.880790849211783e-38 1768976227
23.835089 -78.000000 2.060333 1.880790849211783e-38 1768976227
23.835091 -78.000008 4.877937 1.880790849211783e-38 1768976227
23.835087 -77.999992 -1.457504 1.880790849211783e-38 1768976227
23.835091 -77.999992 -1.907655 1.880790849211783e-38 1768976227
23.835091 -78.000000 1.410117 1.880790849211783e-38 1768976227
23.835089 -77.999992 0.993312 1.880790849211783e-38 1768976227
23.835089 -78.000008 -2.407821 1.880790849211783e-38 1768976227
23.835087 -78.000000 -2.807955 1.880790849211783e-38 1768976227
23.835085 -77.999992 0.493145 1.880790849211783e-38 1768976227
23.835087 -77.999992 0.059667 1.880790849211783e-38 1768976227
23.578110 -78.000000 -0.473409 1.880790849211783e-38 1768976227
23.578110 -78.000000 -0.939804 1.880790849211783e-38 1768976227
23.578114 -78.000008 4.340446 1.880790849211783e-38 1768976227
23.578112 -78.000000 3.940678 1.880790849211783e-38 1768976227
23.578110 -78.000000 3.391001 1.880790849211783e-38 1768976227
23.578112 -78.000000 3.007891 1.880790849211783e-38 1768976227
23.578110 -78.000000 2.458211 1.880790849211783e-38 1768976227
23.578112 -78.000008 2.058445 1.880790849211783e-38 1768976227
23.578110 -78.000000 4.873467 1.880790849211783e-38 1768976227
23.578112 -78.000008 -1.456169 1.880790849211783e-38 1768976227
23.578110 -78.000000 -1.905907 1.880790849211783e-38 1768976227
